# .PCD v0.7 - Point Cloud Data file format
VERSION 0.7
FIELDS x y z
SIZE 4 4 4
TYPE F F F
COUNT 1 1 1
WIDTH 1447
HEIGHT 1
VIEWPOINT 0 0 0 1 0 0 0
POINTS 1447
DATA ascii
0.036097292 -0.34076148 2.3941612
-1.4737098 0.23823941 3.1929028
0.10455735 -0.57107806 2.4142876
0.54411399 -0.3848896 2.5998747
-0.59394062 0.34652793 1.8767229
-0.71575612 -0.23255523 2.2796617
0.37623578 -0.048377711 2.2065661
1.1462649 -0.48701712 2.5863352
0.86486936 -0.2355064 2.446552
-1.2674465 -0.26779604 2.9749269
-1.2575282 -0.29510221 2.8450358
-1.079398 0.12733406 1.8534399
-0.89741671 -0.83496219 2.0998297
1.0616705 -0.54091924 2.4113309
-1.0523163 -0.76385522 2.1964123
-1.2584628 -0.93150908 3.147073
-1.2606539 -0.93122077 3.1589847
0.15082091 -0.11638872 2.2152886
-0.60693622 0.24171789 1.7647762
0.21884736 -0.27839351 2.5520089
-1.2219167 -0.11573614 2.3851678
0.59232801 -0.34528378 2.5629883
0.5595324 -0.36503753 2.6023183
-1.0576895 0.2093415 1.9155884
-0.74075598 -0.81290817 2.6219192
0.41045642 0.72555715 2.1667426
-0.1257738 -0.13290614 2.3475001
-0.11793222 -0.13302572 2.3545978
-0.95350814 0.39697251 1.8107597
-0.60067511 -0.72867328 2.3316751
-1.0409187 0.24611399 2.0947909
-0.34198791 -0.13597861 2.3697915
-1.021088 -0.38199437 2.8065345
0.58853149 -0.42387015 2.5991356
0.77649617 -0.36719245 2.5768631
0.15265508 -0.022009116 2.1335666
1.0339104 -0.36577401 2.4504805
-1.0099244 -0.8938241 2.1896055
0.5439415 -0.3251324 2.6647286
-0.59699416 -0.64513373 2.4029272
-1.0327028 -0.75652635 2.6303747
-0.87766516 -0.81647342 2.1935179
-0.88461 0.0033235685 2.2063196
-1.0323694 0.54485083 2.4005423
-0.58742779 0.22318892 1.7303691
-0.96535414 0.0012845225 2.0952008
-1.255584 -0.7968778 2.8558571
0.42064834 -0.14698833 2.4421799
-0.095875613 0.46305773 2.2453167
-1.0429261 -0.62124121 2.3284364
-1.2157105 0.0099533359 2.9986126
-0.17982623 -0.8496905 2.466099
-1.1876167 -0.28147516 2.6389203
-1.2271837 -0.028235765 2.2082419
-1.1478096 -0.76889968 2.5166252
-1.2015821 -0.1200003 2.8276451
-1.21427 -0.13233408 2.7042093
-0.15810294 -0.86342651 2.3573472
-0.480955 0.14393677 1.8719641
-1.2010864 -0.10368368 2.8517392
0.35895553 -0.19600551 2.3278167
0.86331546 -0.56278527 2.3229694
0.48764664 0.49482059 2.7106977
0.96448696 -0.62231302 2.5461574
-0.97050691 -0.73909599 2.1186798
0.28530917 -0.15044515 2.3087263
0.40774709 -0.15351687 2.3116138
-0.74164343 -0.20444058 2.3303571
0.79828817 -0.50337046 2.4053848
0.073073328 0.34965721 2.8112178
0.5614512 -0.34459466 2.6104577
-0.77558297 -0.14603555 2.09482
-0.89118427 -0.86258996 3.0237966
-1.1664166 -0.8190276 2.9626889
-0.7542612 -0.73579574 3.685638
-0.74309593 -0.72941989 3.6907046
-0.97785956 0.27246419 2.1094372
-1.0553173 -0.91491091 2.8127244
-0.81375295 -0.62155801 3.6961133
-1.0727217 -0.73826218 2.2419605
-0.91216749 -0.80821234 2.1580894
-0.57051367 0.021652827 2.164443
-1.0244651 -0.44237056 2.8727734
-0.7298491 -0.20831403 2.1824541
-1.2685519 -0.31113634 2.9939682
-1.2177168 -0.021969303 3.1372972
-1.2208227 0.0027037924 2.9322815
-0.50362724 0.18337652 1.9237982
-0.93027377 -0.15269798 2.3764331
-0.76159459 -0.21848293 2.1624448
-0.70679992 -0.18864134 2.440948
-1.0748727 -0.33362827 2.5276008
-0.3602376 -0.11382259 2.3047328
-1.0462517 -0.35899884 2.7064981
-0.18471418 -0.63326514 2.5063624
0.96698362 -0.4561891 2.4815388
-0.84882492 -0.14509293 2.1671138
0.70360541 -0.58717191 2.5098734
-0.78562737 -0.071442463 2.1339889
0.3439056 -0.13639028 2.2465677
-1.05952 -0.87512225 2.1970251
0.98808038 -0.62330931 2.5529902
-1.0993249 -0.76801974 2.3825274
-0.73099315 -0.34942523 2.3746562
-0.070039645 -0.68997699 2.3942378
-0.07750731 -0.65597373 2.4683115
-0.62044078 -0.74993289 2.360142
-0.7611053 -0.043012101 2.1690559
-0.93027985 -0.25834462 2.5019579
0.41500694 0.45340499 2.3522005
-0.9540152 -0.75479937 2.1738322
0.47454292 -0.33747709 2.6051471
-0.14484185 -0.87415355 2.4027569
0.021264428 -0.11319698 2.3165679
0.64639884 -0.63412768 3.561615
-1.1286123 -0.91347015 2.3188522
-1.0952675 -0.8185823 2.1912882
-1.0405333 -0.69670755 2.2200515
-0.60735321 -0.7657004 2.3033822
-1.0795786 -0.70029205 2.3411539
-0.96975684 -0.75872248 2.1731627
-0.99690938 -0.74715006 2.1985283
-0.88040149 -0.77149069 2.171253
-1.048851 -0.37607414 2.4762561
-1.0788393 -0.70001084 2.3489394
-0.99746799 -0.64801645 2.3151281
0.71077132 -0.37834686 2.5699763
-0.99914235 -0.7566368 2.1779623
-1.0927587 -0.79140842 2.4855404
-0.47523946 0.20050748 1.9360272
0.12362929 -0.39240509 2.462306
0.091867201 -0.39671427 2.4420712
-0.067072354 -0.4018164 2.3386219
-1.034633 -0.86871725 2.1922925
-0.96759498 -0.040730432 2.1654041
0.50143743 -0.44097331 2.5255616
1.2382522 -0.53265786 2.5232856
-0.61280316 -0.79541063 2.2867258
-1.0178137 -0.70797956 2.2090666
0.57890439 -0.41403383 2.6330743
0.63254875 -0.38349161 2.5978742
0.73369175 -0.14207546 2.2613981
-1.0766325 -0.72684574 2.2481472
0.7163825 -0.30220833 2.6902103
-1.0160768 -0.74607289 2.1714065
-1.0428243 -0.94125563 2.2460985
-1.1106757 -0.93186873 2.3044016
-1.035319 -0.72698396 2.5142508
-0.85033566 -0.15462692 2.1652145
-0.33831969 -0.018858681 2.2134039
-1.1089553 -0.88436121 2.2762632
-1.0674328 -0.27326143 2.5312972
-0.62166113 -0.75027752 2.358681
-0.76154184 -0.19217288 2.1475704
-0.62243325 -0.79166323 2.2718205
-1.085395 -0.8832258 3.118593
1.1846915 -0.19984272 2.4748757
-0.56213582 -0.17818646 2.4383411
-0.91358191 0.29656795 2.1710293
-1.2683799 -0.99297118 2.6642017
-1.0249356 -0.71639472 2.504281
-0.2792657 0.42134765 2.4241896
0.35744122 0.50271684 2.7061448
0.15465921 0.6332497 2.3683517
0.75223166 -0.14746873 2.3792555
-1.0043768 0.08196108 2.2495549
-1.2646824 -0.79677635 2.7768331
-0.13646682 -0.87283558 2.4351509
-0.30783647 -0.14433572 2.3414986
-1.0206641 -0.81709427 2.6640811
-1.0357237 -0.41541654 2.4664967
-0.036469158 0.52985841 2.4200726
-1.2626947 -0.8311035 2.7606902
0.58487904 0.51316196 2.5340462
-1.139949 -0.92195839 3.0438862
-0.58992076 -0.90444392 2.2900927
-0.62841922 -0.78448576 2.286104
-0.57183188 -0.72872168 2.3351791
-0.7278288 -0.20713802 2.4132559
-0.72339988 -0.17902306 2.1387994
-1.0659813 -0.67594653 2.3620737
-0.17075759 0.50705701 2.5240111
0.87752295 -0.59948742 2.3157573
0.72287703 -0.53918695 2.5340497
1.0995326 0.61076593 2.3925834
-1.2686505 -0.91601807 2.7136955
-1.2721049 -0.91658461 2.7106624
-1.0591155 -0.93892747 2.3282068
-0.19401036 -0.17168786 2.4203243
-0.13113028 -0.14148983 2.3536251
-1.2619088 -0.83238024 2.761734
-0.66214073 -0.16804664 2.1665139
0.35846651 -0.20944838 2.2566586
-1.2776941 -0.74346727 3.182703
-1.259035 -0.73563498 3.2225089
-1.1708748 -1.0753918 2.5440125
-1.2688807 -0.88106477 2.7219427
-1.2125285 -0.87106109 2.8449657
-1.1671329 -0.02770488 2.1905584
-1.0799638 -0.75381643 2.3626933
0.6853646 -0.14340393 2.3081417
0.80487597 -0.5006339 2.4237962
0.84336483 -0.5854215 2.6014426
0.79921848 -0.58664638 2.5929456
-0.62233555 -0.26130557 2.4126363
-0.78881079 -0.049812511 2.1327088
-1.2466831 -0.84875834 2.6840084
-1.2568759 -1.1135639 2.52584
-1.1870764 -0.040029444 2.1886454
-0.011803162 -0.10201832 2.060214
0.13092054 -0.14367248 2.3119864
-1.1970018 -0.045673672 2.1834824
0.71723264 0.73429501 2.3057725
-0.99941313 -0.80540097 2.5691142
-1.2812787 -0.75809491 3.1390572
-0.9160254 -0.65892237 2.2525604
-0.72700119 -0.2528961 2.4706361
-0.16646831 -0.75739497 2.3583848
-0.10775875 -0.89296448 2.4758909
-0.097527161 -0.14682162 2.3902895
-0.20727061 -0.20639457 2.401561
0.088909991 -0.94524401 2.3580866
-0.20917891 -0.63667798 2.3845663
-0.17981853 -0.63442594 2.3948486
-0.86346191 0.20320506 2.9253767
-1.0929251 -0.81085819 3.0426247
0.10849304 -0.24080504 2.4439845
-1.3008866 -0.43259385 3.1039345
-1.2715316 -0.89881021 3.1221886
-1.2907838 -0.63885897 3.1077192
-1.1278856 -0.84572411 2.2538059
-1.2856119 -0.66672039 3.1688652
-1.2901609 -0.83551228 2.7722309
-0.65001297 -0.27103323 2.4010355
-1.2921935 -0.74085039 3.0855005
-1.2839007 -0.82586074 3.1232975
-1.3026825 -0.62592363 2.9613078
-1.171136 -0.81504959 2.9162166
-1.3462914 -0.30542505 3.485939
-1.2334322 -0.21356301 3.7303703
-0.29559442 -0.17968948 2.4232335
0.10518293 -0.6377008 2.4307456
0.35219747 0.26008373 2.1584158
0.018664327 -0.20871016 2.4464641
-1.1395116 -0.72302854 2.591948
0.70912325 -0.43717527 2.4246757
0.98195636 -0.1944034 2.440017
-1.0529919 -0.50036496 2.4047723
1.1282754 -0.67308879 2.486232
-1.2895033 -0.66561753 3.1668591
-1.1173223 -0.81517786 2.9653471
-0.24964896 -0.053948727 2.1154771
0.17173575 0.21541889 2.0159457
0.55858636 -0.10318692 2.3208826
0.26214597 0.60971713 2.1169455
0.11046728 0.60912412 2.0917594
0.51867479 0.76234627 2.1365521
-1.020323 0.13543458 2.2504413
-1.0318927 -0.78166306 2.9351041
-1.0314977 -0.78661329 2.9391615
-1.1067059 -0.82612634 2.8796608
-0.90568256 0.31908014 2.1332033
-0.85319072 0.36855701 2.1443529
-1.2865007 -0.67187065 3.1206093
-0.97786605 0.18487889 2.2723844
-1.1456847 -0.42015722 3.7680082
-0.84744954 0.55939674 2.2946961
-0.45215255 -0.20048088 2.3761575
0.27524352 0.16418338 2.1619883
-0.22071929 -0.045703582 2.1297512
-0.83121014 -0.3624886 4.0105548
-0.73618966 -0.33082449 4.1244235
-1.3570136 -0.7465775 3.0445693
0.11869717 -0.08463385 2.3281901
-1.2830414 -0.73148042 2.831079
-1.2279153 -1.1486361 2.5519946
-1.2979004 -0.72374701 3.1203024
-0.95968038 0.20394452 2.2033229
-0.89334613 0.25709692 2.2298405
-1.0468006 -0.95595843 2.7886093
-1.03536 -0.91359657 3.0375404
-1.1559844 -0.96972615 2.7537723
-0.63856542 -0.36867863 2.4001961
-0.47075301 -0.25551733 2.3716776
-0.55509305 -0.14322786 2.2843461
-1.2420297 -0.860286 2.7624028
-0.61283517 0.43362269 2.359165
0.048757493 -0.10923451 2.3206134
0.12818342 -0.08283627 2.183269
-1.041729 -0.92208767 2.2409782
0.035595722 -0.22201063 2.2208025
0.26402515 0.54220748 2.3273113
-1.3391109 -0.88021094 2.6197817
0.36376381 -0.0071851648 2.2164233
0.19972092 -0.13220567 2.3270555
0.2728819 0.69856036 2.1098146
-1.2806511 -0.93107069 3.2026138
-1.1377488 -0.41570893 3.7101223
-1.0505553 -0.39347634 3.7978699
-1.2748803 -0.66549557 3.1863973
-1.0280588 -0.9312464 2.225009
-0.89595729 -0.028850012 2.1612315
-1.1950167 -0.86213607 2.8982267
-0.89041305 -0.19410452 2.2014778
-0.96375936 0.23474225 2.2418785
-0.38857689 0.006889822 2.153604
-1.0449673 -0.95882457 2.7899668
0.63824779 -0.59750956 2.482023
0.89853865 -0.67656064 2.4878716
0.86544573 -0.68635821 2.4421217
-1.1108693 -0.94992089 2.812449
-1.285176 -0.79430854 3.1453307
-1.288686 -0.74750483 3.0899012
-1.165879 -0.81666321 2.9562826
-1.079133 -0.8619495 3.0008752
-1.1112869 -0.77355599 2.9530973
-1.0191556 -0.94324815 3.2090518
-1.0974429 -0.90492851 3.0264728
-1.0604397 -0.95564777 2.7969902
-1.3096049 -0.68444705 3.1219766
-1.0805981 -0.91142094 3.0070379
-1.0412887 -0.81008416 2.9591622
-1.2683574 -0.29666755 3.0302134
-0.95544434 -0.73962623 2.8714337
-0.90301985 0.31709045 2.1594427
-1.0461537 -0.85490006 2.921957
1.7168734 0.33187935 2.1978667
0.66467106 -0.066914193 2.291333
-0.78622103 -1.0336051 2.9212663
-1.1464309 -0.94612718 3.1113441
-1.1247212 -0.84882444 2.8613663
-1.0493733 -0.94246179 2.8336821
-1.244257 -0.95953619 2.5965374
-1.2388133 -0.039010357 3.196089
-1.070014 -0.96692348 2.8354874
-0.68762535 -0.90817553 2.889935
-1.285985 -0.93102497 3.2017949
-0.98773116 -0.80637205 2.9796023
-1.0705183 -0.82707876 2.9056749
-1.0675101 0.1387136 2.1821709
-1.0698037 -0.891119 3.2188671
-1.1397558 -0.73033309 2.4667411
-1.0568056 -0.40381223 3.7716808
-1.1537912 -0.69170451 2.8976758
-1.2753963 -0.70829511 2.8467567
0.31338969 -0.13250063 2.2581875
-1.1244569 -0.92820042 3.1486235
-1.033764 -0.92635643 2.223249
-1.0664953 -0.81196046 2.8772957
1.2143371 0.67810559 2.1150208
-1.2421591 -0.92925072 3.0994914
-1.2756749 -0.6537475 3.1475859
-1.0928612 -0.93106759 2.3046443
-0.82591283 -0.56289977 3.7257705
-1.2885299 -0.76148891 3.156321
-1.2559733 -1.1508046 2.5438745
-0.83068174 -0.13590062 2.1524465
-0.83530891 -0.16793659 2.205853
-1.2053927 -0.9022674 3.0669744
-1.068924 -0.94929314 2.8179948
-1.2933989 -0.68154758 3.1053691
-0.57476568 -0.15274145 2.4482746
-0.83730096 0.094926275 2.1024518
-0.78572828 -0.65966076 3.7971432
-1.0853308 -0.83485889 2.8638935
-1.1440884 -0.88069344 2.9625199
-1.2561694 -0.81431246 3.2807026
-0.83047497 -0.6555773 3.6701317
-1.0637391 -0.9622159 2.7891111
-1.101975 -0.71109867 2.4454362
-1.206077 -0.65581518 2.6095679
-1.0290457 -0.30286419 3.560313
-1.2735999 -0.87134737 3.0790939
-0.9807027 -0.73793888 2.8059506
-0.89802623 -0.38855827 3.8165317
-0.83895814 -0.31615004 4.0780382
-1.124912 -0.99217886 2.4127557
-1.0067546 -0.8212778 2.9218516
-1.0472754 -0.94825858 2.8371246
-0.97729886 -1.0211129 2.7721887
-1.0790013 -0.7719785 2.8659573
-1.0510255 -0.83858711 2.9223812
-0.91155934 -0.80311394 2.9848626
-1.181723 0.030355018 2.7456121
-0.72556895 -0.7630049 2.5994236
-1.173148 0.2161566 2.8495774
-1.1332043 -0.36805958 3.7756538
-0.84657151 -0.76040351 3.6320796
-1.078692 -0.4035227 3.7682221
-1.0141549 0.57671583 2.3936598
-0.95548922 -0.41727111 3.7402365
-0.85341841 -0.67860281 3.7385733
-0.83565873 -0.67482096 3.7554777
-0.61004615 0.14882419 2.1260998
-0.86938834 -0.3312681 2.2660303
-0.2307799 -0.13529138 2.2996557
-1.047033 -0.96000582 2.7905326
-1.0899948 -0.9259181 3.0321975
-0.92625833 -0.8521896 3.0208359
-0.77325702 -0.6113646 3.7197104
-0.79539019 -0.62190104 3.704612
-0.66026777 -0.62160105 3.8988717
-0.71861732 -0.64188164 3.8540339
-0.49586481 -0.63760483 3.8581157
-0.21701612 0.0041313847 2.1367166
-0.23889071 -0.0096946238 2.1353707
-0.13474853 -0.7071048 3.259891
-1.060887 -0.92004889 3.1424515
-0.76655936 -0.65568775 3.8187909
-0.78668815 0.080434419 1.8420231
-0.51706123 -0.12671141 2.2365305
-0.055922352 -0.68154073 3.2785635
-1.0817547 -0.74174368 2.2285466
-1.0328714 -0.51777053 2.3849223
-1.0233163 -0.83960861 2.9205744
0.084494591 -0.78288978 3.4754739
-0.42890015 -0.06033507 2.2121136
-1.306164 -0.65083224 3.1528974
-1.2730323 -0.93259674 3.205694
-0.27261993 -0.81833595 3.5025449
-1.0799743 -0.40360153 3.7833779
-0.81477731 -0.61724102 3.4788656
-1.4523906 0.04244142 3.1418512
-0.71960372 -0.72610074 3.9113412
-0.90343827 -0.92483592 3.1712463
-0.021751944 -0.80596954 3.3796082
-1.2926226 -0.79791194 2.7082016
-0.79059631 -0.90648466 3.7575037
-0.65131712 0.58374703 2.176955
-0.75062513 -0.60099709 3.3497589
-1.2885513 -0.58420557 3.1991215
-0.69680279 -0.61091459 3.8681867
-0.69501138 -0.60889894 3.8671539
-1.2904414 -0.75815088 3.1291287
-0.89786798 -0.75608385 3.2896299
-0.79937547 -0.77130181 3.8713481
-1.4575325 0.083180353 3.0150688
-1.1059984 -0.93065244 3.1142695
-1.4253186 0.13520412 3.0165701
-0.97866845 -0.88663918 3.0719244
-1.1166931 -0.88395685 2.4698577
-1.0948726 0.093204834 2.0107074
-1.201248 0.18536384 2.8669934
-0.78024662 -0.13309373 2.191663
-1.0652758 -0.94357294 2.8371685
-0.098420978 -0.68488812 3.256582
-0.38486215 0.64539188 1.6424867
-0.78931534 0.1506218 2.0626891
-1.278428 -1.1245741 2.5699835
-1.1036426 -0.88173789 2.9782045
-0.071726173 -0.73146278 3.3053825
0.099914528 -0.64430112 3.1729028
-0.60951853 0.66486752 2.2173541
-0.31382704 0.84369284 2.1161833
0.46844912 -0.6646663 3.3439882
-0.74232829 -0.70872676 3.3978441
-0.80320549 -0.73409933 3.3838623
-0.7790212 -0.75907528 3.8850465
0.34326217 -0.74795973 3.6553519
-0.42584699 0.72992766 2.1724758
-0.43730628 -0.77429754 3.2875657
-1.0484715 0.24148311 2.0941026
-0.76157582 0.64400262 1.8958796
-0.33028322 -0.71623462 3.154804
-1.2999718 -0.51165926 2.8834832
-0.55338478 -0.73281449 3.3479898
-0.67488867 0.65603954 2.2274048
-1.2115568 -0.90288687 3.0624869
-0.13934398 -0.64231825 3.2626173
-1.1801183 -0.63833261 2.6730485
-0.99593723 0.35515469 2.0460448
-0.27085349 -0.70438635 3.1787267
0.17089906 -0.5444355 3.0102882
0.12516519 -0.86706591 3.6233237
0.27797824 -0.81289881 3.6474657
-0.77933073 0.72761703 2.2535789
0.17514062 -0.81581634 2.885623
0.63724369 -0.5294835 2.9187651
-1.1505156 0.28914025 2.8646538
-1.2618001 -0.6880374 2.8944981
-0.058129955 -0.89215136 2.6443734
-1.2764163 -0.63917613 2.8218033
-1.1925046 -0.36700934 2.7107162
0.89612013 -1.2480749 3.6532087
0.83845425 -1.232165 3.7158208
-1.209718 -0.37363967 3.2700555
-0.69783193 -0.69801128 3.2759449
-1.2616693 -0.99816614 2.6696441
-1.2324605 -1.160779 2.5797887
-0.77580369 -0.75272369 3.8919029
-0.79970968 -0.1379614 2.1913435
-1.0114567 0.2758792 2.0827456
-1.0895684 -0.94623089 3.1771917
-0.74204832 0.67178786 2.1051564
0.090424456 -0.75624955 3.4151175
0.21499181 -0.51170427 3.0372391
0.53285056 -0.695871 3.7403817
0.60542613 -1.0476267 3.4787457
-1.1158619 -0.029016264 2.153065
-0.084691942 -1.0912453 2.5111365
0.31618914 -1.0832072 2.4603829
-0.92811698 0.30854821 2.1425202
-0.58187515 0.46865785 1.6997541
-0.65064597 0.50816095 2.4904256
-0.26356402 0.9713707 2.1476946
-0.73899895 0.81641424 1.9372044
-0.33063012 -0.69787008 3.3208721
-0.064973317 -0.75370049 3.3229685
-0.4323076 -0.67620748 3.3801348
-1.067957 -0.78420103 2.8812013
-0.91363424 -0.81953055 3.5357265
-0.87653857 -0.33616954 3.7254417
-1.2727267 -0.74062753 2.8160512
-0.59846634 -0.86378497 4.1558924
-0.61332899 -0.86410397 4.1498384
-1.1363281 -0.86799163 2.9932859
-0.67749989 -0.82477152 3.3839543
-0.99955124 -0.42586097 3.7680421
-1.2596109 -0.74857837 2.7267127
-1.3000988 -0.5195595 3.3281422
-1.1889468 -0.80515331 2.5225565
-0.76145583 -0.74080807 3.9047697
-0.5986343 -0.85865849 4.1559477
-1.2982521 -0.67287207 3.0918503
-1.1397226 -0.88269669 3.0403459
-1.2974547 -0.71017343 3.1425118
-1.1820241 -0.1299291 2.4276371
-1.1580627 -0.077067509 2.3759029
-1.2371421 -0.11952733 2.3280344
-1.2812055 -0.7987175 3.1320322
-0.082406044 -0.40583673 4.2801914
-1.1841214 -0.91591579 3.1103246
-1.2725786 -0.67990911 3.1392665
0.78747988 -1.108623 3.5943756
-0.89798385 -0.82619125 3.5655887
-0.79859996 0.59124821 2.1194797
-1.3002372 -0.94075072 2.6825175
1.0370883 -0.92447615 3.5891659
-0.91232437 -0.82009685 3.523478
-1.3283991 -0.85044414 2.98506
-1.2022043 -0.80057555 3.0582147
-1.0779034 -0.21652704 3.702039
-0.84199321 -0.84893769 3.0571017
-1.0143389 -0.37198514 3.6878657
-1.1609826 -0.2400616 2.6307657
-1.3091286 -0.68358791 3.1741021
-1.2794214 -0.65173876 3.2046924
0.56418353 -0.78323847 3.7530994
0.77261537 -1.065951 3.5692701
0.83117229 -0.50692725 3.7255099
0.66699338 -1.1140263 3.493597
0.78210497 -0.71410352 3.9148157
-1.2859173 -0.69700235 3.1784694
0.90778285 -1.1321863 3.516077
0.7375778 -0.78990012 3.8911912
0.72429234 -0.79508245 3.8813221
-1.0792041 -0.89365309 2.973233
-1.2761058 -0.81184214 3.1217313
-0.25373772 -0.44930786 4.2679372
-1.141674 -0.81615233 2.9611123
-0.46076563 -0.33295625 3.9104102
0.15698868 -0.56469607 3.6978815
0.22030582 -0.52648127 3.7201717
-1.3065223 -0.73725682 2.8397567
0.62982488 -0.71405679 3.7407107
1.4289424 -0.24119425 3.7559817
-0.78336257 0.75115502 2.0946093
0.83278334 -0.79262543 3.8074992
0.88502705 -1.083318 3.4955339
0.77441794 -1.1080246 3.4994926
-1.2967266 -0.8683722 3.0499921
-0.6922698 -0.68427885 3.4779608
-1.064901 0.28524804 2.0076456
-1.1444293 -0.82217479 3.0226202
-1.0628623 0.41568667 2.019753
0.32820216 1.6515185 -0.061562363
-1.051841 0.43406084 2.5004356
0.6079542 -0.60594296 3.5436504
0.72871518 -0.61986727 3.2603726
-0.76019758 -0.82093793 3.1633193
-1.1863458 -0.81125182 2.9742401
-1.2876881 -0.61814475 3.2418673
-1.3006747 -0.73132765 2.8352792
-0.74765456 -0.70323026 3.1896045
-0.84721637 -0.64424479 3.4887264
-1.1284561 -0.87119353 3.0522647
-0.42725772 -0.52765596 3.7674022
0.11561557 -0.49655521 2.9215622
-1.0061787 0.6011669 2.4325395
-0.87411737 0.75418222 2.1737745
-0.9547559 0.51807177 2.30757
-1.3203911 -0.040125746 3.500062
-1.4778897 0.040640499 3.1006608
-1.4285184 0.12106062 3.150804
-1.3012488 0.1151394 3.3762703
-1.3191264 0.094457656 3.3405049
-0.063398622 -0.7056843 3.4102733
-0.0078108953 -0.61092609 3.2793245
-0.79613274 -0.80191451 3.4993923
-1.2802552 -0.25332695 3.033622
-0.86111557 -0.65334475 3.4458196
-1.2791557 -0.22488593 3.0530021
-1.4607528 0.099073179 3.0427966
-0.72524846 -0.64886469 3.8663111
-1.2855937 -0.94543296 2.6670735
-1.2479643 -0.47859547 2.7587187
-1.2837492 -0.70856512 2.9008429
-1.3166358 -0.23779148 3.1222372
-1.0630455 -0.2679278 3.6438251
-0.78627545 -0.93298525 3.7612972
-0.47111124 -0.57745713 3.758301
-0.51522458 -0.62918031 3.7474201
-1.2902617 -0.39093128 3.0750847
-1.1848404 -0.87155324 3.0285373
-1.0765591 -0.92002004 3.1503708
-0.38695961 -0.65514749 3.3665862
-0.57694352 -0.74855721 3.3452311
-0.51239669 -0.69796258 3.3244441
-0.45027027 -0.63973784 3.2949076
-1.192682 -0.8245675 2.9783149
-0.82107645 -0.41113344 3.5755184
-1.2851535 -0.61223024 3.2053723
-1.2854213 -0.65879703 3.1627402
-1.2324308 -0.30166289 2.8054998
-1.2942245 -0.77482617 3.1572876
-0.043714955 -0.64976537 3.2147963
0.18428092 -0.61702102 3.5739734
0.10266321 -0.66074908 3.5792944
-0.30501109 -0.22020867 3.8610306
0.053851373 -0.76082957 3.3222556
-0.39206696 -0.32796356 3.8265858
-1.2812178 -0.65290195 3.2022958
-0.9025417 -0.91882497 3.1524653
-1.3011522 -0.56950307 3.1255631
-0.76368511 -0.69198006 3.2208409
-0.78667784 -0.70028222 3.2506788
-1.1036162 -0.89792538 3.0522542
-1.0560671 -0.79244757 2.8898599
-1.0424702 -0.84282142 2.8727651
-1.0137997 -0.87036866 2.9074626
-1.0991484 -0.82291114 2.9200454
-1.2727085 -0.77026838 2.7413089
-0.87440395 -0.74669355 3.5653112
-0.91679496 -0.82026517 2.9728911
-1.3129303 -0.52631724 3.0657575
-0.98594677 -0.33734986 3.7041502
-0.74940783 -0.70470798 3.159976
-1.1416575 -0.32549658 3.6083884
-0.7981025 -0.68210995 3.211946
-1.0981897 -0.24301793 3.6555705
-1.1077758 -0.31496578 3.6871898
-1.0877542 -0.24669234 3.6690354
-0.56237656 -0.72610199 3.378711
-0.672867 -0.73527908 3.3711457
-0.84957725 -0.86292005 3.6339383
-1.2443202 -0.96076429 2.6414776
-0.29258385 -0.82556099 3.5050006
-0.53417224 -0.71241415 3.3411338
-1.0255978 -0.88877487 3.0481923
-1.2152818 -0.12369874 2.8604612
-1.2262458 -0.15135811 2.8728499
-1.1927025 -0.066131137 2.858777
-1.2202611 -0.19244352 2.4621589
0.051813979 -0.73478431 3.3132815
-0.30166614 -0.21361442 3.8601463
-0.067396745 -0.96322477 2.6222169
-1.3033619 -0.57472891 3.3132992
-1.2861112 -0.51670766 3.2284269
-1.1380792 -0.88998145 3.025058
-1.3164099 -0.57571304 2.9165838
-1.310483 -0.46290743 3.1117613
-0.80509686 -0.68334544 3.2151363
-0.56886828 -0.72652131 3.3828287
-1.3042661 -0.59985965 3.1470394
-1.3100749 -0.75201535 2.8460376
-1.2892587 -0.58245534 3.2228932
-1.2939181 -0.78824395 3.0642431
-1.0745469 -0.89851838 3.0631142
-1.2598401 -0.70933861 2.7916367
-1.3187221 -0.56579638 2.9311271
-1.3449739 -0.64490503 2.9693804
-0.65081477 -0.69905019 3.1065915
-0.80984569 -0.64669693 3.2340944
-0.88139933 -0.75375926 3.565212
-0.90241104 -0.91884542 3.1532581
-0.86777705 -0.73760426 3.5622962
-0.95733565 -0.76565933 2.8665638
-1.1274849 -0.90415561 3.0712042
-1.4559519 -0.0010730033 3.1700513
-1.4397744 0.026092587 3.1761777
-0.77076656 -0.76212156 3.4771967
-1.4212507 0.069559716 3.2518196
-1.0777359 -0.90060937 3.0270572
-1.1900067 -0.81969362 2.977886
-1.2197188 -0.89659148 3.0868878
-1.187506 -0.90509021 3.0799732
-1.1380301 -0.91452527 3.0881469
-0.89226276 -0.80521083 3.5331779
0.10474243 -0.73578125 3.2977107
-0.43465966 -0.33369228 3.8464477
0.076938026 -0.63180965 3.1673393
0.013523979 -0.91902769 2.5672207
0.24806657 -0.82243145 2.6103637
0.50528848 -0.50692129 3.1124213
-1.1382158 -0.1095234 1.8090992
-0.880871 -0.67909849 3.4274559
-1.2716216 -0.92649382 3.1761599
-0.24031731 -0.79086387 3.4056726
-0.86730015 -0.85005057 3.6321142
-0.12195285 -0.71226925 3.3405702
-1.1312131 -0.89477843 3.0593004
-0.03211309 -0.73331195 3.2973571
-0.095357724 -0.70034319 3.2701604
-0.17923103 -0.72289342 3.2524796
-0.4580963 -0.90200168 3.3250573
-0.1630328 -0.77978015 3.2354772
0.019307667 -0.69778216 3.2174864
-0.74723065 -0.77390468 3.4723716
-1.264376 -0.059020802 3.0019217
-1.2572373 -0.92976183 3.2167666
-1.2120557 -0.18102202 2.474726
-1.2919765 -0.79661936 3.0588593
-0.28184965 -0.26758143 3.758471
-0.30849612 -0.29919204 3.7569871
-1.2843655 -0.8088553 3.14009
0.15675442 -0.88336408 2.5914524
0.20392291 -0.86138833 2.5666642
0.34186903 -0.79618394 2.4964509
0.14507905 -0.83534741 2.6300485
-1.085519 -0.88755447 2.969264
0.1729113 -0.91230172 2.6208713
0.19239669 -0.90396345 2.6135929
0.16162398 -0.54772949 3.0179155
0.21449734 -0.84303117 2.6172252
0.18281685 -0.81847644 2.6697202
-1.3009138 -0.8433367 3.1631024
0.25859186 -0.74419373 2.6617134
-1.2764567 -0.76539713 3.0847905
0.27492943 -0.13365085 3.559706
0.1864038 -0.50242788 2.9341073
-1.0588481 -0.91602921 3.0754755
-1.1036078 -0.92491394 3.1427932
-1.1017369 0.32182109 2.0994389
-1.2916598 -0.85924375 3.037684
-1.2914593 -0.61767387 3.2126017
-1.2918426 -0.59843308 3.2303228
-1.236051 -0.93829489 2.6834435
-1.0827489 -0.88459778 2.8881092
-1.050804 0.19374655 1.9386014
-1.17103 -0.91024828 3.1115379
-1.0434066 0.19341058 1.5706595
-1.0492457 0.047818396 1.6283883
-1.0856724 0.76457256 2.0826743
-0.87424028 -0.38244966 3.4152665
-1.2817291 -0.82187212 3.0139813
-1.1075733 -0.90039814 3.0729911
-1.153816 -0.87601674 3.0279601
-1.4672844 0.089203492 3.042618
-1.2451464 -0.95193034 2.67977
-1.0738611 -0.92403704 3.1501293
-0.84952092 -0.82453048 3.1385579
-1.1742839 -0.91595787 3.1280897
-1.2071829 -0.92886311 3.1323133
-0.75959861 -0.75538069 3.4108827
-0.77056342 -0.6685077 3.1377859
-0.7480123 -0.68600392 3.1400111
-0.98674709 -0.77981222 2.9079385
-0.9715057 -0.76288122 2.8844757
-1.1100054 -0.94057786 3.0808558
-1.0775348 -0.9234305 3.035753
-1.0695909 -0.77974325 2.88727
-1.2124341 -0.92634189 3.1339376
-1.4244547 -0.10851745 3.1814404
-1.4691885 -0.013236347 3.0485196
-0.99067813 -0.81461078 3.0153573
-0.96319443 -0.86199021 3.0472682
-1.1968207 -0.8366968 2.9915042
-1.0298289 -0.91156447 3.0669894
-1.213065 -0.83038956 2.98628
-0.75472528 -0.83954215 3.1497476
-1.2030706 -0.91709745 3.1124892
-1.1005497 -0.013877491 1.7282413
-1.0795808 -0.026230549 1.7065113
-1.0875462 -0.92625654 3.1220958
-1.1076676 -0.90523839 3.0796442
-0.89489055 -0.93555939 3.1909258
-1.1868336 -0.80647826 2.975069
-1.1544349 -0.9141711 3.0900767
-1.2878557 -0.55296314 3.1315842
-1.1902356 -0.92962331 3.1316581
-1.0630604 -0.80101985 2.8974338
-1.0494128 -0.91512388 3.1050718
-1.184298 -0.86681777 3.0190847
-1.3333719 -0.1421866 3.2124634
-1.4597915 -0.037661206 3.1493039
-1.1925119 -0.92122948 3.1337857
-1.4551259 0.045367837 3.1552162
-1.384606 -0.02143603 3.2075062
-0.93221843 -0.94109195 3.1991398
-0.78708887 -0.70440471 3.2470665
-0.45108053 -0.73862439 3.4043767
-0.53201908 -0.73630315 3.3827729
-0.55589551 -0.75605327 3.3760927
-0.75367552 -0.70638829 3.2642806
-0.79289013 -0.70951426 3.2930937
-0.98248655 -0.83466792 2.9046476
-0.93592912 -0.94228917 3.1700485
-0.92305666 -0.81559438 2.9863083
-0.99585021 -0.82440138 2.9274273
-1.0138705 -0.8385247 2.9451191
-1.0284601 -0.94360572 2.7573121
-0.76089776 -0.65146673 3.1338477
-1.2048379 -0.92999643 3.1139698
-0.90307003 -0.93415993 3.1729438
-0.77492845 -0.77997679 3.4162121
-1.1223335 -0.92409068 3.1049416
-0.96685642 -0.83853102 3.0021753
-0.92035997 -0.81579858 2.9881487
-0.89472789 -0.86272782 3.0408432
-0.76917231 -0.7175824 3.2457294
-0.96367109 -0.86661696 3.0514703
-1.0601866 -0.88112754 2.7464561
-0.69025689 -0.70499533 3.3151932
-0.9731639 -0.79029936 2.959811
-1.0008558 -0.89233857 3.0859435
-1.0268258 -0.88193113 3.0551672
-1.1509126 -0.95027018 3.0882177
-0.73840934 -0.99483842 2.9416969
-1.0437497 -0.85452676 2.9820638
-0.66589046 -0.71587783 3.3142328
-0.98522425 -0.84461844 3.0111735
-1.1737589 -0.91326851 3.1133029
-0.76822972 -0.65225279 3.2826366
-1.0309217 -0.79389393 2.882556
-1.2732234 -0.8953467 3.1109407
-0.91214812 -0.92523217 3.1612201
-1.0730031 -0.92202473 3.1241038
-0.45307559 -0.71111369 3.3669279
-0.51529586 -0.70298588 3.3289003
-0.94703853 -0.83955467 2.9985192
-0.49152833 -0.71669579 3.3664029
-1.4244783 0.14083335 3.2343175
-0.43578786 -0.72336644 3.3724537
-0.47039112 -0.72882313 3.3617108
-0.54620314 -0.72522265 3.3399627
-0.53835815 -0.71295846 3.3384845
-0.44331017 -0.70054126 3.3007665
-0.5484302 -0.70362186 3.3190761
-0.46250412 -0.7181018 3.3427913
-1.021677 -0.96730107 2.8255184
-0.44422349 -0.71640778 3.3373396
-0.43301108 -0.72975993 3.3544254
-1.1099235 -0.8472802 2.9484222
-0.78293705 -0.75075555 3.2242553
-1.0720756 -0.90173697 3.0639117
-0.51229042 -0.72522008 3.3582294
-0.54002637 -0.73042482 3.3708539
-0.64505947 -0.72904235 3.3250229
-0.66142631 -0.68199956 3.3343668
-0.73919362 -0.99477988 2.9435639
-0.46843642 -0.71488911 3.3239071
-0.35104528 -0.71603733 3.3390274
-0.90738732 -0.92199618 3.158247
-0.45443258 -0.69014561 3.287796
-1.0427152 -0.87261188 2.9720039
-1.2487949 -0.930767 3.2079768
-1.0103942 -0.88971353 2.9847744
-1.1935544 -0.92693573 3.1386962
-1.1520803 -0.85313553 2.9920559
-0.89188313 -0.74902028 3.2745004
-0.65768492 -0.74602431 3.4020965
-1.1975604 -0.86473221 3.0270581
-0.78335512 -0.87286842 3.1909187
-1.1848149 -0.84516704 3.0137765
-0.76616555 -0.80995995 3.1825492
-0.92509133 -0.92165494 3.1575904
-0.26540259 -0.75926477 3.488436
-0.51374674 -0.66770983 3.2897501
-0.26866835 -0.74797207 3.3942459
-0.52483398 -0.72008979 3.3823695
-0.32277802 -0.80828106 3.5122137
-0.58303291 -0.70663869 3.3432288
-0.77222252 -0.71972561 3.2459185
-0.75493371 -0.71513885 3.2517152
-0.94802338 -1.0176085 2.7864285
-0.13326214 -0.75295508 2.950309
-1.0429705 -0.86634481 2.9659657
-0.14316587 -0.65319967 3.0228174
-1.0137128 -0.86815906 3.0451534
-1.0483134 -0.85960376 2.9943013
0.02287652 -0.48828635 2.9366398
-0.39477459 -0.72566944 3.3558772
-0.29062483 -0.80950868 3.4867685
-0.66135508 -0.71844572 3.318351
-1.157281 -0.89528787 3.0761497
-0.74013573 -0.61601716 3.0968981
-0.74070925 -0.6137234 3.0924184
-0.75076449 -0.61789536 3.0835538
-1.2737302 -0.90672046 3.1176581
-1.2708591 -0.9162513 3.1233344
-0.90365857 -0.87696725 3.2033098
-0.58835322 -0.72649151 3.3585904
-1.1926363 -0.83934748 2.9678063
-0.59037399 -0.72774082 3.3484442
-0.43744391 -0.70888948 3.3837295
-1.0175769 -0.94424307 2.7881901
-0.30679065 -0.69965273 3.3271887
0.084833622 -0.77977061 3.3921123
-0.2767013 -0.72072947 3.3574796
-0.3069883 -0.7109192 3.3394294
-0.31126672 -0.71568412 3.3405614
-0.30048805 -0.72362661 3.3447497
-0.24503392 -0.70445752 3.3449254
-0.27273527 -0.71429694 3.3412719
-0.18567462 -0.67528039 3.3460448
0.042716946 -0.68624538 3.2385483
0.83639038 -0.84658527 3.5705905
-0.53630322 -0.72237718 3.3755486
-0.57128221 -0.72101355 3.3498099
-0.59036541 -0.7225545 3.3319442
-0.58007044 -0.62309629 3.3073347
-0.26586482 -0.74633545 3.3967154
-0.42894137 -0.66108096 3.2722926
-0.43648764 -0.68951869 3.2786233
-0.24983467 -0.73386276 3.3814363
-0.3709842 -0.68965745 3.2933404
-0.21788587 -0.70782405 3.3484652
-0.47339126 -0.65693241 3.0772851
-0.46084669 -0.64070815 3.0669329
-0.017504828 -0.7536425 3.3435678
-0.030518465 -0.74965483 3.3359253
-0.38207674 -0.73376876 3.3738139
0.017132431 -0.68762541 3.2233918
-0.18454652 -0.58956653 3.0407991
0.10349379 -0.63116568 2.7626648
-0.28921083 -0.5151124 3.0459402
0.0043405294 -0.65621608 3.1635892
0.10710816 -0.59577703 3.1554875
0.10142349 -0.52531654 3.0592854
0.21139792 -0.52845073 3.0253003
-0.029030396 -0.7764371 3.277612
0.20594409 -0.44227657 2.8635418
0.59024179 -0.49721873 3.0544035
0.4089551 -0.4279646 2.9452929
-0.57126063 -0.73700923 3.3300276
-0.52449876 -0.72055656 3.3461509
0.067657001 -0.75744009 2.6841772
-0.56621885 -0.6990099 3.3044217
-0.52793741 -0.70449686 3.3195348
0.0089175142 -0.79962218 3.3986738
-0.65963268 -0.64325404 3.2767856
-0.52515101 -0.71277231 3.3182428
-0.9417783 -0.74695218 2.8230736
-0.93265063 -0.71948469 2.8041432
-0.89715993 -0.72120386 2.8898702
-0.45782173 -0.64690095 3.0692148
-0.7655949 -0.4216865 2.916491
-0.10841253 -0.54483408 3.0547299
-0.18368043 -0.52638161 3.0712829
0.18917264 -0.5022794 2.9352558
0.1099619 -0.54783261 2.8085582
0.63305169 -0.71963394 3.5749521
-0.16274177 -0.70499492 3.3384266
0.78677261 -0.77432132 3.5187426
-0.091156431 -0.76338625 3.3552423
-0.43110204 -0.72179198 3.3548563
1.0006748 -0.70609075 3.5440667
-0.10096917 -0.78074765 3.3286271
0.50797123 -0.83277112 3.5820889
0.67616063 -0.53645754 2.9693129
0.062997639 -0.71346587 3.29459
0.12011509 -0.76641762 3.384809
-0.0906123 -0.7002787 3.3676269
-0.10647354 -0.77620214 3.2703221
0.91677463 -1.1138777 3.8089643
-0.32149667 -0.82379293 3.5977528
-0.29485464 -0.79328197 3.4805136
0.12323703 -0.46477079 3.7487509
0.12142103 -0.50946534 3.7257049
0.59001517 -0.45694548 2.8796151
0.44342735 -0.72264665 3.5615311
0.18671143 -0.70017785 3.279057
0.085670061 -0.74324054 3.3208153
0.12625334 -0.7704795 3.3134999
0.65536898 -0.70061737 3.5757129
0.73261106 -0.62013596 3.8208201
0.64190573 -0.72116041 3.7250912
-0.38787785 -0.71400851 3.3510573
0.62046051 -0.68005174 3.588908
1.019588 -0.91055769 3.5637789
1.0444694 -0.8980155 3.5625594
0.019468453 -0.78368139 3.5748079
0.86476129 -0.17357035 3.9874749
1.1497836 -0.71424347 3.3230784
0.64135891 -0.71020728 3.828763
-0.034289178 -0.71119958 2.7821002
0.083550364 -0.76634717 3.3661721
0.1253023 -0.76390147 3.5064738
-0.081943072 -0.77512246 3.4739218
0.55808085 -0.82501942 3.6606524
1.0410783 0.0010088825 3.6866505
0.093819901 -0.78395307 3.3658249
0.10358446 -0.7898491 3.395453
-0.12169713 -0.73567146 3.3754513
-0.11941172 -0.74208295 3.3738008
-0.14904898 -0.65890813 3.2617314
0.18147662 -0.20325463 3.6065676
-0.1411562 -0.71234578 3.3673472
0.19363387 -0.47064614 2.8635862
-0.055098094 -0.83764744 3.5810802
-0.1711369 -0.64866441 3.2803154
1.2849164 -0.56300688 2.5324066
0.61686283 -0.80938941 3.6699426
-0.13122834 -0.71300006 3.374737
0.64026791 -0.71515906 3.8260791
0.6520586 -0.64720291 3.8360696
-0.29157519 -0.66304165 3.3042622
1.2760543 -0.75385523 3.4607725
1.2518179 -0.5499422 2.7739816
-0.11545233 -0.61524761 3.192481
0.66997504 -0.63299155 3.8387864
0.72997665 -0.71984166 3.5722067
-0.1443069 -0.64604849 3.1560075
-0.12000238 -0.76035261 3.3802536
1.2333969 -0.60469961 2.8302143
-0.16352031 -0.66291851 3.2605205
0.029941557 -0.62830514 3.1405103
-0.29152063 -0.83134902 3.4917612
-0.31042069 -0.71468043 3.3236241
-0.33762735 -0.68602544 3.3135917
0.97254348 -0.019109841 3.6537795
1.1548077 -0.46158636 2.8567631
1.1236684 0.17927653 3.6423092
1.3220673 -0.36319914 2.6712799
-0.095845528 -0.7233327 3.4111686
-0.097839057 -0.64162147 3.1865945
0.64297324 -0.78737104 3.6527407
0.66146314 -0.70595515 3.5546563
-0.10497697 -0.71598488 3.2275975
-0.12119009 -0.73775405 3.3606179
0.8594721 -0.7363708 3.5755672
0.019359984 -0.74106324 3.2694759
-0.45445827 -0.63802058 3.2595
-0.085094035 -0.88177449 3.483335
0.86102372 -0.033515748 3.9310708
1.1421348 -0.26483199 3.9530921
1.1430937 -0.2685073 3.9501274
1.0721444 -0.57604659 2.732048
-0.12982737 -0.56938505 3.0622294
0.083411202 -0.8023892 3.4047563
0.040838134 -0.71555531 3.2586737
0.093693577 -0.78649694 3.4118502
0.13734162 -0.47915834 3.0171866
1.0778925 -1.1576358 3.6441326
0.15386306 -0.61954534 2.6859059
0.5892241 -0.63348019 3.1738522
0.34932527 -0.60934305 3.1372964
0.095680729 -0.77399069 3.3888226
0.21507768 -0.50294328 2.9571068
-0.28804472 -0.72364557 3.3736398
0.095122188 -0.77946717 3.3904889
0.668024 -0.53768021 3.0640035
0.12150599 -0.7760728 3.5104387
0.93312377 -1.1182652 3.741745
1.1544131 -0.55462652 2.8142877
1.1404976 -0.5283249 2.6709371
-0.2310425 -0.73565012 3.3958936
0.67814761 -0.20840728 3.8318141
0.46782604 -0.59620714 2.9999473
-0.1088541 -0.79088748 3.403017
-0.10779458 -0.77591091 3.3960218
-0.24770439 -0.79660749 3.4865456
-0.41909429 -0.73454535 3.4206777
0.69661468 -0.64767504 3.5042529
-0.24252287 -0.80172926 3.4929855
-0.44592482 -0.71168637 3.3364666
0.15954997 -0.54688281 3.1075759
0.019429322 -0.7958532 3.3993247
-0.22280619 -0.6982826 3.3349411
-0.29343218 -0.76811844 3.3993325
0.25403631 -0.73165196 2.6754186
-0.28049061 -0.72058237 3.3585396
-0.28177428 -0.80507964 3.5166159
-0.066484779 -0.63216966 3.1630406
-0.15039158 -0.69530481 3.3274987
-0.2992655 -0.71302611 3.3555076
0.01379627 -0.78899807 3.3769326
-0.30418956 -0.69675219 3.2930937
-0.15023966 -0.68057626 3.3258119
-0.095271572 -0.74059218 3.3181124
-0.15363923 -0.68253887 3.3210788
0.6055904 -0.58344787 3.0938077
0.68989319 -0.5993644 3.1340764
-0.031170117 -0.80660176 3.4143398
-0.22532967 -0.73015881 3.3617632
1.2388842 -0.51446205 2.849602
1.1532776 -0.53562248 2.808068
1.2188277 -0.62445074 2.6498785
0.088605009 -0.54768038 3.1377058
0.027244452 -0.55347425 3.0298979
0.57598668 -0.80470276 3.6548965
0.61619729 -0.60119408 3.1543651
0.49388865 -0.61806399 3.1219404
0.61062288 -0.58821118 3.1160188
-0.046265502 -0.75956327 3.3235471
-0.27160889 -0.79809564 3.5371273
-0.08642792 -0.77912587 3.4471102
-0.24489979 -0.78126466 3.4828269
-0.37130082 -0.70508254 3.3357513
-0.27213183 -0.70601553 3.3288822
-0.0058068451 -0.70184118 3.2486508
-0.3300631 -0.69401616 3.3077009
-0.34529909 -0.71088231 3.3013208
-0.32624498 -0.69943303 3.2958555
-0.13005459 -0.70494986 2.976681
0.056054905 -0.61976814 3.1620922
-0.16802227 -0.62752062 3.2198272
-0.044221949 -0.63839114 3.1591876
0.41749439 -0.64702266 3.2157423
-0.16698603 -0.62556463 3.2194161
-0.17162481 -0.61330217 3.2157979
-0.31068811 -0.71417361 3.3396719
-0.28702718 -0.73160958 3.3444479
-0.27979699 -0.7198478 3.3323181
-0.27575338 -0.71362197 3.3295264
-0.21551077 -0.71690053 3.3280454
-0.42371938 -0.715617 3.337182
-0.12044844 -0.72341835 3.2686443
0.081986353 -0.60635239 3.2174361
0.18807539 -0.70897716 3.2819746
0.43734422 -0.84216839 2.786216
0.46339348 -0.60799801 3.1668732
-0.084883273 -0.75527406 3.4558721
-0.24703535 -0.74236351 3.3844063
0.068762586 -0.57879883 3.147696
0.40715995 -0.70770901 2.8897076
0.58338785 -0.60037255 3.1599178
-0.22629116 -0.73167169 3.3656459
-0.049716383 -0.73382539 3.2988899
0.45767266 -0.52197772 3.0701807
-0.36019966 -0.70143622 3.3246815
-0.29913151 -0.71652311 3.3473537
-0.36387631 -0.72703385 3.3727179
-0.13687192 -0.55724162 2.9943221
0.08261656 -0.48413464 3.0471549
-0.30767885 -0.72485805 3.3731191
0.094018206 -0.58782774 2.7833295
0.44834664 -0.48613241 3.0209949
-0.44456366 -0.7105974 3.3362606
-0.099377513 -0.74876559 3.3141997
0.046268534 -0.46845096 2.9477527
0.072494023 -0.78671038 3.3930726
0.52406514 -0.47260079 2.9598048
0.29367077 -0.62958318 3.2553074
-0.043073341 -0.73468053 3.298069
0.3011353 -0.58671868 3.2277927
-0.063612208 -0.75308156 3.3242891
0.29289219 -0.58713025 3.2122812
-0.090493575 -0.7573241 3.318948
-0.048748124 -0.73312122 3.2983587
-0.040797736 -0.73996007 3.3045013
-0.10237999 -0.74632508 3.334523
0.038587302 -0.7848686 3.3798287
-0.057810437 -0.72260833 3.2969017
-0.55658585 -0.65518868 3.1167531
-0.22458337 -0.74748832 3.3818974
-0.065205224 -0.75195801 3.3199337
0.063400887 -0.58151078 3.1688495
0.40385422 -0.6045689 2.9917397
-0.069120638 -0.75059325 3.3196361
0.27496552 -0.6198054 2.747174
0.13158339 -0.54668581 2.7782047
0.18029042 -0.49410024 2.9113905
0.1942609 -0.41546348 2.8375525
-0.12938859 -0.63108081 3.0262947
-0.12856247 -0.63990903 3.0302134
0.20119193 -0.57186908 3.1647034
-0.0061336788 -0.56988198 3.0440829
0.52460378 -0.62690878 3.2028894
0.05314837 -0.70009768 3.2215338
-0.0031281544 -0.6724633 3.201757
-0.33006608 -0.73365718 3.3588305
0.50982118 -0.51169771 3.066215
0.53771842 -0.58184934 3.1391277
0.51588529 -0.49917603 3.0458395
0.19922316 -0.50903982 2.9658296
0.53358042 -0.49244681 2.9989171
0.53887433 -0.48261821 2.9923949
0.54252809 -0.44687453 2.9526517
-0.37411737 -0.56520349 3.0816562
-0.36076275 -0.55401242 3.074363
-0.11721259 -0.554896 3.0275719
-0.11688745 -0.55439252 3.0281663
0.1965939 -0.53909695 3.0233965
-0.1388253 -0.54965502 3.0919683
0.15807508 -0.64480621 2.7225065
-0.30619258 -0.5242691 3.0473778
0.20547687 -0.51069218 2.9705856
-0.22317609 -0.69065815 3.3211768
0.12764248 -0.56609029 2.7840762
0.092693508 -0.47596556 2.9964187
0.18795116 -0.61180049 3.0834255
-0.049400184 -0.73532987 3.2984536
-0.067461155 -0.76252079 3.3443556
0.27386159 -0.42260486 2.8636236
0.18310852 -0.54175705 3.0318892
0.027613135 -0.65726399 2.7412181
0.19042861 -0.69233876 3.2860925
0.15252611 -0.60114336 3.1900117
0.093947403 -0.62340218 2.7428515
0.32405657 -0.51235759 3.0067
0.09202414 -0.62741643 2.7477255
-0.19695665 -0.50368208 3.0454979
0.033799306 -0.62904567 2.7675061
-0.17513593 -0.54471654 3.0617201
0.070799783 -0.62026346 2.7522304
0.16102558 -0.65582067 3.2965102
-0.31451494 -0.72420883 3.3571784
0.38229126 -0.63998115 3.1508589
-0.10326448 -0.7675454 3.3305516
-0.36168358 -0.73611462 3.3747759
-0.08604122 -0.75872242 3.3237009
-0.096354119 -0.77596819 3.3544242
-0.43722147 -0.585958 3.1977046
0.081204288 -0.76700783 3.3404799
0.098290235 -0.78206831 3.374516
0.069862522 -0.7244271 3.2742708
0.026907464 -0.72597432 3.2760758
-0.27510741 -0.70981205 3.3408213
-0.13080299 -0.59764683 3.1898408
0.44433224 -0.60547471 3.1536384
0.44262749 -0.6061812 3.1517489
0.44029504 -0.60339975 3.1477525
-0.18856499 -0.63080561 3.0274737
0.84567291 -0.75725931 3.5385871
0.081464753 -0.51070195 3.0729046
-0.012720658 -0.52446914 2.9810014
0.42991745 -0.54245716 3.0469439
-0.1093422 -0.53470975 2.9902866
0.18540423 -0.50901735 2.9743271
-0.19999018 -0.65086204 3.2895651
-0.077552751 -0.7592293 3.3208923
-0.12227912 -0.63430095 3.1778622
-0.10825359 -0.64217567 3.1670356
-0.10761383 -0.63679451 3.1641624
-0.10793515 -0.63854414 3.1646621
0.28350416 -0.61009258 3.2216086
-0.066139616 -0.63453913 3.1631958
-0.0079504699 -0.72996294 3.2817829
-0.010801637 -0.61975014 3.137877
-0.47803247 -0.64723635 3.0723948
0.5011456 -0.63097906 3.2672155
-0.12671548 -0.64015734 2.9935322
-0.16308689 -0.62837344 3.0227582
-0.075621516 -0.74220967 3.3167114
-0.1274069 -0.59556949 3.0149109
0.16445781 -0.54394591 3.1031559
-0.063854612 -0.7495544 3.3227417
-0.094343118 -0.5429104 3.0030479
0.20032154 -0.54783773 3.0377893
0.050031051 -0.68979639 3.2017312
0.42890406 -0.62472135 3.1956811
0.44720235 -0.61947823 3.1882248
0.15382211 -0.66086197 3.3082583
0.44286871 -0.61774492 3.1721289
0.49396348 -0.57719576 3.1478331
0.52569467 -0.5821349 3.130439
0.62256616 -0.59371698 3.1545446
0.32626003 -0.71154249 3.3879354
0.54696798 -0.58656847 3.1279688
0.18788497 -0.67922115 3.3213232
0.55979073 -0.56294596 3.1165912
0.17600027 -0.57850671 3.0787911
-0.0046777618 -0.69861966 3.2117515
0.30556685 -0.70927149 3.3582842
0.24358132 -0.53122836 3.007993
0.69711453 -0.60132849 2.9978433
0.015967557 -0.71398032 3.2445374
-0.015730545 -0.66651833 3.1953921
0.042265061 -0.68508655 3.2135561
0.52842015 -0.59925634 3.1459713
0.5797295 -0.5461579 3.0867519
0.57913685 -0.55092454 3.0877614
0.46224201 -0.55104131 3.0595469
0.55357075 -0.47321469 2.9854531
0.86538935 -1.1353335 3.6760287
0.18078871 -0.66594726 3.321789
0.79743767 -0.76385331 3.5176768
0.59673786 -0.59525019 3.1344554
0.56921947 -0.58624214 3.1151989
0.32144201 -0.71134275 3.3381755
0.11674034 -0.4855352 2.9378812
0.078283168 -0.48542511 2.9034555
0.82724547 -0.56922066 3.1515436
0.44270051 -0.60071307 3.1470184
0.59939569 -0.77313972 3.5908465
0.084545963 -0.75902605 3.322957
0.19092099 -0.69930565 3.2826593
0.8621645 -0.62814736 2.946677
0.60025084 -0.50483054 3.0683517
0.28239313 -0.50022352 2.7887156
0.86994159 -0.60202968 2.9640179
0.52653968 -0.43609169 2.9316027
0.80788493 -0.51638222 3.0335228
0.82725573 -0.4853498 3.0132148
0.16614586 -0.57025653 3.0527351
0.59794527 -0.78182203 3.5886741
0.60601687 -0.76839072 3.5959105
0.19432107 -0.46643969 2.8914528
0.21748152 -0.52564734 2.8162117
0.23239273 -0.47424585 2.9138665
0.2172768 -0.49626884 2.8161728
0.2280919 -0.47567621 2.7933967
0.50197071 -0.62121636 3.2641449
0.9112612 -1.1411458 3.7564471
0.14217484 -0.47382489 2.947526
0.13183179 -0.54043728 2.9984772
0.18438458 -0.69737405 3.2654922
0.71158916 -0.59420234 3.1178343
0.72068012 -0.58316988 3.1041908
0.73866576 -0.62142545 3.1237853
0.81640995 -0.5749386 3.1131506
0.77527016 -0.59009612 3.1095197
0.61751676 -0.48063844 3.0206289
0.54486138 -0.49208784 3.0100939
0.62475842 -0.58827543 3.0938299
0.863648 -1.1412733 3.6211548
0.88080895 -1.0109935 3.7723885
0.91461474 -1.1418319 3.8184862
0.68884236 -0.80684227 3.7307954
0.81038666 -0.73904395 3.6212888
0.98812902 -0.91250908 3.5649035
0.88532579 -1.071303 3.7195003
0.93998992 -1.1617005 3.5715137
0.96544498 -0.74303192 3.535562
0.5744375 -0.80223721 3.6638808
0.75632298 -0.94896513 3.8342183
0.74327743 -0.92325109 3.8463945
0.54253215 -0.61515498 3.2017262
0.57762659 -0.80171144 3.6282668
0.30656159 -0.53572375 3.0155413
0.5622682 -0.61873871 3.1911128
0.88932651 -1.1464365 3.7027309
0.50990647 -0.61929047 3.2005572
0.51944929 -0.61395901 3.1489542
0.55738306 -0.60293567 3.1583772
0.84514713 -1.0020585 3.7723386
0.85990536 -0.72433478 3.573384
0.93025225 -1.1764091 3.6014774
0.96721441 -0.71933424 3.5646298
0.85816431 -1.1268941 3.632952
0.8352589 -1.0925058 3.5084705
0.86837703 -1.1056063 3.5805609
1.2363455 -0.54858732 3.0824065
1.2472154 -0.44478843 2.9289403
1.1950607 -0.46510151 2.9821913
1.2542336 -0.41528079 2.9597759
0.50082713 -0.61189377 2.9884017
0.5617485 -0.77795941 3.5364318
0.55980277 -0.59129435 3.1387854
0.59906775 -0.58573633 3.1681798
0.5477128 -0.60538363 2.9850752
0.53888071 -0.62438148 2.9974129
0.593979 -0.78465182 3.5977104
0.57432234 -0.61090344 2.9868262
0.69044077 -0.64773768 3.2676558
0.86331123 -1.0326474 3.5238042
0.68794113 -0.5848226 2.973175
0.80381894 -0.60581207 3.196316
0.6805076 -0.61721975 2.990886
0.73566908 -0.61015153 3.1596835
0.86333376 -1.0307412 3.5225141
0.70614153 -0.61354375 2.9876387
0.84126168 -1.0259657 3.5312736
0.65242898 -0.62795973 3.2059557
0.91859359 -1.171737 3.6984894
0.69154948 -0.62355757 3.2625101
0.65085632 -0.60453528 3.1515245
0.67419159 -0.59456503 3.1634448
0.95684195 -0.87996048 3.5653753
1.0028684 -0.84803331 3.5738108
0.65493804 -0.58010876 2.9594834
0.42430463 -0.81045419 2.8537931
1.0938333 -0.80289406 3.6327426
1.1289775 -1.0617567 3.5290272
1.0026013 -0.79274237 3.5789483
1.0078543 -0.7944358 3.5847328
0.7374118 -0.62709224 3.1975207
1.0286688 -0.73644084 3.5224035
0.99327493 -0.76635551 3.5151346
1.0026662 -0.75401062 3.5249009
0.76616108 -0.61223525 3.1724741
0.75902605 -0.5836606 3.1056604
0.8980239 -1.1672922 3.6109936
1.2246245 -0.755759 3.4876263
0.98809922 -1.1954195 3.7114074
0.56734067 -0.58164221 3.0901251
0.6072917 -0.53600001 3.0646749
0.61365128 -0.5409503 3.0486226
0.35061044 -0.41754255 2.8583481
0.37542343 -0.41504535 2.8557618
0.81617141 -0.60730481 2.9758158
0.67446685 -0.51144749 3.0333118
0.53347719 -0.43063766 2.9283245
0.84253848 -0.65606374 2.9831469
1.1481899 -0.49285993 2.9782782
1.1520095 -0.48999998 2.9758096
0.89791375 -0.99871075 3.7399776
0.82489002 -1.0608702 3.850949
0.93643737 -1.1781394 3.5986695
0.93883276 -1.1756731 3.6261475
0.73820353 -0.9245981 3.8163652
0.82047194 -0.96727777 3.8590782
0.9664368 -1.1629779 3.5455625
0.75347269 -0.82242882 3.766418
0.84736043 -1.1142876 3.8295319
0.92984772 -1.1579326 3.7360914
0.96016359 -1.1828754 3.575804
0.69911891 -0.87276989 3.8195448
0.83921808 -1.111228 3.8282938
0.90322262 -1.1391082 3.7311254
0.70182836 -0.82388735 3.7850134
0.71771574 -0.90889597 3.8108985
0.9467569 -1.1629877 3.5975032
0.98255998 -1.2317162 3.6795197
0.80068237 -0.76696074 3.5187047
0.75530881 -0.70619762 3.5593336
0.72376865 -0.68926871 3.5715582
1.2866919 -0.59574467 3.5492043
1.1089697 -0.52740675 2.6828129
1.2703972 -0.57379472 3.550463
1.2710298 -0.5697419 3.5447826
1.1074299 -0.46290526 2.9361937
1.1930668 -0.47774312 2.9778574
1.1092457 -0.42112899 2.8557467
1.2332077 -0.46025828 2.757215
1.196949 -0.40041935 2.789674
1.2500314 -0.44798329 2.7639611
2.2517309 -0.13706513 3.6687524
0.76892012 -0.91938925 3.6793299
0.86426985 -1.0023354 3.7817638
0.84816539 -1.050958 3.4988093
0.65027374 -0.77591509 3.6820824
0.83565074 -1.0548817 3.5431328
0.91112912 -1.1593249 3.5784025
0.8231287 -0.98625821 3.7895067
0.70058209 -0.87138289 3.819885
