# .PCD v0.7 - Point Cloud Data file format
VERSION 0.7
FIELDS x y z
SIZE 4 4 4
TYPE F F F
COUNT 1 1 1
WIDTH 468
HEIGHT 1
VIEWPOINT 0 0 0 1 0 0 0
POINTS 468
DATA ascii
-0.9240638 0.25273454 3.0842395
-0.82045239 0.17839307 3.0839567
-0.73788178 0.46423194 2.7099023
-1.2626915 0.40995908 2.9702489
-1.3460219 0.31401661 3.1607897
-1.2523531 0.14931297 3.4179265
-1.2372204 0.41559297 2.8267519
-0.98097706 0.22471035 3.1422787
-1.2591301 0.16622928 3.4111524
-1.2291741 0.14775826 3.4196408
-1.4649391 -0.00088877178 3.530509
-1.4635675 -0.0025291832 3.5305178
-1.4117491 0.60201401 2.7456491
-1.1498057 0.39259169 2.831202
-1.2947522 0.48350278 2.8598907
-1.0928082 0.30613586 3.0514333
-1.5127562 0.10592689 3.5166562
-0.89886236 0.043975934 3.0347147
-0.76846397 0.18617333 3.0035079
-1.245293 0.54109401 2.6741459
-1.0099111 0.43219602 2.7813585
-1.4279352 0.4220911 3.010673
-1.0834391 0.34208804 3.0659678
-1.1144063 0.25497642 3.1441152
-0.99226195 0.19403879 3.2018895
-1.3570907 0.52521515 2.8207295
-1.522101 0.13484801 3.4954548
-1.0986544 0.65109628 2.493583
-1.1035373 0.25641808 3.1451542
-0.77069712 0.18105826 2.9975255
-1.2675081 0.39680409 2.9467335
-0.85191995 0.33330697 2.7922099
-1.3143514 0.15842234 3.4680696
-1.3222586 0.10133135 3.5567911
-1.2688386 0.093532056 3.3917713
-1.4849436 -0.003674546 3.5260191
-1.3462948 0.14917515 3.5077732
-1.2716378 0.093973637 3.4384978
-2.1550736 0.28733629 3.3354909
-2.2099471 0.094482198 3.2296734
-1.410416 0.38780841 3.032856
-1.3779109 0.38119942 3.0230973
-1.3803923 0.60921705 2.7278051
-2.2639229 0.34143919 3.2421167
-1.3485315 0.31398949 3.152653
-2.189333 0.06645076 3.177839
-1.3168529 0.46791634 2.8127782
-1.3612175 0.37385249 3.0601683
-1.2640721 0.17983975 3.4334581
-1.4799298 0.14214703 3.4599223
-1.4732821 0.11357883 3.502564
-1.6486832 0.19468942 3.4681823
-1.5079945 0.11848227 3.5667927
-2.2612031 0.34741953 3.2446892
-2.1617694 0.29347569 3.3530388
-1.250821 0.4024885 2.9647892
-1.4378836 0.40579048 3.0197434
-1.2668344 0.17142679 3.4123738
-1.1831453 0.35076156 3.0246966
-1.1023748 0.24241747 3.1610539
-1.2955573 0.47829086 2.8617113
-1.2882687 0.47286075 2.7334373
-1.2924398 0.47042063 2.7346792
-1.1638393 0.35709724 3.0077775
-1.1830692 0.53931725 2.6172509
-1.2004118 0.35738128 3.0071523
-1.4384128 0.41183004 3.0102985
-1.4897244 0.19916995 3.3592033
-2.0474539 0.30652022 3.4733598
-2.1794546 0.10261445 3.3243649
-1.4422987 0.15867402 3.4264653
-1.453635 0.23470789 3.3125036
-1.4577912 0.098508433 3.5831017
-1.3902069 0.60991549 2.8119366
-1.3120029 0.46278068 2.7925797
-2.1700184 0.072344586 3.2489254
-0.81090844 0.28799331 3.060966
-1.2892042 0.23022841 3.2771907
-2.3050096 0.21931052 3.1514518
-2.2729447 0.22964393 3.0718012
-2.1554992 0.26179707 3.3608503
-1.5878094 0.1832311 3.4787543
-2.1774094 0.24685352 3.3221092
-1.5672187 0.25721535 3.3407674
-1.8818145 0.12230962 3.6312196
-1.456936 0.097787976 3.5819559
-1.5286582 0.10317893 3.5265284
-1.0892608 0.30396789 3.0565834
-1.0772855 0.37535301 2.9543047
-1.0443161 0.28199142 3.0656152
-2.1094711 0.19420975 3.5787852
-2.0035758 0.13870333 3.1074238
-2.2889431 0.14309432 3.1576674
-1.0935258 1.0122141 2.514329
-2.1750844 0.22442622 3.3278098
-2.2432625 0.10374381 3.1309655
-1.0264696 1.0536026 2.135534
-0.82740521 0.26520449 3.0887918
-2.2930114 0.34912717 3.1460445
-1.1974312 1.0721321 2.2746916
-1.0033494 1.0669869 2.1167231
-1.0107249 1.0609456 2.1269612
-1.0622907 1.1554899 2.197674
-2.1841815 0.0765986 3.3098428
-2.264492 0.10464846 3.1480374
-0.69332337 0.34497869 2.9365866
-1.1019943 1.3970616 2.6068909
-2.2996516 0.22490655 3.2109137
-2.2435195 0.090301841 3.1920242
-1.6393384 0.20158558 3.4505067
-1.5922083 0.17728415 3.481935
-1.556706 0.12545817 3.4866226
-1.2321539 0.57748121 2.6885149
-1.1531529 0.62224233 2.4884572
-1.161695 0.66553867 2.5120022
-2.2980051 0.16108769 3.16188
-2.097302 0.33221018 3.4487052
-1.2302353 0.54501384 2.677422
-1.577937 0.085578263 3.6536872
-1.5075775 0.11658341 3.5676019
-1.4913366 0.11587704 3.5751221
-1.1669915 0.39370778 2.9266884
-1.0537242 0.54163933 2.6146636
-1.2481281 0.31004512 2.9861681
-0.80248094 0.62240767 2.4293027
-0.6583994 0.49573365 2.5742548
-0.66487777 0.49706689 2.5675309
-0.65635902 0.50020534 2.56881
-1.5059258 0.11220285 3.5119452
-1.2682548 0.55760717 2.6984847
-1.2828515 0.41859943 2.9488449
-2.2482641 0.084111683 3.1618524
-1.1107972 0.23703781 3.1846383
-1.2711883 0.012219228 3.6948316
-2.2664304 0.13875587 3.1614909
-1.1347704 0.17045757 3.2650855
-2.290278 0.21256822 3.2212613
-2.1780195 0.27439654 3.3289845
-2.154815 0.30155081 3.3571661
-1.2678094 0.15286022 3.4102824
-2.2844572 0.29599568 3.161653
-2.2093029 0.24747059 3.3060014
-1.1469765 0.64491439 2.54866
-2.0040147 0.2520529 3.4447672
-1.3991773 0.17880309 3.412668
-2.0277972 0.27741206 3.4506466
-1.3002795 0.079832017 3.4078369
-1.8967189 0.14394587 3.6159263
-1.8857734 0.12839481 3.6060219
-1.571876 0.16674283 3.445101
-2.2834783 0.11833966 3.1828032
-1.5058525 0.11598332 3.5699244
-1.5660475 0.16880116 3.4460006
-1.4140927 0.60455078 2.7528639
-1.1045281 0.38422027 2.9023881
-2.1508412 0.31546548 3.3915238
-2.1385758 0.31527644 3.3831921
-2.1070838 0.28897318 3.4128218
-1.1712844 0.35099721 3.0181425
-2.2007947 0.084039889 3.3135555
-1.4895678 1.4056923 2.6717932
-2.1614864 0.077586628 3.2418737
-0.83093607 0.92029774 2.1295865
-2.3058672 0.2447857 3.1879764
-2.2228322 0.10798089 3.1200178
-0.8510589 0.90562481 2.135041
-2.1012733 0.27414703 3.443002
-2.2013066 0.099409536 3.1239395
-0.86759073 0.64695066 2.4198298
-0.78973162 0.79821903 2.1949763
-1.0614065 0.41922259 2.7938302
-2.2012863 0.078807525 3.3086421
-0.85576516 0.45042169 2.7719278
-0.75355709 0.3163465 3.022146
-0.87851954 1.1363945 2.2887383
-0.72902876 0.33531296 2.9468212
-0.66423869 1.3203253 2.1644924
-2.1866951 0.067867547 3.1779778
-0.88581634 1.5440694 2.3463132
-2.1605456 0.28767264 3.3359349
-2.1567419 0.30273747 3.3770404
-0.92161286 1.1095601 2.3028467
-2.1805279 0.077197194 3.2241654
-2.1553543 0.28530073 3.367069
-2.1544075 0.07376188 3.2128129
-2.1224108 0.3133775 3.4056823
-2.0994365 0.19947423 3.5855153
-2.0504518 0.29662475 3.4646268
-2.1007063 0.32354364 3.4501307
-2.068121 0.28295678 3.4540741
-2.1575787 0.25292537 3.3373463
-1.649457 0.19370878 3.466975
-2.2059982 0.070683368 3.1925886
-2.1592367 0.23784067 3.3380587
-2.1502206 0.27307469 3.3753541
-2.2516866 0.1155635 3.1193254
-2.2591722 0.13057439 3.0955775
-2.3100288 0.21175018 3.2074776
-2.2084622 0.079022758 3.1465373
-1.4521956 0.26392248 3.2837107
-0.86394483 0.64699924 2.4153948
-0.83643079 0.69444603 2.3234627
-0.87013447 0.64690405 2.4146609
-0.85940987 0.67654383 2.3443141
-0.76717472 0.73774838 2.2648952
-2.26982 0.23621783 3.2559221
-0.75966519 0.74173814 2.2566118
-0.78733015 0.62399715 2.4310839
-0.64170593 0.64502209 2.3236358
-2.1805696 0.075794123 3.1674254
-0.57544488 0.74166703 2.1964092
-0.57714456 0.7477802 2.1900361
-0.7166121 0.4012337 2.8011041
-2.2238262 0.080897816 3.2235889
-2.2132754 0.24516183 3.3046582
-2.2599154 0.1165859 3.1294355
-1.4953135 1.3986013 2.6680739
-2.2578354 0.12415645 3.1115391
-1.0926529 0.39371687 2.8784091
-1.170665 0.14954126 3.4329004
-1.0458316 0.59032303 2.5736582
-2.3068697 0.21600859 3.1498919
-0.81155622 0.79218537 2.1977689
-1.5951304 0.17594625 3.4823129
-2.2885857 0.12882254 3.1845968
-2.1965241 0.086231098 3.3128555
-2.221657 0.07426545 3.1690648
-1.2635309 0.16290987 3.4034357
-2.2600784 0.099931441 3.1530149
-1.2836167 0.47015148 2.8567088
-1.3171839 0.46273217 2.8757944
-1.2532632 0.21757481 3.3270137
-1.0338007 0.47815844 2.8067966
-2.2827036 0.14523908 3.0848525
-1.2286545 0.57890427 2.6849275
-2.2551537 0.10961192 3.1496308
-2.2248299 0.10543983 3.1211751
-1.2536162 0.4104065 2.9421346
-2.3071454 0.19890973 3.1644087
-2.1685345 0.24484962 3.3294327
-1.0450571 0.40993178 2.8632903
-0.78304636 0.16924365 3.0259433
-0.64794844 0.59673107 2.5403783
-0.80297577 0.61965138 2.4299152
-2.2218986 0.085362263 3.1421754
-2.2551746 0.11715009 3.11801
-2.2806015 0.19342491 3.1184213
-2.2267413 0.086053126 3.1463907
-2.2994158 0.2254601 3.1533771
-0.39723185 0.94140422 1.9977106
-0.37318924 0.9461261 1.9890558
-0.38978606 0.93796754 1.9944656
-0.51744503 1.3051033 2.2057297
-1.5902739 0.080483884 3.6620147
-1.5878614 0.087226145 3.6296759
-1.5269603 0.1394463 3.4541466
-2.0512307 0.26026616 3.3943512
-1.3273318 0.44082695 2.8108799
-1.3630085 0.47449374 2.8166544
-1.475734 1.0880185 2.4144135
-2.2742181 0.10778839 3.1290209
-1.4754184 1.0778508 2.438844
-1.0931238 0.40356988 3.0339618
-1.5865284 0.92920977 2.5155914
-1.118331 0.25843319 3.2230189
-1.0972327 0.23051178 3.1914501
-1.1561279 0.66251469 2.4924283
-2.2386434 0.091880575 3.1468656
-2.2115633 0.15517785 3.0925109
-1.3366138 0.10483882 3.5501666
-1.3537982 0.15829083 3.4158566
-0.65832645 0.37282223 2.8224163
-0.98376048 1.4644285 2.3731978
-0.99586058 1.0347255 2.450197
-2.2165942 0.090502284 3.2871299
-2.2652552 0.13048552 3.0933676
-0.79512352 1.4814022 2.3934803
-1.5389149 0.098850392 3.6539245
-1.5783405 0.16622633 3.4444568
-1.5525374 0.18771997 3.4243274
-1.5023073 0.13154006 3.5276062
-1.4425794 0.20733395 3.3325958
-2.2811153 0.32901928 3.0215096
-2.2306631 0.16148667 3.2892747
-2.2206175 0.10744572 3.121685
-1.5705322 0.25697097 3.3466887
-1.4879708 0.21116085 3.4138503
-1.5553541 0.26066035 3.3446875
-1.355374 0.057224128 3.5284991
-1.4850303 0.22743995 3.3281293
-1.4590243 0.23775516 3.3306682
-1.4453691 0.26194152 3.2784095
-1.4998919 0.11021905 3.515352
-1.4180743 0.18907912 3.3376555
-1.4121097 0.26768017 3.2540879
-1.2931588 0.23014577 3.277427
-1.4147787 0.14066423 3.4730551
-1.2164109 0.061625168 3.1721511
-0.90943903 1.299191 2.3728433
-1.0407096 1.1206423 2.4490492
-1.4613589 1.4318833 2.6599498
-0.91233546 0.41234151 2.8504026
-0.79724586 0.17485631 3.0237124
-1.1131088 0.97253764 2.4729326
-1.0528542 1.1366372 2.1435311
-0.87670672 0.8986432 2.0911393
-2.1804852 0.066838011 3.2682664
-1.0612333 1.1596478 2.1874661
-2.2007034 0.1100143 3.1073554
-2.2045176 0.11155417 3.1063006
-0.87606895 0.2789543 2.9914732
-0.63925451 0.44275224 2.7872295
-2.2575977 0.39611381 3.1418769
-0.6875903 0.78156179 2.2370057
-0.64043808 0.64276105 2.3256707
-0.94512606 1.4930089 2.3628204
-0.79639304 1.2162621 2.461741
-2.2341876 0.088512771 3.1677141
-0.77556694 1.1781613 2.264452
-0.90366703 1.3243945 2.3603494
-2.0847397 0.34559333 3.439955
-1.0396185 1.17294 2.1749568
-1.9750111 0.29611269 3.4173441
-1.2377312 0.10218545 3.365061
-1.3780924 0.18961406 3.3279679
-1.4491875 0.1228689 3.4193816
-1.4133215 0.36957502 3.0210664
-2.1383827 0.093297392 3.2441008
-1.2244788 0.12311228 3.2380686
-1.877373 1.128933 3.2270162
-1.4386864 0.37329796 3.0366774
-1.3682784 0.23649456 3.2554858
-2.2117965 0.10511611 3.1081567
-2.2204745 0.077573493 3.1701355
-1.2129172 0.086946897 3.2216711
-1.2692938 0.18095261 3.4118266
-2.3040769 0.22078846 3.2106028
-1.3148425 0.26154771 3.2087278
-1.1471258 0.16939819 3.2504404
-1.3658682 0.18652984 3.338002
-1.2606574 0.21928109 3.321135
-1.3198777 0.44365528 2.8137741
-1.3919659 0.38857487 3.0046818
-1.3639908 0.40320021 2.9883132
-1.3017091 0.46781102 2.8409019
-2.1544185 0.27699676 3.4209547
-1.2380995 0.41173217 2.9828079
-1.1894034 0.15173665 3.4220207
-1.2217664 0.2482373 3.2584026
-1.301188 0.23206769 3.2298875
-1.2557681 0.25349909 3.1915677
-1.232765 0.26321241 3.186038
-1.1425456 0.22761351 3.2780159
-1.1010226 0.2553874 3.2273917
-1.1336813 0.38580135 2.8617125
-1.0323884 0.50213921 2.8877399
-1.4429837 1.0868635 2.402885
-1.3557063 0.36602932 2.9241564
-1.8719921 1.1350495 3.2284565
-1.539562 0.47599298 2.8262897
-1.1652894 0.26527464 3.2611241
-1.2638354 0.47376883 2.7414203
-2.1067393 0.28405929 3.415359
-1.1675109 0.3470121 2.9965556
-2.261282 0.11565146 3.117929
-1.0267437 0.39130884 2.8946109
-1.051869 0.30780947 3.0512812
-1.2727129 1.0554261 2.4236193
-0.92750573 0.30549505 2.8114781
-2.2694557 0.18418634 3.254056
-1.1820323 1.0224571 2.5012794
-2.1060162 0.27037567 3.4406919
-1.1226927 0.62630004 2.4905457
-1.1737307 0.59942424 2.5034475
-2.2944415 0.17064203 3.1839154
-1.0410179 1.2017298 2.1896818
-1.0143938 1.054329 2.122236
-1.0270934 1.2112328 2.1970375
-0.81719506 1.2026199 2.2341499
-2.1384025 0.2907941 3.4327769
-2.2388954 0.091292992 3.1474195
-0.95130765 1.4867183 2.3695798
-1.0269449 1.0186095 2.4233744
-0.91930562 1.293689 2.4347203
-0.88637578 1.3819473 2.4302108
-2.0462837 0.30140877 3.4706769
-2.2323637 0.096167654 3.1615753
-0.57840604 1.2585111 2.2327938
-0.52272516 1.2964013 2.2108188
-1.0421703 0.95608443 2.4086936
-1.2637988 0.14697585 3.4134271
-2.1927178 0.25842419 3.3142014
-1.1142582 0.3805117 2.8684018
-1.143957 0.45442697 2.7428784
-1.2354653 1.1603258 2.1205654
-1.1491208 0.96486646 2.5322661
-1.0026577 0.98992312 2.0456972
-0.8368718 0.41647166 2.8007538
-0.90616333 0.5705741 2.4764292
-0.62013751 0.44163105 2.8088803
-0.81997114 1.3632132 2.365531
-0.74785137 1.2328073 2.2492933
-0.73895615 1.2606814 2.4518158
-1.3229376 1.0902718 2.4666779
-1.1455728 0.95181584 2.5672386
-1.012334 1.1406319 2.4898424
-1.1471462 1.0144458 2.5910757
-1.3757862 0.0589035 3.5252857
-1.4616444 0.10900819 3.5049434
-1.1229836 0.2420637 3.255234
-1.1115465 0.39003229 2.9045887
-0.93602216 0.65424985 2.4526904
-2.2706425 0.34064323 3.2282662
-0.7510224 0.38690501 2.8144598
-0.8406567 0.30091938 3.0224934
-1.1106318 0.40292528 3.0282841
-0.91889447 0.26849645 3.0591764
-1.0908526 0.29714146 3.0517449
-1.0965493 0.39294672 2.9086306
-1.4808171 1.0766338 2.4356558
-1.014699 0.21414949 3.1850319
-1.4894996 1.0513166 2.4300735
-1.5124366 1.0225255 2.443692
-1.4379743 1.0216463 2.4862242
-1.4276966 1.0247207 2.4492574
-1.159337 0.66502357 2.4931183
-0.79699641 0.33774012 2.9072952
-0.86855823 0.91823161 2.1656606
-1.3971891 1.0752972 2.2544701
-1.1848832 1.2146041 2.0916381
-0.7677635 0.19435374 3.0097573
-0.97694623 0.43277234 2.7719607
-0.67846262 0.56949574 2.52215
-1.1326591 0.23988435 3.2037752
-1.3232635 0.095968679 3.5580864
-0.59894109 0.43231872 2.7799945
-0.98106056 1.0517843 2.4066682
-1.5695171 0.1002417 3.6013527
-1.4977796 1.0687371 2.4283199
-1.4765892 1.0916235 2.4169772
-1.2040576 0.19758956 3.3322999
-0.98947257 0.84328514 2.224123
-2.2037518 0.067424998 3.2773278
-0.70439905 1.1426262 2.1849797
-1.178973 0.26316911 3.2610462
-1.119647 0.37729195 2.9092729
-1.6385784 0.20361187 3.4477623
-1.5013015 1.2094311 2.4859166
-1.5041065 1.2036719 2.4868314
-2.1546824 0.07447546 3.2134845
-1.5120524 1.195919 2.491725
-0.94666642 1.1847917 2.5033796
-1.3267481 0.083690345 3.3769953
-1.4986087 0.18818058 3.3918099
-1.556447 0.18577638 3.4049168
-2.2009046 0.063408181 3.2994192
-0.82063633 1.073916 2.2302861
-1.4043159 1.3549424 2.4998116
-1.3881236 0.28006518 3.1993032
-1.1867394 0.15231235 3.2778132
-2.2046432 0.25085622 3.3076508
-0.89096034 1.2577192 2.031373
-1.9392971 0.1270695 3.6608984
-1.4430239 1.1749674 2.3819194
-1.9132738 0.091866493 3.6360281
-1.2857891 0.26307172 3.1798706
-2.2662818 0.39635623 3.1431634
-1.0548569 1.1609573 2.1789935
