# .PCD v0.7 - Point Cloud Data file format
VERSION 0.7
FIELDS x y z
SIZE 4 4 4
TYPE F F F
COUNT 1 1 1
WIDTH 381
HEIGHT 1
VIEWPOINT 0 0 0 1 0 0 0
POINTS 381
DATA ascii
-0.68654108 0.55376506 2.2286336
-0.99629265 0.50785708 2.3485141
-1.0511332 -0.12328725 2.6282547
-0.72421777 -0.0087184766 2.6770577
-0.93469888 0.37421206 2.5487723
-1.0031209 0.43936583 2.4833705
-0.63330442 0.1741937 2.7175491
-0.74619067 0.067208908 2.7473741
-1.0759648 0.28580415 2.6943195
-0.78526616 0.20111997 2.7901428
-0.84595358 0.47028399 2.2978466
-0.72143555 -0.014166187 2.6718879
-1.0972065 0.41289341 2.5605285
-1.1454241 0.35224685 2.6366117
-1.2721385 0.29021463 2.7242033
-1.1463522 0.18121688 2.9063675
-0.67575681 0.63046926 2.1465096
-1.3972865 0.15654737 2.9503224
-1.1725109 0.25465322 2.7444506
-0.74438578 0.68921912 2.0737362
-1.0134683 0.45832634 2.4467702
-1.3928139 0.047340628 2.9473324
-0.77619791 0.66035986 2.1188734
-0.85389984 0.41369739 2.3825638
-1.4837137 0.23949224 2.8679478
-1.0887942 0.58594078 2.2710783
-0.99319649 0.51615477 2.3685532
-0.81390524 -0.12448902 2.6853566
-1.1366847 0.42295113 2.4716444
-1.2541274 0.36261573 2.6544075
-1.4269353 0.15939143 2.9217446
-0.87701267 0.3082847 2.620558
-1.9528401 0.46468672 2.3464198
-0.55914623 0.17749938 2.6565166
-1.1698384 0.46618545 2.4712427
-0.74526435 0.069437556 2.7510476
-1.4183785 0.053013958 2.9683375
-0.86513913 0.35864246 2.6252832
-1.2615753 0.36247638 2.6516967
-0.67905015 0.61190027 2.1986721
-0.83079058 0.20406885 2.7790158
-1.1450316 0.36072338 2.636229
-1.05814 0.25103679 2.8149893
-0.65325588 0.041176423 2.6465373
-1.4271997 0.18891512 2.8993497
-0.72486377 0.31387576 2.6427152
-0.9146958 0.27511236 2.6929634
-0.85913002 0.35293043 2.6245136
-1.2196194 0.19547117 2.9358604
-1.2582065 0.13946329 3.0169008
-0.78816873 0.21749787 2.7720211
-1.1625159 0.43065721 2.4969027
-1.1382244 0.12021767 2.9403059
-1.1292024 0.42140391 2.4971707
-1.0434532 -0.061327878 2.6624451
-1.0251791 0.64802861 2.2196529
-1.1453729 0.35240036 2.628098
-1.1056008 0.7798 2.3509035
-1.0013047 0.50227946 2.3166621
-1.12502 0.41283187 2.5373693
-1.1597611 0.21263823 2.9183402
-1.1040323 0.8303299 2.383235
-1.619938 0.65000129 2.4476657
-1.9443009 0.46676636 2.3542664
-2.0102572 0.34457895 2.2713921
-2.0108473 0.24288365 2.3048878
-2.0416286 0.40770069 2.3589067
-1.0037979 0.50104862 2.3565612
-1.127131 0.41172212 2.5449226
-1.6545775 0.61192393 2.4475689
-0.98921949 0.4321411 2.4800107
-1.3397739 -0.22167228 2.8015947
-1.0991465 0.43131402 2.5037968
-0.94903851 0.26240003 2.7283938
-0.98954082 0.50825876 2.3472555
-1.0104866 0.26270077 2.700949
-0.80073398 0.20546678 2.7780797
-1.1915786 0.59205091 2.2819743
-2.0629177 0.33640724 2.3394015
-1.0960367 0.9446674 2.4551244
-2.0068767 0.34076393 2.2733369
-0.8575784 0.47978622 2.2904196
-1.9869286 0.21526441 2.330168
-1.9657134 0.20601921 2.3428948
-0.85626692 0.46851709 2.300365
-1.9853873 0.1801327 2.4402218
-1.5818151 0.64223784 2.4068995
-0.69569749 0.62019801 2.137933
-1.9574641 0.23018877 2.3105533
-0.9499529 0.5046615 2.2496262
-0.95448202 0.50257146 2.2495108
-1.8971245 0.47602984 2.3331478
-2.0471478 0.27830014 2.283154
-1.9900615 0.21043713 2.3207653
-1.6630106 0.61940122 2.4339404
-1.3347138 -0.22292301 2.8003747
-0.88699949 0.46693474 2.2588961
-0.81354421 0.57883453 2.17716
-0.84332615 0.46624526 2.2905734
-2.0254331 0.21296717 2.351419
-1.3824737 -0.22754434 2.8341153
-0.59365577 0.63756877 2.0965695
-1.1288851 1.1528529 2.6111434
-1.186833 1.1018947 2.5236428
-2.0376594 0.28033412 2.2728662
-1.1477896 0.2560288 2.7728429
-0.85696852 0.30681956 2.6338847
-1.1804911 0.45680761 2.4675303
-1.1771493 0.59263939 2.2835689
-0.9310472 0.26430163 2.7104733
-0.93118352 0.26487237 2.7067709
-1.7209237 0.60247797 2.4041607
-1.3951775 0.14772537 3.00141
-1.0596797 0.64976102 2.296994
-1.0787743 0.62684697 2.2021906
-1.1028631 0.60594267 2.2546101
-1.1686493 0.57163662 2.2576168
-0.99103969 0.49670956 2.298732
-1.532802 0.56409675 2.4073477
-0.90825689 0.50809133 2.2645106
-1.9604242 0.39968672 2.2665215
-0.9179529 0.506208 2.2586129
-2.0216494 0.22873919 2.327533
-2.0327523 0.22331847 2.3140645
-1.6358647 0.59527051 2.444572
-2.0121007 0.22913054 2.3195875
-1.9618442 0.39924106 2.2672834
-0.76088268 0.42383513 2.3833382
-2.0208542 0.18965448 2.4265194
-0.76782787 0.27130356 2.6465132
-1.1376694 0.59269702 2.2483077
-1.7594042 0.6147933 2.3339384
-2.0618255 0.33566508 2.3388746
-1.9731889 0.18729451 2.3655603
-0.45167223 0.34468168 2.5853724
-2.0230706 0.22846386 2.3269684
-2.0076673 0.23373301 2.2998273
-1.9721384 0.18818596 2.4612031
-1.4452294 0.15797137 2.9263477
-0.88569051 0.2671487 2.6927533
-0.83254051 0.29556787 2.6353467
-0.4763175 1.0605325 1.7700795
-0.45820272 1.0665489 1.7667682
-0.57611293 1.1288079 1.833057
-0.87494165 0.60425371 2.2258139
-0.73634511 0.64188492 2.0595529
-0.75348836 0.68025124 2.0813055
-2.0011544 0.23591651 2.307971
-1.0612438 -0.05552483 2.6539168
-2.0109663 0.21831709 2.3367579
-2.0625572 0.33470339 2.3389537
-1.1022421 0.93716115 2.4451356
-2.0703979 0.36579153 2.3764114
-1.9595245 0.18500465 2.477258
-1.951009 0.45305339 2.3268311
-0.86735123 0.57287246 2.2118881
-0.67548454 0.7010622 2.0989044
-0.8677032 0.54891992 2.1914449
-0.87233335 0.5717063 2.2151029
-0.79564822 0.56905359 2.2222919
-1.1051458 0.77691132 2.3467674
-1.1180996 0.62447947 2.2690232
-1.1100957 0.60572356 2.2359352
-1.5315845 0.14479081 3.0325394
-1.4151211 0.22748688 2.8686783
-2.0115447 0.23351617 2.5166333
-1.4364514 0.1697375 2.9721255
-1.4233198 0.16773666 2.9841413
-0.84353358 0.42168286 2.4659102
-1.9429656 0.2259142 2.3446074
-0.46914691 0.6341309 2.0792634
-0.51103324 0.63533252 2.0689533
-1.0771878 0.17298113 2.7244971
-1.9513971 0.21927392 2.3311894
-0.64947528 0.54039007 2.2385106
-0.67873776 0.44349927 2.4160726
-0.63673037 0.53839093 2.2271361
-2.0412941 0.20129409 2.4047296
-0.56543404 0.32709607 2.4325843
-1.7362388 0.62665665 2.3547959
-0.68595833 0.5538373 2.2079434
-0.6539681 1.3151757 2.3251822
-0.67451417 1.293882 2.3428833
-0.38518474 0.61341828 2.10799
-0.24427867 0.50601298 2.179527
-0.30156982 0.47588089 2.2866206
-0.30304092 0.4748705 2.2877338
-0.30560908 0.47771642 2.2782979
-0.29764742 0.48015672 2.2821333
-0.24826059 0.49360994 2.2725263
-1.9831166 0.21556284 2.3333488
-0.35421807 0.55679643 2.2538788
-2.0128002 0.16983172 2.4961934
-1.9786205 0.22239739 2.3249359
-0.57813185 0.079517633 2.6109915
-0.81900853 0.20500226 2.7715349
-0.80693525 0.099376462 2.8376875
-0.50855827 0.34312731 2.547508
-1.4185373 0.16507882 2.9194288
-2.0061123 0.24667178 2.5217912
-1.0117941 0.54982615 2.3291483
-0.98023033 0.55851299 2.340977
-0.91543615 0.51472414 2.2528803
-1.4633582 0.16171379 2.8817937
-0.92998993 0.44728413 2.3550856
-0.96850461 0.38390642 2.5298047
-0.6902746 1.0074219 2.0262277
-1.9824337 0.25964123 2.5530026
-0.64615321 1.0242536 2.1127224
-0.626975 1.0491128 2.1069791
-2.0437965 0.40525675 2.3549154
-0.5135392 1.0508744 2.0506964
-1.072542 1.189028 2.5664628
-0.83727688 0.40375111 2.4670508
-0.68530077 0.53194231 2.2248387
-0.81832504 0.40764081 2.4776554
-0.93495333 0.25649783 2.7280409
-1.0586369 0.15004934 2.7475681
-1.1356231 0.43287653 2.4751983
-0.98707783 0.19231249 2.7961779
-0.9864524 0.44075444 2.4593315
-1.1017416 0.87987185 2.4104638
-1.0098801 0.55136031 2.2191603
-1.1584783 0.18598519 2.8945298
-0.74674743 0.6641522 2.1193235
-1.4569312 0.22460124 2.8371172
-1.1431174 0.60863096 2.3048112
-1.2930015 -0.23919098 2.8498409
-1.4013544 0.18776444 2.8558776
-1.4355545 0.169006 2.974844
-1.4514982 0.22618224 2.8397629
-1.065099 0.64618456 2.2333801
-1.0544901 0.65371162 2.241847
-0.76120836 0.60186964 2.1767809
-0.46067026 0.8561644 1.8457563
-0.80934042 0.11492164 2.7671545
-0.78565687 0.23329036 2.731545
-0.74121207 0.21288548 2.809737
-0.29228017 0.90400797 1.7323484
-0.28904569 0.78694659 1.8920591
-0.28627524 0.44422641 2.2710636
-0.10853026 0.57156885 1.8602128
-0.11971718 1.2970554 1.9117972
-0.27647513 1.2038254 1.9284532
-0.23668794 1.2176851 1.9465481
-0.47487175 1.4678164 2.0172429
-0.39866674 1.5148952 2.0170808
-0.42240354 1.1082709 1.9622616
0.14802492 0.84563553 1.7973206
-0.01335802 0.83479768 1.8337448
-1.1734492 0.44732779 2.5079949
-1.9828267 0.22755371 2.3225987
-0.43752855 0.64287782 2.0768735
-0.380092 0.68767279 1.9984249
-0.3103466 0.70777798 2.0045066
-2.0095766 0.22806866 2.3202939
-0.40959302 0.6717543 2.0110579
-0.30695823 0.69829512 2.0266457
-0.63205111 1.443385 2.2148795
-2.0254478 0.2116496 2.3494027
-0.6319434 1.4326119 2.2219031
-0.29329544 0.72504401 1.9641989
-0.35687146 0.62474447 2.0848446
-0.97575462 0.21808624 2.8036175
-2.0234208 0.22930659 2.325006
-0.33150712 0.64588875 2.0529783
-0.28335974 0.72838748 1.9586287
-0.41291514 0.62523067 2.0427954
-0.13523759 0.48552319 1.959916
-0.80999887 0.099450938 2.841969
-0.7706539 0.30729342 2.6175396
-2.0191102 0.23034637 2.3298616
-2.0086763 0.24968204 2.3018188
-0.090162791 0.71319252 1.9562845
-0.13686359 0.53310466 2.1017015
-0.22467776 0.51122504 2.0914204
-2.0195963 0.19403397 2.360208
-0.61367232 0.18530054 2.6557591
-0.12460428 0.5407356 2.1018791
-0.14790662 0.67741477 1.9566456
-2.0654066 0.305976 2.3841088
-0.35816905 0.42075181 2.4963603
-0.64663559 0.28448772 2.6480319
-0.17439333 0.49901149 1.9800184
-1.9936911 0.19918589 2.3456192
-2.0192461 0.21284559 2.354919
-0.13057123 0.56205779 2.0250397
-0.58066356 1.0595237 2.1322861
-2.017101 0.19132568 2.4289773
-0.34302744 1.2254009 2.2981906
-1.0046164 0.43833438 2.4791632
-1.0032485 1.4993284 2.1359427
-1.0547394 1.4439628 2.145375
-1.1104711 1.0470493 2.5109048
-0.81362528 0.41031441 2.4447145
-0.85601157 0.41723797 2.4630027
-0.93895996 0.37581965 2.5533102
-0.96083462 0.36894423 2.5310841
-2.0633848 0.3325206 2.3367586
-2.0578671 0.29582298 2.3293712
-0.65266657 0.34009615 2.598861
-0.63849926 0.54028714 2.2312274
-0.31110576 0.78271228 1.8880662
-0.78199953 0.23257914 2.7320037
-0.86863029 0.22738379 2.8552115
-0.7626636 0.20800123 2.805836
-0.71858424 0.31596389 2.6386509
-0.66449314 1.4139161 2.2246866
-2.0174885 0.19467957 2.5224166
-1.1130668 0.73061055 2.3185637
-1.1515708 0.19563484 2.8894949
-0.99698007 0.51122308 2.3525867
-0.95782387 0.39720616 2.5650702
-0.58106267 0.16187313 2.673193
-0.40505791 0.4148739 2.2749543
-0.06991031 0.49340987 1.8262855
-0.67284662 1.2977707 2.323935
-0.40613219 0.4669145 2.3684797
-0.021779133 0.72921759 1.9405501
-0.12981161 0.70438504 1.9491954
-0.12530211 0.70466936 1.95149
-0.29836932 1.0100602 2.021776
-0.12124206 0.48737869 1.9551415
-2.0129924 0.24628592 2.2987926
-0.62442964 0.30165675 2.5899072
-0.15894414 0.48014212 1.9539499
-0.51845556 0.32269651 2.6191082
-0.13133511 0.486375 1.9594061
-0.12412795 0.48787898 1.9625254
-0.55236477 1.0302936 2.0515904
-0.49879515 0.33525541 2.5126584
-0.44428033 0.34409192 2.5366998
-0.54822344 0.32905838 2.4905546
-0.36643997 1.4248886 2.0897923
-0.29604554 1.4648951 2.1053562
-0.32012722 1.1659887 1.9733928
-0.14099152 0.56042731 2.0264595
-0.46019742 1.0915484 2.0157051
-0.3245061 1.4191666 2.1302547
-0.61654615 1.1095172 2.1364594
-2.056603 0.34134582 2.3425169
-0.14595313 1.2041682 1.9899194
-2.0160818 0.20134377 2.5275919
0.0062962733 1.2700863 1.994706
0.16037121 1.2058744 1.9948146
0.14558719 1.1980176 2.0191243
-0.036448229 1.122136 2.0039282
-1.5336926 0.14717041 3.0067003
-0.9246096 0.24891178 2.7384546
-1.4629247 0.22460932 2.8345582
-1.1540446 0.34490532 2.6383269
-0.59345496 0.16861342 2.6669397
-1.1581533 0.21410964 2.8961668
-0.56580693 1.0265135 2.0437784
-1.1425534 0.35247287 2.6309822
-1.3745862 0.15828061 2.9259219
-1.1378537 0.45187482 2.4726958
-0.87144214 0.31440559 2.6085255
-0.66864157 0.43954614 2.3786097
-0.2992495 0.55087942 2.2325087
-0.25145891 0.55390972 2.247407
-0.33290419 0.41516313 2.5074301
-0.96125382 0.26116395 2.7398212
-1.7766503 0.63447171 2.3226578
-1.269996 0.048652489 3.1461732
-1.0450377 0.14902462 2.7551627
-2.0205703 0.24233852 2.296695
-1.2008153 0.58047658 2.3910649
-0.98439372 0.51109838 2.3475275
-0.20578969 1.2965448 2.3483679
-1.9611137 0.44578993 2.307569
-0.53732759 0.56842655 2.1909742
-0.88888425 0.47722897 2.3897634
-2.0296872 0.30062968 2.2552443
-0.32521561 0.88629425 1.7312344
-0.48852783 1.1642087 2.1418548
-1.0449266 1.4671232 2.1353264
-0.75612533 0.60044193 2.1955943
-1.0709825 0.22517011 2.840167
-0.4026635 0.65128332 2.06545
-1.0241414 0.5353815 2.2503147
