# .PCD v0.7 - Point Cloud Data file format
VERSION 0.7
FIELDS x y z
SIZE 4 4 4
TYPE F F F
COUNT 1 1 1
WIDTH 505
HEIGHT 1
VIEWPOINT 0 0 0 1 0 0 0
POINTS 505
DATA ascii
-0.88915968 0.52597058 2.414423
-0.84207708 0.22910926 2.8736522
-0.82645667 -0.035795603 2.8609412
-0.8441779 0.2240016 2.892149
-0.75022435 0.12619667 2.8864307
-1.0757359 0.33364022 2.7672808
-0.7413367 0.15228376 2.8881881
-0.84205586 0.039025813 2.9340887
-1.1882402 0.23777524 2.9319279
-0.824166 -0.041094158 2.8553894
-1.2366333 0.3628251 2.8033841
-1.3776561 0.23086266 2.9908385
-1.2198942 0.13018349 3.1516535
-1.274175 0.53301007 2.5177937
-1.4595591 0.091107003 3.2325389
-1.2742177 0.201263 2.9957979
-1.0002902 0.62667406 2.3197818
-1.0231506 0.37704855 2.5910327
-1.5620257 0.16850869 3.1643875
-1.1687131 0.47114223 2.59847
-1.15018 0.42920434 2.6870887
-0.69831043 0.061068352 2.7734261
-0.82152075 0.099393882 2.9535999
-0.67746288 0.15964481 2.8167648
-1.2867128 0.16731954 3.1152463
-0.87641597 0.41376927 2.5637577
-0.9911055 0.40046647 2.4839363
-1.1474215 0.49425471 2.5985367
-0.84072208 0.041320682 2.9375923
-0.59024143 0.44460824 2.5364718
-0.99472558 0.32248873 2.8324566
-0.92880929 0.17085314 2.9786353
-0.99657714 0.32060528 2.832021
-1.2233586 0.514763 2.5508182
-1.0286425 0.23650497 2.9064171
-0.67900091 0.17863427 2.8402231
-0.65742821 0.56076235 2.3714957
-1.2886308 0.14026703 3.1918368
-1.3113277 0.082456522 3.2774885
-1.2334158 0.075096421 3.1224995
-1.2001432 0.08126004 3.1424158
-1.6116471 0.18762992 3.1427763
-1.521138 0.12066733 3.1491249
-1.4111733 0.21750186 3.0136864
-2.1094494 0.28554875 2.9725008
-1.3116491 0.37647104 2.7503223
-2.0812109 0.27147061 3.014426
-2.0474172 0.30119503 3.0608425
-1.2781879 0.36917844 2.7455633
-1.1406672 -0.10700404 2.8940113
-1.2302469 0.60027605 2.4566147
-2.1879747 0.34862211 2.8257701
-1.2705386 0.29991955 2.8771296
-1.2976798 0.72770089 2.5990009
-2.110575 0.072595336 2.7698019
-1.2675467 0.36104006 2.7846458
-1.2331713 0.1608208 3.1656363
-1.4627216 -0.014746411 3.2252414
-2.1409433 0.073225595 2.8843639
-1.2684356 0.35984194 2.7924247
-1.1432142 0.38798973 2.7077055
-1.3363713 0.39525065 2.7334137
-1.196124 0.065170534 3.1765404
-1.2481089 0.38085398 2.7476628
-1.0881377 0.33507246 2.7774327
-1.1212721 0.21856058 2.9285862
-0.95967203 0.6355499 2.314707
-1.1699041 0.46593255 2.6000721
-2.1732533 0.236495 2.6551757
-2.1377413 0.11262171 2.7078271
-0.91564018 0.59136075 2.3264077
-1.1431494 0.46167397 2.4743629
-1.1475152 0.45932281 2.4749169
-1.0236772 0.54336315 2.3826373
-0.82894343 0.61603779 2.2794793
-1.0199142 0.5267753 2.3766003
-0.82212287 0.61447519 2.2703235
-0.98235106 0.27126876 2.8395092
-1.3353103 0.40140006 2.7240853
-1.4442743 0.18639652 3.0579896
-2.1224828 0.10696883 2.9166076
-1.4232942 0.20763566 3.036078
-2.0848613 0.1121672 2.7146676
-1.4006634 0.22153693 3.0178711
-1.4493209 0.082645558 3.2826967
-1.2845232 0.57592767 2.4472721
-1.3142903 0.54153973 2.4763608
-1.2954235 0.55229932 2.479583
-2.1507437 0.087076895 2.8115015
-1.1344117 0.46459696 2.4759195
-1.099968 0.46759549 2.4828582
-1.1103106 0.46512398 2.4784687
-1.0669212 0.42327562 2.5397007
-2.1649787 0.12494937 2.7011924
-1.1976999 0.42628807 2.5575669
-2.1166372 0.16126756 2.6720376
-1.2329036 0.21344164 3.0080891
-2.2173882 0.22848424 2.7281721
-2.1732626 0.23887239 2.6545234
-2.1019628 0.087022975 2.8350544
-1.5105492 0.089627005 3.216012
-2.2003126 0.178996 2.6416502
-1.0118655 0.36358255 2.6732898
-0.8445347 1.1651485 2.0986929
-0.99958038 0.23024635 2.9018354
-0.93003112 0.36676681 2.6751468
-0.96095717 0.25586596 2.8346233
-0.90825063 0.075870484 2.9789679
-1.0327098 0.99603045 2.2710268
-2.1720085 0.10856923 2.7293613
-0.88945627 1.1439342 2.1107235
-0.786798 0.79713362 2.065089
-1.1610624 0.11126562 2.9389606
-2.0903223 0.19416431 3.1800079
-0.51255584 0.39157382 2.6288521
-0.64282465 0.36154819 2.6209061
-2.1558292 0.11167534 2.7157545
-0.7537939 1.0551555 1.9169732
-0.76278573 1.0491878 1.9258753
-2.1680772 0.14310847 2.6805768
-0.54051262 0.68588477 2.200968
-0.83643228 0.24663548 2.8563797
-2.1865888 0.13406663 2.71561
-2.1255066 0.081229135 2.9011679
-0.69266498 0.31571987 2.6971157
-0.44917092 0.62366599 2.0268869
-1.6060307 0.19148162 3.1253355
-1.5648344 0.16571574 3.1632636
-1.5316389 0.11299759 3.1726005
-1.5183502 0.11565759 3.1748986
-1.0784832 0.56536841 2.4400399
-2.1868484 0.15709561 2.6668675
-0.9846552 0.64769286 2.2793283
-2.1297834 0.095428862 2.7369325
-2.1483707 0.077941194 2.75407
-1.200048 0.23334606 2.9285619
-2.1166594 0.35208452 2.7002084
-1.0712436 0.53442317 2.4249964
-1.0756122 0.53298229 2.4289153
-0.99869186 0.53483957 2.4245408
-2.2066782 0.17223272 2.6710558
-2.1896436 0.15107563 2.6634762
-2.065202 0.29228851 3.0490162
-1.3132032 0.57156074 2.5192239
-2.1310844 0.081615679 2.9002061
-1.5791306 0.071892977 3.3338666
-1.4935132 0.16052905 3.1547964
-1.495724 0.10208441 3.2600133
-1.1934173 0.412608 2.5385969
-1.1740733 0.34622014 2.7392426
-0.70161742 0.61823231 2.2345729
-1.0547501 0.37757882 2.6827683
-0.850317 0.51482409 2.4185853
-0.76955926 0.51423961 2.4789839
-0.83932227 0.51352251 2.4054234
-0.72589272 0.30764362 2.5969574
-2.1231592 0.14629836 2.680474
-0.90337616 1.2660189 2.5288663
-0.49719182 0.46984348 2.415144
-0.4930144 0.47541094 2.4088233
-0.4464902 0.49168074 2.3919966
-2.1335206 0.11315588 2.7104032
-0.88653481 0.2072009 2.9121473
-1.4856529 0.09824951 3.2052097
-1.5353256 0.092111371 3.1746879
-2.1343083 0.075483039 2.8927059
-1.1161213 0.54627228 2.4440839
-1.1720517 0.40503922 2.6872742
-2.131232 0.10949771 2.7074335
-1.1043233 0.4060187 2.5753944
-2.165947 0.091847181 2.7452319
-2.1025615 0.15815477 2.9276767
-0.87746155 1.0234157 2.2874234
-1.0850372 0.36016572 2.7898405
-2.2082219 0.24167377 2.791388
-0.77401912 1.0315474 2.2148142
-0.82907683 0.9972856 2.2247109
-2.1257019 0.14664143 2.9051988
-2.1361456 0.081591338 2.7599235
-1.0763911 0.38515434 2.6764739
-0.61642027 0.66292816 2.2155929
-1.2840408 -0.009312042 3.4204509
-1.079816 0.15007317 3.0189295
-1.2907994 0.82808572 2.6577566
-1.9980702 0.12809926 2.7497063
-1.2095805 0.50466383 2.4534109
-2.1969345 0.30453709 2.7424791
-2.1191823 0.12750162 2.6934245
-0.96686637 1.1733917 2.1368048
-1.2059557 0.20004503 3.0548787
-0.98192203 1.1226269 2.1513994
-1.2511826 0.20680249 3.0151639
-2.1654832 0.23727421 2.8844314
-2.0277791 0.30594543 3.0786057
-0.9713757 0.63218015 2.3158386
-2.0853562 0.11099315 2.7138567
-1.5393337 0.15507159 3.1298318
-1.3316185 0.55443555 2.5582809
-2.0110462 0.30222291 3.0868595
-2.2031837 0.12669736 2.7610245
-1.4943894 0.10141832 3.2625639
-2.1612852 0.097638793 2.7312067
-1.5336676 0.15697838 3.1316419
-1.305967 0.57078046 2.5139251
-1.267488 0.59616578 2.4761503
-1.008184 0.36685911 2.6740842
-1.05046 0.98876405 2.2684
-2.2110991 0.22663091 2.811904
-1.0739741 0.33402732 2.7718761
-2.1423221 0.089031778 2.9023979
-0.97226262 0.60859424 2.2847137
-2.1638985 0.099774353 2.8120239
-2.092638 0.082379811 2.8374956
-2.1827009 0.35485572 2.8283546
-0.89306664 0.20245124 2.9250772
-0.89774519 0.96562707 2.2492571
-0.58871728 0.90420097 1.9540133
-2.2232685 0.25358796 2.7644901
-2.1338718 0.11553035 2.7081246
-2.1734426 0.10931062 2.8099477
-0.60976166 0.88996392 1.9561154
-0.83631194 0.18501478 2.9956503
-0.60407013 0.88888162 1.8778191
-2.1133995 0.10639875 2.7151744
-0.70334244 0.83961558 1.8993632
-0.6642853 0.86047649 1.8942528
-2.1390631 0.092413761 2.730541
-0.67556024 0.62879187 2.2313426
-2.151603 0.088968389 2.808507
-2.1644876 0.092317417 2.7464957
-2.130429 0.065719537 2.8540325
-2.1421711 0.083864741 2.8973939
-0.72227919 0.42834899 2.5782957
-0.66268462 0.28921533 2.8392978
-0.65530604 1.1197058 2.1070323
-2.1763954 0.12432929 2.7091222
-0.6264748 0.30837092 2.7688911
-0.420445 1.2996793 2.0196617
-0.56723893 1.1975358 2.059165
-0.61545956 1.1694542 2.0608957
-0.59878159 0.3146252 2.7847426
-2.1079586 0.0739462 2.7703629
-2.1219084 0.15776016 2.6713328
-0.76518112 1.4498857 2.1778009
-0.74313849 1.4667678 2.1810789
-0.66223115 1.526811 2.16855
-0.69273543 1.5013293 2.1664503
-0.58491975 1.4527746 2.2336347
-2.108742 0.082638204 2.8170769
-0.14696507 0.86415571 1.8644249
-2.13188 0.14303562 2.676861
-0.11869681 0.90600598 1.8872633
-0.30017364 0.8440792 1.9245307
-0.038777161 0.93815565 1.8840111
-0.23069823 1.2087532 2.0720844
-2.0738893 0.31542122 3.0086613
-2.0813236 0.19911294 3.1882684
-2.0122159 0.29631034 3.0776856
-2.0668802 0.34018078 3.0337934
-2.0724523 0.29511175 3.0456309
-2.0283587 0.28318647 3.0643609
-2.0995018 0.25656042 2.9349015
-1.6187291 0.18368013 3.1399479
-2.1048684 0.28578228 2.9648604
-2.1015863 0.24151373 2.9351394
-2.0976121 0.27612528 2.9738679
-1.3687304 0.15569724 3.1459658
-2.1655185 0.13925385 2.6787295
-1.450332 0.084732056 3.2837281
-1.4219372 0.50363797 2.5805671
-1.3941717 0.25100866 2.9900527
-2.1355419 0.12509632 2.6997838
-1.9612217 0.19861309 2.6955173
-2.1445277 0.1091812 2.7058654
-0.62893349 0.67652637 2.141561
-0.67728144 0.62886119 2.2258451
-0.56035608 0.70069283 2.1372306
-0.61573529 0.68261027 2.1366916
-2.1623197 0.12403967 2.7015085
-0.55314684 0.69152033 2.1585717
-0.88933301 1.4171859 2.3966148
-1.0690304 0.17649581 3.0247059
-2.137876 0.12453644 2.6988215
-2.1207771 0.11055008 2.7077696
-2.1374698 0.076536074 2.7826078
-0.43769383 0.62239516 2.1708479
-2.1001115 0.081832208 2.7609854
-0.54672194 1.0793841 2.1920469
-0.3511228 0.72495383 2.0501688
-2.1882277 0.19965369 2.6439893
-0.35271323 0.54519749 2.2049832
-2.1880174 0.12279709 2.7639551
-0.40541136 0.67965078 2.0654762
-2.2124245 0.198834 2.7733011
-0.77132785 0.26130846 2.8219364
-0.4240962 0.49688998 2.0929441
-2.1255009 0.12275505 2.6969006
-0.59038311 0.37549698 2.6277361
-0.37134054 0.56580049 2.1299961
-2.1513457 0.087393723 2.8099308
-2.1701159 0.23270838 2.8806159
-2.0583944 0.27540588 3.0452783
-2.115483 0.11422963 2.695092
-1.2707859 1.4510326 2.3743386
-2.1717589 0.12493291 2.7118742
-2.1556017 0.092451341 2.7363977
-1.316968 1.3927988 2.3911214
-2.0947483 0.13750555 2.7129483
-1.0314325 0.37392274 2.6225989
-2.221678 0.23758672 2.7651279
-2.1667895 0.1326382 2.6946156
-2.1755948 0.13782044 2.6785345
-1.1414851 0.12827329 3.1789589
-1.1038712 0.32677951 2.7536778
-2.2190604 0.22524495 2.7262995
-2.1989529 0.29649636 2.7446966
-2.1960301 0.13584502 2.8181527
-0.70752585 0.63557512 2.2212408
-2.0772157 0.13766508 2.7155807
-0.84056687 0.51533002 2.4097416
-0.58289444 0.77494764 2.022547
-0.95612067 0.1922521 3.0597363
-0.8455826 0.28849208 2.8235626
-1.3815706 0.16817206 3.0139444
-1.1400735 -0.03610681 2.9210458
-1.1405175 -0.048368219 2.8967662
-1.2774835 0.20050782 3.0047374
-1.2670292 0.20761602 2.9895985
-2.1379468 0.091125995 2.9023907
-1.3080122 0.65757412 2.5577469
-1.2525371 0.2491938 2.917634
-2.1789358 0.1057641 2.7342038
-1.2284101 0.14419882 3.1358154
-1.1539866 0.11905885 2.9753122
-1.0455076 0.41504431 2.6974423
-1.1745481 0.46592876 2.5832276
-1.297783 0.32224208 2.7945125
-1.1575226 0.45755893 2.5968428
-1.1937773 0.45075598 2.6104577
-2.1742382 0.12334116 2.7121205
-1.2053223 0.1993978 3.0626442
-1.1759948 0.31989941 2.8416262
-1.4719781 0.88160062 2.2234795
-0.90289122 0.46002805 2.5858834
-2.1737335 0.11617489 2.7316089
-1.064678 0.22887582 2.9778428
-1.1507882 0.37883443 2.5192552
-0.98007107 0.61491734 2.2528327
-0.96009606 0.61851859 2.2667885
-0.69568884 0.14283924 2.8364625
-2.1260266 0.09789288 2.7354918
-0.28634986 0.7386536 2.0309253
-2.2137272 0.15714903 2.7542539
-0.39023894 0.70759815 2.0555227
-2.16997 0.14193283 2.6808412
-2.1887877 0.20236239 2.6989067
-0.65136635 0.30680445 2.7743344
-0.70034856 0.31085905 2.6517096
-0.60139519 1.1574125 2.1099606
-2.2120202 0.23447579 2.7310176
-0.13955517 0.91616547 1.8904027
-0.13177846 0.91258341 1.8882878
-2.2102418 0.12224235 2.7580976
-0.42923597 1.2057607 2.1004171
-2.1361732 0.097883388 2.9073269
-2.1508055 0.10050794 2.7345154
-0.28209129 1.2804695 2.0826683
-1.5927095 0.067012183 3.3401344
-2.0030191 0.260721 3.0076139
-1.1943353 0.42978591 2.5444529
-1.2004987 0.44039631 2.4749177
-1.1464002 0.49650362 2.4395092
-1.1267399 0.23423792 3.0072458
-1.1150728 0.41745022 2.5335777
-1.394186 0.92738402 2.2198734
-1.0551558 0.23806089 2.9811194
-1.0038567 0.22133069 3.0525794
-0.83396423 -0.037715372 2.8595703
-0.97139764 0.65058649 2.2591221
-0.98955172 0.232187 2.9101961
-0.97762126 0.65247285 2.2747962
-0.94471037 0.19705072 2.9565401
-1.3244148 0.086380452 3.2687943
-1.319595 0.14164035 3.1342037
-0.53670627 0.34545812 2.6573184
-0.53347611 1.0141455 2.1419728
-0.7648958 1.4492912 2.1789975
-0.71779925 1.4783592 2.1725447
-0.79826772 1.0192236 2.2471743
-2.171191 0.13933575 2.6756134
-0.58127046 1.4614708 2.2281582
-0.58272481 1.4596807 2.2319443
-0.57705998 1.4625301 2.2311685
-0.57990593 1.4436113 2.2422943
-2.1854904 0.12790886 2.7317252
-2.2164602 0.23033981 2.7910745
-2.214287 0.19494832 2.7676024
-0.54813617 1.3012843 2.3171124
-2.166028 0.14859034 2.6792181
-2.2197964 0.18582295 2.7505293
-0.72052979 1.1813471 2.2926464
-1.5456327 0.15471882 3.1281981
-1.5208935 0.24626859 3.0340664
-1.4506561 0.19776711 3.1124244
-1.5055094 0.24960956 3.0344648
-1.3795758 0.14813949 3.1779094
-1.4448494 0.13394752 3.1238019
-1.4076052 0.14445572 3.1236229
-1.2729028 0.070284836 3.1602695
-1.3704106 0.17479762 3.0475256
-1.3499426 0.25410372 2.9669721
-1.2994128 0.5692181 2.5033302
-1.2771305 0.29197592 2.8885069
-1.1635108 0.10645592 2.9780996
-1.2589824 0.090706557 3.3086345
-0.99135804 1.1120086 2.155061
-0.89063084 1.1554511 2.1449933
-1.2814335 1.425331 2.3887615
-0.70924902 0.14881773 2.8321631
-0.70658135 0.15812747 2.8339036
-0.60336792 0.1811763 2.8472462
-0.70613521 0.62864339 2.2528062
-0.91897655 0.95966244 2.2508128
-0.80088848 1.1122242 1.9307274
-0.80525512 1.1257007 1.9368647
-0.81975752 1.1484455 1.9793187
-2.1100225 0.11715926 2.6990294
-0.63092566 0.30836526 2.7738302
-2.1651278 0.40417635 2.728461
-2.1972549 0.30109015 2.7457817
-0.72449756 1.4770335 2.175061
-0.59892297 1.1957377 2.291677
-0.54893881 1.1592159 2.0993855
-0.68693054 1.3074983 2.1765912
-0.79618812 1.16134 1.9704547
-1.3404884 0.3626112 2.7495658
-1.2349871 0.16228697 3.1434784
-1.0897993 0.14946754 3.002552
-1.2860464 0.57480931 2.4644842
-1.1121222 0.34295088 2.7509885
-1.1862178 0.23679197 2.9289312
-1.2892079 1.0663333 2.1331913
-1.0882026 0.20726199 3.0313213
-1.0387955 0.23455048 2.9880474
-0.9133755 0.4831166 2.6664186
-1.235073 0.38334492 2.7633328
-2.0605469 0.28563157 3.0202091
-0.96205074 0.28761059 2.822295
-0.79918551 1.1899991 1.985196
-0.82522237 1.0041487 2.2156844
-0.67927736 1.3638785 2.2490799
-0.63169479 1.3785933 2.272258
-1.2305638 0.12817201 3.1454222
-1.0819416 0.2142355 2.9511278
-1.272917 1.0763377 2.1449835
-1.2673285 0.30016899 2.8795598
-1.3603244 0.041672405 3.237565
-1.284416 0.053843528 3.1286957
-1.2666388 -0.013450171 3.4238961
-0.99666774 0.37279183 2.6693683
-0.99105054 0.30042812 2.8019416
-0.83277339 0.24500336 2.8499005
-1.0008727 0.27788696 2.8166342
-1.2741952 1.0730318 2.1591499
-0.84239519 0.41364455 2.5595267
-0.50614458 0.54570299 2.3603103
-1.0667738 0.22006804 2.9596496
-1.3162177 0.066557519 3.0891802
-1.1406337 0.10329928 2.9868541
-0.60129386 0.60782856 2.224369
-0.44006756 1.2960483 2.4641891
-0.47020143 0.40393877 2.6253309
-0.77658844 1.0363743 2.2066691
-1.3043184 1.1344326 2.1497412
-2.1961327 0.19501987 2.640521
-0.59720236 0.89448714 1.9464439
-0.6263234 0.87684625 1.8700507
-1.3101368 1.4164484 2.3798208
-0.96550637 0.56836385 2.3923712
-2.1487701 0.067543574 2.8420725
-1.2668182 1.0881097 2.1415517
-1.1579689 0.17817064 3.0751193
-1.3854837 0.5263288 2.5418346
-0.76156026 0.83006805 2.022069
-1.264571 1.0847846 2.1233158
-2.140058 0.072874673 2.8659141
-0.46723554 1.1228013 2.0312531
-1.3537812 0.55215406 2.6053948
-1.2887557 1.165416 2.1696589
-1.1207919 0.24386679 3.0094774
-0.63906348 0.6391741 2.2110462
-1.2180647 0.48801592 2.4862769
-1.0056736 0.36020324 2.6725771
-0.50650495 1.1012803 2.0386527
-0.87926394 1.0826993 2.3324339
-1.3022125 1.2000531 2.2079413
-2.0816317 0.079402693 2.8104417
-0.75447059 1.167486 2.3093705
-1.4582983 0.17528422 3.0886934
-2.1333623 0.077098466 2.8923476
-1.5175018 0.17414607 3.0927558
-2.1583023 0.10961784 2.7151256
-0.64957952 0.92864305 2.0166082
-1.202237 1.3487144 2.2381763
-2.1322181 0.076634951 2.8942037
