# .PCD v0.7 - Point Cloud Data file format
VERSION 0.7
FIELDS x y z
SIZE 4 4 4
TYPE F F F
COUNT 1 1 1
WIDTH 532
HEIGHT 1
VIEWPOINT 0 0 0 1 0 0 0
POINTS 532
DATA ascii
-0.97387981 0.40027902 2.5713685
-1.0715038 0.1340683 3.0916419
-0.99598831 0.2930502 2.7824731
-0.84558934 -0.39569533 3.4107265
-0.85856849 -0.39411956 3.4046178
-0.79085952 0.12281162 3.1256278
-0.84417236 -0.47040552 3.3677437
-0.83320946 -0.43824896 3.3674867
-0.80740768 0.30008492 2.7026515
-0.82048213 -0.46061397 3.3027163
-0.80639833 -0.35550553 3.3442881
-1.0838844 0.31783676 2.7431245
-0.72164345 0.20382872 2.8527291
-0.9797681 0.034163121 3.3222089
-0.89794296 -0.50201422 3.4811878
-1.1335218 0.095425248 3.235158
-1.373324 -0.024332456 3.4626014
-1.3747704 -0.02707888 3.4626596
-1.0577614 0.026484886 3.2763548
-1.190521 0.10530141 3.2140961
-1.0345099 0.065982737 3.2336783
-0.91950828 0.52380633 2.2656646
-0.98077101 0.036159351 3.3234127
-1.223428 0.39386237 2.6277907
-0.55437511 0.67016298 1.9613053
-0.37022346 0.57034844 1.8851424
-0.62962055 0.7333343 1.8421748
-0.96154791 0.38838494 2.5670288
-0.99077815 0.37754023 2.5909877
-0.91468227 -0.49701303 3.5233459
-1.1755698 -0.10354865 3.5366294
-1.134002 -0.11603297 3.6584616
-1.4167246 -0.0068074334 3.4134538
-0.96887463 -0.35217729 3.1740875
-0.96983123 -0.35243213 3.1740482
-1.1147896 -0.035263591 3.4707563
-1.1347805 -0.11733497 3.6589563
-1.0953567 -0.11572907 3.652482
-1.0940168 -0.11478976 3.6539719
-1.0363235 0.069054633 3.2716827
-1.0413425 0.065331437 3.2721295
-1.4330015 -0.02031124 3.5816543
-1.6013232 0.057862286 3.5246232
-0.89991415 0.20177239 2.9257772
-1.0358913 0.30071697 2.7315817
-1.0127681 0.31808752 2.7108929
-0.81116486 0.2890451 2.6923983
-1.0045695 -0.30944899 3.5225554
-0.96326047 -0.30255502 3.5125022
-0.88573056 -0.42700922 3.4803097
-0.88881886 -0.42748001 3.4810107
-1.0317054 -0.16155882 3.7516217
-1.1341624 -0.11488105 3.4990239
-0.92317259 -0.45975843 3.5557885
-1.1556405 -0.10132892 3.5754645
-1.4054631 -0.025936678 3.4410248
-0.9581942 0.18249081 2.96364
-0.49234679 0.2555528 4.1597457
-0.8391003 -0.49439535 3.6573462
-1.1525947 -0.071749978 3.5527534
-0.90752959 -0.49250835 3.4949722
-0.92124921 0.31150088 2.6376493
-0.72231472 0.26113719 2.7403152
-1.0675756 -0.17295252 3.6186683
-0.97795111 -0.31197932 3.5283732
-0.9363113 -0.39698887 3.6468403
-0.96526897 -0.14831303 3.5756638
-1.0185169 -0.32237098 3.5612271
-0.99139065 -0.079372853 3.2712348
-1.0671281 -0.17832592 3.619781
-0.85961092 0.15690725 3.9629943
-0.85025364 0.17949632 3.9742875
-1.1912563 0.10134581 3.2250898
-1.3410257 0.74049288 3.4599857
-1.2876964 0.68635613 3.4802253
-1.0248528 -0.062615409 3.6569653
-1.4068472 -0.026216311 3.6057279
-1.602548 0.02244802 3.5138705
-0.90002275 0.19931214 2.8980062
-0.77504623 0.33441508 2.5920107
-0.76034492 0.23927474 2.7564175
-1.0199877 -0.30477351 3.5320477
-1.1331829 -0.11834335 3.6582227
-1.0474464 -0.14205258 3.7027419
-0.92483914 -0.45616406 3.5655408
-1.0381525 -0.10909756 3.7315006
-1.4132938 -0.032544672 3.5915427
-0.38938221 0.58193493 2.1075237
-1.4361815 0.0020454554 3.4463851
-1.404942 -0.021406434 3.604249
-1.4332761 -0.0097865574 3.5931826
-1.2329181 -0.072497398 3.5914054
-0.97216719 0.044805899 3.3173199
-1.0341232 0.077758357 3.1731403
-1.0193256 0.098031826 3.1535842
-1.4412627 -0.00596422 3.4334707
-0.54607421 -0.29220265 3.9166081
-0.86537534 0.15045764 3.9652488
-1.1673261 -0.099340484 3.6928527
-0.91089016 -0.34206083 3.7265956
-1.0004127 0.10662559 3.1063437
-0.85438073 0.17754124 3.9752805
-0.9985199 0.076003872 3.1394348
-0.54139662 -0.20031896 3.9494712
-0.54345495 -0.20279191 3.9484563
-1.0571759 0.1513274 3.0638187
-0.54213166 -0.20248556 3.9484131
-0.94413149 -0.45235136 3.531914
-0.9562251 0.10321955 3.0957377
-0.83499265 -0.24104667 3.7762182
-0.77205402 -0.30311897 3.7770584
-0.85433179 -0.44789565 3.3975148
-0.96031481 -0.18489346 3.7812047
-1.0507059 -0.10409863 3.6072135
-0.822451 -0.39850962 3.3416045
-1.2011628 -0.087906457 3.5072978
-0.96789205 -0.35334307 3.1740263
-1.0769842 -0.11221749 3.6426399
-1.0344079 -0.16120215 3.7504702
-0.83632165 -0.43685505 3.3655357
-0.82654303 -0.46375117 3.3024569
-1.0930902 -0.14111511 3.7246134
-0.92632216 -0.50179195 3.5370457
-0.89887792 -0.50118077 3.4796736
-0.95411247 0.26124078 3.9658232
-0.90835494 -0.50417405 3.4850569
-1.3425411 0.74741083 3.4578407
-1.4032942 -0.034483101 3.5966763
-0.89748299 -0.53712833 3.436043
-1.0591716 -0.23791936 3.665369
-0.90224081 -0.29238433 3.4864247
-0.93097174 -0.49490571 3.5485198
-0.89884621 -0.29337695 3.4834332
-1.0688994 0.3138749 2.7462828
-1.0935236 -0.13940737 3.7221951
-1.0049113 0.35162485 2.5274858
-0.73300433 0.18104535 2.8980217
-0.93742353 0.34649664 2.550112
-0.93507975 -0.39492744 3.6461201
-0.91863447 0.33421013 2.5268443
-1.2206752 -0.051345088 3.5567956
-1.1967562 -0.077836111 3.6769528
-0.6316191 0.50523132 2.2542396
-1.0272019 -0.32204837 3.5671229
-0.94556445 -0.45566276 3.5405247
-0.84563148 -0.47009844 3.367548
-0.88464063 -0.12291808 3.6439228
-1.1306331 -0.11678813 3.6586738
-1.431167 -0.013746957 3.5920722
-0.91896814 -0.47615588 3.5378504
-1.0858237 0.31937885 2.7633111
-0.97040945 0.39425451 2.5714574
-0.68347204 0.38313597 2.4602499
-1.1234972 -0.11418185 3.5923886
-0.71903485 0.56305677 2.1016672
-1.4074425 -0.025170911 3.6044576
-0.46065566 0.54362667 2.2132087
-0.40391833 0.54892582 1.921001
-0.99001217 -0.19542551 3.6176481
-1.1149614 -0.11388186 3.6526349
-1.4230142 -0.020934951 3.4792063
-0.9289434 -0.45514169 3.5712738
-1.0472879 -0.13982783 3.7038612
-1.0460614 -0.1399796 3.7031231
-0.85941768 -0.23161529 3.7942083
-0.86741519 -0.22029597 3.7953987
-1.3947028 -0.017457057 3.422508
-0.7884171 -0.10902731 3.8642995
-0.93314618 -0.18090877 3.7569225
-0.94163084 -0.28067073 3.2134502
-0.94748503 -0.17498825 3.780292
-0.86333847 -0.18836717 3.8050482
-0.93506527 -0.51039934 3.5322232
-0.80783242 -0.3663905 3.3470087
-1.2341169 -0.063006535 3.5718577
-1.1940447 -0.069044389 3.6848731
-1.1206882 0.078864001 3.2129133
-0.93129766 -0.31027609 3.5170219
-1.1565335 -0.13352238 3.5774784
-0.99907386 -0.12341612 3.7721436
-0.88701332 0.072636388 3.9051318
-0.85766178 0.13967244 3.9591126
-1.0549433 0.081889786 3.1650114
-1.1498696 -0.10334896 3.5011146
-0.87618256 -0.11812001 3.6423912
-1.0067291 -0.071333796 3.3072991
-1.0882703 -0.14730212 3.6181571
-0.78030598 -0.089248791 3.8820496
-1.0331477 0.053938229 3.3095706
-0.90273696 -0.54955173 3.4453635
-1.0517114 0.16612554 3.041333
-0.98728466 0.20410958 3.0007629
-0.90473801 -0.28858387 3.5025291
-0.75688076 -0.27719778 3.7810886
-1.0527544 -0.32174572 3.5473764
-0.11884438 0.26961794 4.3071079
-0.8791616 -0.55656499 3.6326191
-0.87588322 -0.2950353 3.758709
-1.4010864 -0.034920022 3.5973616
-1.0357429 -0.29938447 3.6008041
-0.46277443 0.54192114 2.1896636
-0.58496284 0.69404924 1.839026
-0.50653076 0.26829463 2.4921846
-0.33003062 0.7843616 1.7279986
-0.81490892 0.17646962 2.9973052
-1.2001119 -0.065976016 3.6824691
-0.8253873 0.22273141 2.9296334
-0.19245666 -0.27176413 3.7782404
-0.94935262 0.34376648 2.6828797
-0.91690993 0.24008343 2.8706825
-0.7383374 0.20836 2.9182801
-0.81869072 0.29720795 2.7092261
-1.4020181 -0.018708412 3.4351335
-0.81541353 0.30165878 2.759218
-0.81987119 0.29432872 2.7637594
-1.0679129 -0.12035782 3.7217014
-0.76988858 0.33995146 2.544508
-0.83582544 0.33830228 2.6118898
-0.76055211 0.35296652 2.5777106
0.13345699 -0.42395261 3.6330104
-0.56430823 0.38203636 2.5230858
-0.6126911 0.45762634 2.389842
-0.87867165 0.11221001 2.7880647
-0.64701128 0.31031528 2.5541739
-0.59054643 0.33763382 2.5308363
-0.53330302 0.32713637 2.5469353
-0.51287603 0.33903241 2.5370209
-0.35207841 0.47927999 2.3919199
-1.4087847 -0.018699592 3.6078179
-0.30594119 0.48779657 2.3646476
-1.128672 -0.12530386 3.5390098
-0.72900003 -0.51142919 3.5864489
-0.88492948 0.028825911 3.8837812
-0.85611326 0.17346977 3.9744728
-0.90156865 -0.6439777 3.5916901
-1.0616137 0.14221227 3.0883975
-0.93993068 -0.54192984 3.5270634
-0.87254167 -0.2545642 3.7782216
-0.89933765 -0.13626522 3.6550722
-1.1565529 -0.068779983 3.6260087
-0.74837887 -0.065895773 3.1741083
-0.33890313 -0.30951762 3.91976
-0.84072059 0.01354465 3.2834554
-1.1395478 0.059067603 3.2293763
-0.996611 -0.19097358 3.6646106
-0.99432963 -0.060428187 3.3045328
-0.75450414 -0.20008834 3.8095362
-0.98420686 -0.15149985 3.7694173
-0.95734376 -0.1843338 3.7816675
-0.92939293 -0.50411576 3.5368786
-0.52618945 -0.218346 3.922965
-1.1014971 0.093311451 3.1535656
-0.83027858 -0.37268877 3.382586
-0.83672696 -0.45259595 3.3264549
-0.83991915 -0.4452233 3.3970349
-1.0448079 -0.24193767 3.6313384
-0.88235766 -0.42585024 3.4729586
-1.0861686 0.080905877 3.2211728
-0.76914418 -0.076222487 3.8766119
-0.78238475 -0.10071684 3.864712
-1.0082952 0.06084777 3.2333417
-0.89534986 -0.33702046 3.7233822
-1.0100245 -0.14530987 3.7611425
-0.92203373 -0.54240572 3.464344
-0.51589108 0.34376743 4.1976004
-0.90691417 0.34961241 2.5166206
-0.90862441 0.19550392 2.903934
-0.95779431 -0.61801511 3.5454128
-1.0140744 -0.31817597 3.5586591
-1.0272244 -0.32477999 3.5624027
-0.8914355 -0.34147444 3.7152853
-0.9259063 -0.54776245 3.441174
-0.64805025 0.71725392 1.827196
-1.0172127 -0.15456592 3.7531874
-0.21503831 0.95630074 1.5179529
-0.93213964 -0.61376125 3.5806775
-0.3142758 0.44228891 2.3901269
-0.90229619 -0.33818945 3.7244711
-1.1947857 -0.061239012 3.6840646
-0.52656221 0.70991921 1.8356619
-0.2136834 0.45992455 2.2637906
-0.98620611 -0.063396141 3.3059542
-0.98701024 -0.081381671 3.306566
-1.089599 0.036967114 3.2457383
-1.0383834 0.12242785 3.1887
-1.0867573 0.062411223 3.2252707
-1.0748249 0.07766097 3.1946757
-0.86541778 0.15785193 3.96486
-1.0366892 0.06284488 3.2705524
-1.1316706 0.17851713 3.0946455
-1.1300467 0.18583776 3.0820193
-1.4170387 -0.019516442 3.4336696
-1.0697582 0.14081892 3.0785291
-1.0000776 -0.011509311 3.2807856
-1.4373147 0.00061679131 3.467494
-1.3474572 0.72190046 3.4682949
-1.4395053 -0.023428882 3.598068
-0.93242007 0.064482354 3.1960263
-0.38044444 -0.32351074 3.8767674
-0.78243536 0.019518176 3.2364707
-0.8049444 0.33584446 4.0452499
-0.97724438 0.087860152 3.1521361
-0.96310383 0.24781263 2.9333985
-0.9907065 0.079421669 3.1232412
-0.25902641 -0.22593193 3.7685859
-0.78305095 -0.50869018 3.6351373
-0.050972499 -0.2909506 3.7350039
-0.81068337 -0.41035146 3.3238723
-0.89724797 0.15527119 3.0135887
-0.73034316 -0.046371877 3.1620874
-0.91794336 0.29646975 2.8263302
-0.72032493 0.026553899 3.1958382
-0.94050837 -0.56285465 3.513829
-0.81329548 0.13369015 3.0354824
-0.85883707 0.19961111 2.9149866
-1.0042951 0.33777836 2.6244307
-0.84541309 0.29668015 2.7035248
-0.80131388 0.32424647 2.73018
-0.91003472 -0.29578444 3.4991663
-0.79840171 0.042239439 3.2513499
-0.99433953 0.17272402 2.9844477
-1.0060222 0.057584651 3.1736705
-0.75925165 -0.032333586 3.2049894
-0.88016903 0.10178977 3.1472979
-0.77163297 0.039846528 3.2741263
-0.93442953 0.15751645 2.9995008
-0.9502604 0.10112321 3.0899646
-0.25364903 -0.29145396 3.7017908
-0.31380686 -0.24374472 3.768584
-0.27072164 -0.28867996 3.690764
-0.27005956 -0.28558907 3.6931586
-0.25653553 -0.27617326 3.7170458
-0.29452688 -0.23626985 3.7720094
-0.89189821 -0.57878083 3.6193819
-0.86522955 0.12347881 3.0549147
-0.97334546 0.30985814 2.7806003
-0.73647964 -0.054831464 3.1666746
-0.23673843 -0.23735417 3.7570834
-0.56259078 -0.17757361 3.9612472
-1.0314535 0.043754641 3.3232126
-1.0139107 0.15335159 3.1402314
-0.78013617 -0.28721946 3.7855885
-0.13574685 -0.30346891 3.7013273
-1.4101617 0.005566881 3.4065869
-0.85829967 0.20879152 2.8931708
-1.1682039 -0.068136685 3.6997039
-0.77619165 0.16002557 2.9474261
-0.70028204 0.59754485 2.2290819
-0.77394319 0.13914551 2.9454372
-0.78449589 0.12769169 3.0167263
-0.92061949 0.30229026 2.6455996
-0.79888976 0.33111292 2.5718846
-0.81903309 0.29611063 2.7167931
-0.88519073 -0.46832165 3.4434304
-1.0303007 -0.32411438 3.5673401
-0.14689648 0.26337278 4.3648267
-0.55442905 0.28767425 2.6883845
-0.1541447 0.229297 4.3426914
-0.24584077 0.17896418 4.2933912
-0.020600785 0.32136554 4.3446989
-0.51636112 0.34628522 2.5282788
-0.69085526 0.60943699 2.1272216
-0.76901919 0.51023895 2.2428999
-0.89956051 -0.32396621 3.726522
-0.54484147 0.60909468 2.0443909
-0.62981093 0.5040676 2.2452567
-0.5521341 0.6002816 2.0555801
-0.56489462 0.66370463 1.9370911
-0.47816256 0.28805009 2.4639487
-0.9562397 0.16580726 3.0679221
-1.0218405 0.20777464 3.0186896
-0.97307456 0.1459294 3.0779731
-0.8237825 0.029409809 3.2736549
-1.3504767 0.73236805 3.4620984
-0.99292481 0.080439404 3.1680899
-1.330333 0.77954406 3.4970756
-0.7571184 0.045450989 3.240133
-0.76876104 0.046235483 3.2730606
-1.0097824 0.17885798 2.9493427
-0.96445066 0.096101418 3.0986602
-0.92294866 0.13383558 3.0631623
-0.94165623 0.25273967 2.8834655
-0.88630968 0.18916948 3.0145743
-0.87469769 0.11036022 3.069171
-0.96184367 0.24400608 2.8705611
-0.9747262 0.23748544 2.8726299
-0.74124157 0.20564491 2.9252844
-0.90681052 0.33613703 2.6885345
0.15501088 -0.33984426 3.6908252
-0.80504036 0.32317474 2.7287512
-0.73681563 0.2993581 2.7677119
-1.0174716 0.29971913 2.5519304
-0.75294226 0.35606724 2.5338142
-0.19546722 -0.2162383 3.586385
0.11709795 -0.24338508 3.7313247
-0.79688478 0.26231587 2.6995366
-0.75133348 0.30574909 2.6561
-0.77681428 0.34282005 2.6228952
-0.73263747 0.23987581 2.750741
0.25857449 -0.27607447 3.6243095
-1.1095617 -0.27528521 3.5941153
-0.54222131 0.28464809 2.4546597
-0.55818868 0.274784 2.4708171
-0.52526361 0.32549879 2.4543529
0.36416423 -0.13684793 3.4312592
0.38216087 -0.12851898 3.4283347
0.36448818 -0.12114873 3.4538782
0.40149382 -0.11313663 3.4393902
0.19440942 -0.18899883 3.5092525
0.1357356 0.32118782 4.0890322
-1.1263055 -0.10396435 3.4976156
-0.72721279 -0.14144796 3.8622134
-0.57517427 -0.28460655 3.9060879
-0.91399539 -0.42416272 3.668757
-0.70598966 0.22180861 2.8362923
-0.92333513 0.29017633 2.6570239
-0.54125017 0.37131426 2.4915752
-0.5608381 0.41290182 2.4175663
-1.0310699 -0.15875776 3.7494988
-1.071816 0.15176044 3.0738127
-0.9585492 0.51349562 2.4541636
-1.1098598 0.069481283 3.2245095
-0.53767145 0.044445269 4.0645771
-0.80130762 0.017156444 3.2570958
-0.39930359 -0.31931812 3.6907239
-0.2707381 0.29777569 4.2440333
-0.7729829 0.33469537 2.5767303
-0.16882135 -0.27921265 3.6336982
-0.82325602 -0.39810336 3.3428686
-0.79311919 0.20032762 2.801868
-0.93263334 -0.54202926 3.5213685
-1.0069035 -0.28112903 3.588192
-0.53720695 0.34316784 2.5879941
0.24438667 -0.27910525 3.6248233
0.34376583 -0.24783514 3.6133654
-0.94230133 -0.5542444 3.5311096
0.18004462 -0.20337906 3.6487005
-0.11343585 -0.27385002 3.6753252
-0.77750474 -0.50575048 3.6378846
-0.33853522 0.42370564 2.3960626
-0.52634555 0.65068549 1.9658967
-0.56676131 0.64677083 1.9218522
-0.41052461 0.56706208 2.114064
-0.41038942 0.5470196 1.9252177
-0.39486474 0.59642684 1.954079
-0.41877487 0.35012877 2.4026558
-0.97292626 0.24762256 3.9702578
-0.17683797 -0.30594301 3.6861057
-1.0470395 0.099401236 3.0709491
-0.96485722 0.25758296 2.8640053
-0.12970951 -0.21411152 3.6407282
-1.1672517 -0.096272931 3.6901698
-0.90149409 0.0018028775 3.2546432
-0.75101334 -0.027654853 3.2027752
-0.89687896 -0.3376514 3.7232938
-0.75025398 0.0072378838 3.2216175
-0.88490802 0.12962648 3.150214
-0.92692459 -0.54930741 3.5075574
-0.32130206 -0.30872351 3.9209034
-0.96136242 0.10591593 3.1397185
-0.76440519 0.00027774653 3.2362735
-0.75181234 0.055963073 3.2611411
-0.8462832 -0.43910229 3.4011354
-0.92990446 0.16510068 2.9923751
-1.0378848 0.35728601 2.7681594
-1.1666597 -0.075648084 3.6989598
-1.0881714 0.33296791 2.7606454
-1.1266568 -0.075759634 3.4925456
-0.36295673 -0.27648181 3.859827
-0.81912929 0.010286342 3.2647398
-0.86548102 0.1093438 3.1286604
-0.86317188 0.10251858 3.1381814
-0.90169787 0.16671231 2.9788268
-0.97473538 -0.13225757 3.6679275
-1.0130609 -0.23183174 3.6013646
-0.91557848 -0.47461548 3.5366821
-0.9580195 0.19506124 2.9108384
-0.89941412 0.16237566 2.9512923
-0.88163656 0.34028259 2.7892654
-0.17868972 -0.31765997 3.7762499
-0.85994768 0.083910726 3.0808625
-0.19833578 -0.24171209 3.7749603
-0.21019183 -0.34134957 3.7389889
-0.72718328 0.19053763 2.8898323
-0.20462243 -0.30739781 3.7087004
-0.80588758 -0.35723856 3.7106116
-0.97455329 -0.12702917 3.669122
-0.81649512 -0.4110136 3.3264234
-0.90467864 -0.2852006 3.1808715
-0.97129494 -0.12973377 3.6653283
-1.1973516 0.10160899 3.2334273
-0.64893514 -0.2296502 3.7776258
-0.86419463 -0.10602503 3.5870821
-1.1411409 0.054046281 3.23404
-0.8233211 -0.43860114 3.3159785
-1.1541677 -0.12435318 3.5820947
-0.83909965 -0.4121615 3.3759561
-0.81518918 -0.40907341 3.3255856
-0.89538294 -0.60567838 3.6073954
-0.72140354 0.25268483 2.7374566
-0.62121344 0.52171844 2.2285476
-0.38079423 0.56393093 2.1380742
-1.1956617 0.1017146 3.2318563
-0.97392327 0.39470342 2.548696
-1.4450485 0.0022790723 3.4678574
-1.3745518 -0.026994461 3.4620497
-1.1092107 -0.11360631 3.581887
-0.95135951 0.48767442 2.3965087
-1.1838939 -0.11232641 3.5383728
-1.1662961 -0.094058745 3.6940267
-1.2073696 -0.10060614 3.5128345
-1.3844179 -0.022769082 3.4819841
-1.1259093 -0.11898683 3.538758
-0.26841167 0.4798162 2.3321602
-0.70410222 0.47074375 2.2839978
-0.27859986 0.53087443 2.0941746
-1.182202 -0.09744186 3.5052125
-0.7703945 0.14679389 3.0064173
-0.93915397 -0.43567809 3.6510839
-0.80458468 0.32397795 2.578074
-1.1928629 -0.078160167 3.5053654
-0.94350952 -0.18548487 3.7145901
-1.1012897 -0.10860168 3.5577085
-1.1355908 -0.11423554 3.52442
-1.0923384 0.10496654 3.148035
-1.073911 0.070128635 3.2191811
-0.82280451 -0.37821323 3.3667231
-1.1491194 -0.12578638 3.5264587
-0.38914534 0.44691104 2.2077641
-0.9272716 0.23060164 2.932723
-0.98101717 0.1529627 3.0333316
-0.80157429 -0.23510513 3.7963231
