# .PCD v0.7 - Point Cloud Data file format
VERSION 0.7
FIELDS x y z
SIZE 4 4 4
TYPE F F F
COUNT 1 1 1
WIDTH 419
HEIGHT 1
VIEWPOINT 0 0 0 1 0 0 0
POINTS 419
DATA ascii
-1.0192682 0.34173581 2.89624
-1.0102437 0.22932771 3.105608
-0.74559569 -0.43614465 3.6329021
-0.77645254 -0.49518424 3.7606547
-0.75244135 -0.4639872 3.6925876
-0.74433947 -0.47635731 3.6512218
-0.76613414 -0.46291122 3.6881597
-0.75678813 0.062200047 3.4164824
-0.74262464 -0.47533137 3.653492
-1.0084842 0.24370922 3.0668263
-0.84740788 0.23869334 3.0261681
-0.84968269 0.25918677 3.0382745
-0.80550545 -0.57310086 3.8189192
-0.72361887 -0.4206337 3.6229103
-0.86838371 0.24056104 3.0123875
-1.1033579 0.25067002 3.077992
-0.9157449 -0.039340962 3.6323788
-0.79083866 -0.57409167 3.7661543
-0.90760273 0.33409122 2.8667481
-1.0816863 0.016240258 3.5664599
-0.696711 0.16346401 3.1032264
-1.0431867 0.94053644 2.1097713
-1.0464154 0.93363482 2.1215041
-0.80888647 -0.57779258 3.8138862
-1.0166833 0.53192782 2.5278816
-1.0225093 0.018014567 3.533946
-0.71944177 0.45301521 2.6257238
-0.75145972 -0.47853982 3.65815
-0.98227322 -0.037337426 3.5763636
-1.0087467 0.47387597 2.5894854
-1.4978637 0.0065139928 3.6427491
-0.96796203 -0.031448584 3.6323669
-0.94545841 0.28050718 2.9640815
-1.0409397 -0.1743115 4.0272932
-1.0280906 -0.11813687 3.7945111
-1.330487 -0.12067276 3.9439459
-1.5079168 -0.049506728 3.9100354
-1.0961783 1.0009151 2.1493547
-1.05644 0.23610315 3.0602105
-0.76187259 -0.58140886 3.9379668
-1.0498803 0.92628759 2.1178186
-0.94334358 0.22348565 3.039449
-0.86068875 -0.37866014 3.8104081
-0.78221607 -0.49858585 3.765732
-0.90142995 -0.24917747 4.0616736
-0.33891517 0.18814838 4.4092813
-1.0537812 -0.15804008 3.8795509
-0.87286407 -0.38909543 3.8277111
-0.81310594 -0.47439173 3.9379313
-0.75529373 -0.17926143 3.8826823
-0.81907755 -0.59618109 3.8205924
-0.79841644 -0.57232171 3.7677882
-1.2307914 0.59404337 3.8438373
-0.91466987 -0.14491114 3.9675121
-0.88230652 0.07504651 3.3303876
-0.73440731 -0.30276382 4.0793824
-0.84432805 0.30408198 2.9010398
-0.92782938 -0.2262473 4.0136371
-0.91654152 -0.1934732 4.0418844
-0.50541306 0.56048924 2.3690891
-1.2998272 -0.12088039 3.962893
-1.3298066 -0.11040839 3.9556901
-1.1285903 -0.1634112 3.9277287
-0.39760676 -0.35652509 4.1604342
-0.72802985 0.069275551 4.2593365
-1.0498112 -0.18912947 4.0196357
-0.78051102 -0.41993314 4.0153656
-0.38874063 -0.3556869 4.1439452
-0.78024942 -0.49638858 3.7587433
-0.73792881 -0.46429366 3.6211004
-0.67849398 -0.43298593 3.9860561
-0.96588784 -0.19665134 3.9584055
-0.90813833 -0.24571162 4.0588927
-0.74699289 -0.50373465 3.6455486
-1.0481951 -0.17850648 4.0271549
-1.0770379 -0.0028459106 3.5473309
-0.80388379 -0.36505634 3.7773173
-0.80084413 -0.3658247 3.7739074
-1.053269 0.29254922 2.8552463
-0.86970913 0.25676787 2.9998815
-0.81206697 -0.47225961 3.937119
-0.96703881 0.27929944 2.8435774
-1.1216874 -0.14100219 3.8924396
-1.1347616 -0.19794329 3.9495695
-0.83279079 -0.5312807 3.8320661
-0.45943144 0.5992347 2.3329608
-1.3276751 -0.11424009 3.954227
-0.80583465 -0.55041945 3.8256195
-1.1028525 0.25170928 3.0982974
-1.0155458 0.33588368 2.8957465
-0.74436265 0.34075794 2.7499392
-1.1355821 -0.18993081 3.8918228
-0.80920672 -0.53439027 3.8460069
-0.87902039 -0.27508023 3.9207859
-0.60141629 0.51408118 2.315438
-0.81253386 -0.53058636 3.860548
-0.92763406 -0.22404058 4.0147858
-0.92650259 -0.22411855 4.0138988
-0.73218018 -0.33145437 4.0607505
-0.8244561 -0.26236475 4.0612512
-0.82890594 -0.26576328 4.0739942
-0.8176623 -0.25592238 4.0774622
-0.73058343 -0.26575693 4.0913563
-0.66788644 -0.22449896 4.0890813
-1.0295402 -0.20660606 3.8611159
-1.0776942 -0.19531716 3.8958199
-1.0506872 -0.18474589 3.8236756
-1.0786476 -0.15999153 4.0157819
-1.0599859 0.027307795 3.5151951
-0.81710386 -0.60760349 3.8136511
-1.0618337 0.0092903869 3.5082452
-1.0560462 -0.18842246 3.8271649
-0.9711132 -0.021891452 3.6268995
-1.0277472 0.094676785 3.3659658
-0.82112432 -0.26437861 3.917403
-0.80453795 -0.36170593 3.7936997
-0.74395198 -0.3719449 4.0441527
-0.77284968 0.56168473 2.3903491
-1.2962493 -0.13405205 3.9552362
-0.92175919 -0.38074675 3.9069848
-0.73755223 0.66851926 2.1296034
-1.0850974 -0.15716906 4.0142207
-0.065103613 -0.31639677 3.9803231
-0.84373736 0.24344406 3.0113041
-1.3179713 -0.11462851 3.7948227
-0.83803171 0.23941018 3.0654771
-0.94529212 0.22102556 2.9828086
-0.82310367 0.26911512 2.8975194
-0.83946782 0.25029853 2.8890643
-0.61841297 0.34409216 2.7976375
-0.94240004 -0.18256035 3.9827926
-0.86390561 -0.19585271 4.0814795
-0.5637694 0.30332577 2.8040395
-0.98592782 -0.24842119 4.0471473
-1.0293572 -0.21009918 3.8615918
-0.60992038 -0.57753694 3.8496227
-0.72178435 0.063686535 4.2521553
-0.71874279 0.092513397 4.2679496
-1.3193851 -0.090511166 3.7658346
-0.74004662 -0.33176288 4.0641522
-1.5246781 -0.09129215 3.9000547
-0.95549011 -0.0047453297 3.5474999
-0.8369149 -0.2201473 3.9446566
-0.78716725 -0.21241716 3.9483302
-1.0487761 -0.15674388 3.9527907
-0.70018852 -0.12519953 3.4544735
-1.4898628 0.10955445 3.970186
-0.85368097 0.059723806 3.4566107
-0.78177387 -0.052494798 3.576344
-1.0867392 -0.020239821 3.5605192
-0.65132242 -0.18301684 4.1428223
-0.63234031 -0.26070127 4.0322428
-0.82684457 -0.26575485 4.079793
-0.38043189 -0.28194511 4.1662197
-0.74628574 -0.51290035 3.6770232
-1.0358219 0.0042890394 3.546401
-0.74072051 -0.36790571 4.0423813
-0.64984655 -0.17801061 4.1489091
-0.73469591 0.15057181 4.273622
-0.76733238 -0.41465712 4.0109997
-0.71207213 0.16558772 3.1629205
-0.90422487 0.13363908 3.2128656
-0.90464759 -0.39762431 3.8620272
-0.91692287 -0.4049243 3.8671825
-0.90440768 0.11974282 4.3774991
-0.42236716 0.95460665 1.7725036
-0.77242887 -0.41561279 4.0123043
-0.708152 0.66804135 2.1773045
-1.0798335 -0.15221582 4.0152731
-0.91974795 -0.13674811 3.6145101
-0.91966015 -0.1547602 3.614749
-0.70623946 -0.28460568 4.0741749
-1.0006782 -0.23685151 4.0111914
-1.043377 -0.21323915 3.9022133
-0.4049902 -0.31017208 4.1678238
-0.40726075 -0.36552614 4.1547527
-0.42417753 -0.22627747 4.1800413
-0.7284528 0.076665692 4.2591481
-0.8903389 -0.018815104 3.614522
-1.1012543 0.1097917 3.4164493
-0.95686245 -0.32114977 3.9074922
-1.0398965 0.067789085 3.4044249
-0.84786737 -0.23113941 3.9495828
-1.3498272 -0.097672366 3.831758
-1.2931074 0.62692124 3.8402522
-1.3347635 -0.12442911 3.9609468
-0.8857832 -0.0042470172 3.5021718
-0.93669897 0.017841261 3.4647317
-0.37867415 0.16788568 4.4149694
-0.93388462 0.034728318 3.4095016
-0.8775717 0.091789074 3.3192163
-0.6846754 -0.10459603 3.4408424
-0.83010322 -0.2668798 4.0833821
-0.96195608 0.2934671 2.9724753
-0.79067022 0.073812 3.3300817
-0.8709088 0.24175346 3.0089109
-0.82513613 0.27085412 3.0306633
-1.3032886 -0.17191446 3.9910326
-0.66465974 -0.19026238 4.100513
-0.93501943 -0.26751679 3.6180482
-0.83155835 -0.26976773 4.0830493
-0.80099505 -0.35113126 3.7694278
-0.98328447 -0.11218037 3.765985
-1.5038645 -0.031487502 3.9021919
-0.80988055 -0.36908227 3.7908258
-0.96502793 -0.26523036 3.9281912
-0.67392987 -0.20076455 4.103723
-0.94233149 -0.23079655 3.9059074
-0.97328454 -0.21284766 3.9469664
-0.82644582 -0.259166 4.0791712
-0.91627353 0.092536822 3.3098574
-0.18785316 -0.29402685 3.9863515
-0.15274809 -0.3352671 3.9026954
-0.15193459 -0.3321971 3.9050703
-0.13599686 -0.3226296 3.9273548
-0.68981034 -0.11343053 3.4459264
-0.11316566 -0.2837247 3.9656565
-0.082296178 -0.29529709 3.9855809
-0.9672879 -0.03225591 3.639962
-0.64606452 -0.36010116 4.0592813
-0.76304531 0.082962759 3.2360623
-0.95287907 0.24492784 2.9608111
-0.84262484 0.28102621 2.8734975
-0.84309131 0.24217892 3.0188248
-0.78438437 -0.53907138 3.7280054
-0.91939145 -0.40450659 3.8724756
0.03407947 0.18334712 4.5548267
-1.1056587 -0.19426578 3.8853405
-0.86598313 -0.3816722 3.8630342
-0.77010328 -0.40131932 4.0143723
-0.92155761 -0.22053246 4.0088181
-0.72320682 0.46843877 2.5331995
-0.85601234 -0.20623247 3.9644036
-0.60545516 0.66653728 2.1903296
-0.65370947 -0.18590397 4.143034
-1.0028113 0.13815662 3.3409188
-1.2973382 0.63735539 3.8347466
-0.74093276 -0.01464959 3.5344443
-0.94993544 0.0093577914 3.48229
-1.2751656 0.68472481 3.8682017
-0.70569426 -0.015755547 3.5239389
-0.99813604 0.11125739 3.2698896
-0.89595145 0.068150796 3.3709943
-0.868132 0.12614511 3.3197322
-0.76214784 -0.52516162 3.8081434
-0.84632075 0.046894584 3.370429
-0.96329194 0.18020354 3.1875412
-0.97551304 0.17303346 3.191004
-0.9781307 0.18363111 3.1854694
-1.0200965 0.35578099 2.8002858
-0.089821994 -0.20868452 3.8062901
-0.82895881 0.2696344 3.029675
-0.76062369 0.24151123 3.060045
-0.094320856 -0.25721285 3.7917912
-0.81495768 0.29274306 2.9217024
-0.7507174 0.18946813 3.0404506
-0.99684751 -0.3600772 3.9100268
-0.69705629 -0.36105552 4.0529242
-0.60060114 0.24927506 2.724515
-0.89347571 -0.35114613 3.8856883
-0.61398685 0.23833372 2.7422471
0.45624697 -0.1905845 3.5537527
0.4428893 -0.12753098 3.5873294
0.48189929 -0.10868181 3.5729728
0.45709023 -0.12407505 3.5841584
0.4400906 -0.13277909 3.5941279
0.47462136 -0.12271425 3.5754237
0.27200022 0.28517854 4.2638049
0.26960221 0.31950578 4.2389913
-0.9699344 -0.21964483 4.0378256
-1.2940943 0.78131592 3.5696163
-0.8687616 0.11715763 3.2429042
-0.71290505 0.1709716 3.1215904
-0.79829544 0.16555752 3.1606805
0.023858761 -0.28794461 3.8289418
-0.7518158 0.25156951 3.0560381
0.014687287 -0.253113 3.7323122
-0.024962811 -0.26370725 3.736109
-0.59454018 0.36171347 2.7924531
-0.53360635 0.44507599 2.6353796
0.30404496 0.32668492 4.2642984
-0.62941569 0.3772144 2.6933258
-0.51177871 0.55767584 2.3686988
-0.80870295 -0.54750681 3.8380189
-0.64486367 -0.39927787 4.0153375
-1.5789807 0.57216579 3.9266388
-0.76270014 -0.27768031 3.410192
-0.76887262 -0.17242123 3.4164116
-0.69509059 0.24429061 4.3449221
-0.77853578 -0.22753777 3.4056416
-0.75467944 -0.20145997 3.3773665
-0.75434798 -0.20266677 3.3773425
-1.0150038 0.03177635 3.4428604
-0.034360822 -0.34298781 3.898104
-1.0430123 0.078712679 3.4002821
-0.85001791 0.030775301 3.4585311
-0.13024047 -0.20705944 3.8188787
-0.97015601 0.17917912 3.2422018
-0.84338194 0.045480359 3.4357793
-0.94766158 0.19628094 3.2170951
-0.6659252 -0.028541526 3.4591222
-0.082942985 -0.2551797 3.7862198
-1.0363795 0.14632265 3.2087176
0.2014941 -0.20478369 3.7498119
-1.292159 0.76684272 3.5816364
-0.97371024 -0.24553242 3.9447181
0.04329427 -0.19805866 3.6812577
-1.2531838 0.83733785 3.5350709
-0.75406957 0.23965508 3.0871449
0.25907037 0.29348603 4.2024751
-0.60389644 0.34398884 2.8029699
0.58559924 0.3711687 4.06248
-0.79775935 -0.61477226 3.900877
0.46395501 -0.12579878 3.5653338
-1.0236647 0.45790166 2.7810178
-0.41258717 -0.19777447 4.190587
-0.4218443 -0.20220833 4.1913519
-1.0895814 -0.20033242 3.8387024
-1.0583801 -0.0083212238 3.5523202
-0.83571839 0.16274624 4.2852612
-1.3945849 0.15905391 3.3484964
-1.391001 0.15924639 3.3368809
-0.38611969 -0.022919808 4.3149428
-1.3369291 -0.14138646 3.9588141
-0.76486552 0.300338 4.3879228
-0.13656548 -0.34765202 3.895607
-0.27883744 -0.37201595 3.917629
-0.81650513 0.28574559 2.8752208
-0.85568696 -0.3751632 3.8511665
-0.78728515 -0.23054375 3.988966
-0.89555258 -0.36088106 3.8914092
-1.2872809 -0.10797869 3.8173239
-1.4477392 0.058357373 3.513453
-0.66179866 0.62545514 2.2471597
-0.53048259 0.57780015 2.2179031
-0.48760873 0.32162538 2.659482
-0.76258087 -0.19030927 3.932642
-0.83197826 -0.26541293 3.9311101
-0.059480909 -0.34792021 3.8861127
-0.74209791 -0.02021656 3.4628861
-0.72841281 0.00069368933 3.4465826
-0.99281281 0.10657855 3.329278
-1.0164497 0.027667623 3.3930435
-0.81096894 -0.53000987 3.8603747
-1.3005145 0.63804865 3.8341498
-0.96513367 0.19151001 3.2294929
-1.4812896 0.39824694 4.1015005
-0.10361163 -0.19931662 3.8134339
-0.11346047 -0.20698448 3.8172045
-0.77533925 -0.56853145 3.7227995
-0.99968702 -0.092573531 3.4828749
-0.96770114 0.19375038 3.1817591
-0.90970927 0.071309187 3.3218946
-0.022508293 -0.25304052 3.8376968
-0.062478989 -0.2450366 3.7854924
-1.0502075 -0.18600827 4.0170441
-0.98783487 -0.37081882 3.8892398
-0.7009744 -0.087715611 3.4842298
-0.8472833 0.064008497 3.452585
-1.0412605 -0.14601198 3.9410503
-0.69830847 -0.0054282895 3.5444033
-1.0454439 -0.17158829 4.0297894
-0.75236249 -0.50717497 3.6820309
-1.0494612 -0.16556057 4.0262275
-0.22924565 -0.3302702 4.0838809
-0.86049879 -0.21228261 3.9704344
-0.90224487 -0.31221116 3.9065125
-0.19617383 -0.31446022 4.0498929
-1.2320434 0.58995408 3.8455212
-0.81572002 -0.5366559 3.8559747
-0.077611566 -0.2917752 3.9820368
-0.084162943 -0.35115919 3.9118986
-0.67771667 -0.42974281 3.9862366
-0.72212636 -0.30646783 4.0704761
-0.8604058 -0.20707668 3.9717329
-0.84442365 -0.35182413 3.4746597
-0.85752344 -0.20954506 3.9674993
-1.1454529 0.01939627 3.572731
-0.51958072 -0.29617053 4.0367861
-0.76210177 -0.17916216 3.8773515
-1.0504729 -0.16994001 4.0268011
-1.0493437 -0.21124047 3.9074881
-0.7322365 -0.47417197 3.604043
-0.74180102 0.20306589 3.0262256
-0.71754545 0.48681483 2.516026
-0.64331871 -0.3356342 4.0561094
-0.68767363 -0.28350568 4.0507569
-1.0705805 0.019671464 3.5568821
-1.021008 0.066966265 3.4932277
-0.11352807 -0.20316991 3.8168588
-0.96703947 0.13022584 3.234597
0.28571364 -0.094946571 3.453423
0.28039369 -0.096929252 3.4546523
-1.2870415 -0.12213301 3.8179433
-0.98492199 -0.17934296 3.8588576
-1.0847613 -0.19976884 3.8680687
-1.2945458 -0.11878829 3.83904
-0.69799805 0.23091497 4.3397698
-1.0992728 -0.16541086 3.8373082
-1.0006515 -0.19248714 3.8772187
-1.0385187 -0.19908203 3.8482528
-1.0234324 -0.0058468492 3.5426421
-1.4617525 0.066196814 3.5326023
-1.4962091 0.011724259 3.6378145
-0.77910131 0.16881372 4.2797332
-0.52528477 -0.2962344 4.0174637
-0.48670191 0.42363328 2.4650056
-0.41120303 -0.33919173 3.9034123
1.1858984 0.25697616 2.8233058
-0.92072749 0.16721533 3.2446251
-1.5441998 -0.056645602 3.777796
1.0764022 0.20179524 2.8879874
-0.82539481 -0.20529708 3.4989219
-0.77498823 0.044846378 3.2191324
1.1540924 0.22775254 2.8234622
0.44962123 -0.25162598 3.5436459
-1.0473233 -0.19503012 3.854522
-0.42290094 -0.20318405 4.1911554
-0.66550553 -0.306007 4.0728908
