# .PCD v0.7 - Point Cloud Data file format
VERSION 0.7
FIELDS x y z
SIZE 4 4 4
TYPE F F F
COUNT 1 1 1
WIDTH 423
HEIGHT 1
VIEWPOINT 0 0 0 1 0 0 0
POINTS 423
DATA ascii
-0.99023783 0.37576258 2.7244725
-0.99862003 0.26469925 2.9345834
-0.82962948 -0.4607721 3.6082268
-0.80017292 -0.43070522 3.5418098
-0.78956592 -0.44358346 3.5011721
-0.81349498 -0.42930901 3.5364404
-0.91459513 0.30662698 2.8193164
-0.82928371 0.26841354 2.8652108
-0.83050579 0.26927915 2.8665357
-0.78929752 -0.47228253 3.4972363
-0.83307141 0.28991276 2.8783422
-0.86261493 -0.53734261 3.6638043
-0.8005029 -0.43138036 3.5445764
-0.85042548 0.27158591 2.8513284
-1.089017 0.28823236 2.9004807
-0.71908844 0.18024105 2.9883454
-0.94774121 -0.0024424461 3.4681065
-0.84642553 -0.53923982 3.6131563
-1.1877259 0.40657496 2.6892707
-0.76703608 -0.40278566 3.4809475
-1.1072282 0.056914087 3.3905706
-1.3317895 -0.071589127 3.6285553
-1.0279421 -0.011046105 3.4264135
-0.94416529 0.9691909 1.9349235
-1.1654797 0.065907851 3.3727968
-0.86781186 -0.54212356 3.6595469
-0.77152073 -0.4022598 3.4778762
-1.0459244 0.056923024 3.3622146
-0.66966015 0.47728416 2.4747097
-1.0651389 -0.015939282 3.3960793
-1.5277863 0.058483645 3.4379699
-0.99960822 0.0067935637 3.4644425
-1.1708577 0.057172455 3.3909738
-1.0896122 0.048636995 3.3573208
-0.94871777 -0.00048775476 3.4693971
-0.86094338 -0.53527725 3.6562383
-1.1287181 -0.1477432 3.6903994
-1.073025 -0.077122599 3.6225219
-1.0810553 -0.1626233 3.8100843
-0.97787738 0.14923884 3.1285737
-1.3849659 -0.070762396 3.7507138
-1.0016059 0.00064888096 3.4073732
-1.0196515 0.12528063 3.2198534
-0.9981575 1.0312049 1.970415
-1.0413833 0.27233025 2.8860652
-1.0197814 0.29052201 2.8644583
-0.82957476 -0.54604 3.7865977
-1.565032 -0.0080945063 3.7087057
-0.91400939 -0.34175241 3.6513934
-0.83581662 -0.46398661 3.6129124
-1.0936691 -0.13541707 3.6454284
-0.83885187 -0.46453449 3.6137712
-1.0881317 -0.156739 3.6521351
-0.96856457 -0.20942101 3.8985209
-1.3650161 -0.07353206 3.6087246
-0.76476729 -0.32722086 3.9056222
-0.42007306 0.21579359 4.2817407
-1.1055548 -0.11572465 3.7058027
-0.85543996 -0.5301643 3.6276011
-0.93227059 0.28707337 2.7862682
-0.70616829 -0.27947322 3.9129577
-0.87891984 -0.56019342 3.6656346
-1.0144022 -0.22151558 3.7662606
-0.85404891 -0.5372631 3.6142528
-0.78591537 0.13510291 4.1146326
-1.0136808 0.020405088 3.3862481
-1.2598915 0.64039087 3.6537735
-0.97254187 -0.10554202 3.803093
-0.89057457 0.10882454 3.1685185
-0.8170929 0.33364624 2.7415586
-1.6148459 -0.02618142 3.6755717
-0.98080945 -0.15349235 3.8774261
-0.43570325 0.57731616 2.2328875
-1.3557013 -0.0716215 3.7717352
-1.3848277 -0.060433049 3.7624199
-0.88327444 0.22981364 4.1132512
-0.47841045 -0.32687134 4.0261607
-0.47573823 -0.3289974 4.0324564
-0.80090934 0.10589707 4.105926
-0.79225975 0.098708749 4.0994129
-0.99395424 0.12961461 3.223105
-1.1120684 -0.1458768 3.8459973
-0.84926212 -0.38357344 3.8616271
-0.78994143 0.13304435 4.1158137
-0.74037349 -0.027274931 3.5291331
-0.96701354 0.047974091 3.2570581
-0.83331591 -0.46189216 3.6060643
-0.77285844 -0.28177279 3.9088054
-0.64114779 -0.27182806 3.9006188
-0.87036657 -0.2553474 3.8742108
-0.80855161 -0.48286086 3.5281923
-1.0243498 -0.15600967 3.7907557
-0.87171984 -0.54052389 3.6704633
-0.84745848 -0.53840232 3.6117096
-0.89173216 0.21473488 4.1132107
-1.1393929 -0.11778333 3.8342242
-1.3171116 0.70061225 3.6354449
-0.9745118 0.15388732 3.1254175
-1.354201 -0.084536284 3.7638602
-0.67622107 -0.35004255 3.8524756
-0.85147476 -0.33073279 3.619045
-1.070115 0.32221305 2.8651121
-0.99643481 0.47805294 2.627527
-1.1136632 -0.12950359 3.8512499
-0.93615824 0.31161517 2.6758921
-1.1737176 -0.096847109 3.7138734
-0.7667684 0.3313711 2.8542423
-1.1427546 -0.12475295 3.8320858
-0.89168417 -0.4948785 3.6757731
-0.80104333 -0.50438708 3.4974203
-1.0769415 -0.16198348 3.8095872
-1.3827016 -0.064329073 3.7611289
-0.84244627 -0.4598698 3.6509075
-1.5154191 -0.077200875 3.7141023
-0.70602119 0.36662182 2.5975266
-1.1888156 -0.14540435 3.7125692
-0.87342763 -0.49449772 3.7055824
-0.99080551 -0.18396164 3.8497956
-0.79645562 -0.27315658 3.9282506
-1.0190382 -0.22219692 3.7665606
-0.80460644 -0.26203138 3.9300668
-1.3554558 -0.064527251 3.5898015
-0.76438946 -0.32616648 3.9053257
-0.99613166 -0.18940394 3.8459952
-0.95604837 -0.10363983 3.4229064
-0.7242676 -0.15022418 3.9965014
-0.73416793 -0.27055281 3.9250143
-0.88629049 -0.21820773 3.9200976
-0.82278615 -0.49960563 3.560282
-0.80066466 -0.23018233 3.9400308
-0.73689932 -0.19057269 3.9418652
-0.76654899 -0.39957762 3.4766576
-1.0993179 -0.14291084 3.650424
-1.1397963 -0.11603401 3.8399982
-1.0392756 0.058768474 3.3420053
-1.0817624 0.067041688 3.3408675
-0.87677264 -0.57171357 3.6589096
-0.47341302 -0.33491865 4.0411205
-1.0040721 0.020114575 3.4196491
-0.79332227 0.09537942 4.0991964
-0.52976054 -0.33171651 3.9776273
-1.1049993 -0.14642227 3.6535549
-0.7156086 -0.13056532 4.0141249
-1.0390148 -0.16916199 3.790477
-1.0021232 0.016388383 3.4587176
-0.85218918 -0.58628571 3.5768297
-1.0375566 0.13245952 3.1938517
-0.85641497 -0.32637495 3.6385114
-0.69387382 -0.31632009 3.9088187
-1.1395262 -0.11331484 3.840632
-0.8135283 -0.3363339 3.8926055
-0.82333058 -0.51137412 3.5059941
-0.17554241 -0.26209193 3.8531699
-0.21304823 -0.36181572 3.8028624
-0.8037641 0.14856976 3.1372623
-0.88013035 -0.59145331 3.6497674
-0.13067167 -0.29878029 3.8755336
-0.91378868 0.21202056 3.0174589
-0.82569593 0.27382436 2.8519347
-1.3620455 -0.066137858 3.6027808
-0.8197934 0.27753836 2.9017453
-0.82384622 0.27004254 2.906394
-1.0108227 -0.16522674 3.8690586
-0.78681988 0.32024875 2.6855791
-0.77595776 0.33292386 2.7184474
-0.5836153 0.36705709 2.6537955
-1.0022376 -0.14235042 3.8166292
-0.53063136 0.32494321 2.6641841
-1.0813249 -0.16852671 3.6898634
-0.6718446 -0.54673654 3.7089455
-1.0045164 -0.21483761 3.7434752
-0.8411231 -0.68300992 3.7212286
-0.98428828 0.10551424 3.2331696
-0.89539683 -0.18292403 3.786083
-1.1055784 -0.11402029 3.7792051
-0.72275996 -0.095134929 3.3060014
-1.1128148 0.020533817 3.3844974
-0.69153035 -0.2396457 3.9384217
-0.86459577 -0.33574846 3.6365852
-0.69848138 -0.22809592 3.8878205
-0.87474698 -0.5429098 3.6704223
-0.45705253 -0.25484467 4.039001
-0.79424423 -0.47987375 3.5269794
-0.8328734 -0.46263754 3.6054108
-0.72181338 -0.14412706 4.0025377
-0.56827217 -0.28425243 3.8248985
-0.7050283 -0.11721756 4.008317
-1.0304003 -0.28508925 3.746809
-0.72208041 -0.11640736 4.0088439
-0.79343373 0.10689815 4.0957289
-0.95037407 -0.18956803 3.9048741
-0.87056601 -0.57986039 3.5969467
-0.92532957 0.32742709 2.6653163
-0.90279442 0.16709848 3.0494399
-0.90030462 -0.65751278 3.6785154
-1.5192087 0.072290339 3.4256232
-0.96190447 -0.35919717 3.6999555
-0.97469318 -0.36614016 3.7042906
-0.83046824 -0.38238934 3.8492928
-0.98362863 0.16176206 4.2113357
-0.30141735 0.9647705 1.6412915
-0.84087759 -0.37948558 3.8591077
-1.1407398 -0.10823425 3.839366
-0.95345825 -0.11784865 3.4508884
-1.0981894 -0.17100579 3.7294359
-0.48521036 -0.33778796 4.0261707
-0.50095016 -0.19891702 4.0502439
-0.50017154 -0.19796747 4.049458
-0.80112422 0.11329407 4.1056676
-1.1147313 0.14227912 3.2516174
-1.0530297 0.10617714 3.2315276
-0.90694743 -0.19359358 3.7903013
-0.96933705 -0.047865309 3.4270613
-1.395916 -0.048095159 3.637332
-1.320928 0.67483759 3.6457083
-0.31191745 -0.35611287 3.9831796
-0.72320908 -0.5459379 3.7605269
-0.76975524 -0.44321108 3.4529545
-0.70580888 -0.075038955 3.2933609
-0.96806484 0.21783184 3.016068
-0.93960363 0.32659298 2.8047526
-0.87941414 0.14544253 3.0903041
-1.0164334 0.31177959 2.7780166
-0.85267276 0.27281752 2.8476789
-0.80776095 0.30088702 2.872381
-0.74174839 -0.16635862 3.9528954
-0.90089709 -0.23164876 3.924788
-0.85093105 -0.31607363 3.6144841
-1.0262182 -0.072533101 3.5971277
-0.74331301 -0.16658349 3.9559226
-0.99813437 -0.19113547 3.7402012
-1.0313627 -0.17209342 3.7789226
-0.77070534 0.010648319 3.3876894
-0.82745612 0.10414636 3.2582467
-0.60784769 -0.25796103 3.9987407
-0.89525294 -0.22121114 3.9212136
-0.83330524 -0.63233227 3.7428963
-0.84327453 0.096215352 3.2341812
-0.21322094 -0.31595358 3.7921407
-0.21249284 -0.31288821 3.794549
-0.19788378 -0.30357155 3.8178284
-0.23363473 -0.26537967 3.8754466
-0.97646147 0.28201523 2.9317784
-0.71151209 -0.083700545 3.2981267
-0.17673463 -0.26498821 3.8573999
-0.4921422 -0.21548145 4.0798936
-0.99417359 0.11890494 3.2903252
-0.76492798 0.11296999 3.082618
-0.93102056 0.27775145 2.7940125
-0.82560331 0.27259824 2.8594887
-0.68750507 -0.34615186 3.8902774
-0.97750902 -0.36562008 3.709398
-0.058254022 0.20244391 4.4527388
-0.1651402 0.14234771 4.4005136
-0.96604139 -0.3400023 3.6726148
-0.66663194 0.49212 2.3820624
-0.91543853 -0.16837676 3.8043854
-0.72546786 -0.15196107 3.9964538
-0.94079232 0.13375337 3.2152274
-1.3291861 -0.053271223 3.6342916
-1.0274881 0.15084992 3.1724653
-0.79456615 -0.0030784078 3.4111102
-1.3244941 0.68533665 3.6398656
-0.76303059 0.35950109 4.2325754
-0.97021425 0.046018615 3.3157461
-1.3034455 0.73236287 3.6745102
-0.73016846 0.014921659 3.3743126
-0.20033872 -0.29940131 3.8489847
-1.1635932 -0.13153963 3.6709838
-0.93805605 0.2239375 3.0317783
-1.2603837 0.64496082 3.6511333
-0.81942397 -0.49075896 3.6567557
-0.97329885 0.21877725 3.0167253
-0.98408067 0.38911963 2.6286139
-0.91558987 0.31118959 2.836715
-0.13698539 -0.20732418 3.694397
-0.81153703 0.29975909 2.8711374
-0.74081904 0.27678141 2.9059339
-1.0327561 0.27462023 2.7056899
-0.029058063 -0.16756327 3.6745579
-0.14525975 -0.24024831 3.6851082
-0.80374044 0.23956688 2.8404791
-0.76152021 0.28465766 2.7953975
-1.0561773 -0.31893358 3.7412601
-0.56329846 0.2712779 2.5826054
-0.95117491 -0.31285012 3.7240739
-0.57815713 0.26081586 2.5994306
0.40798411 -0.12596752 3.5175438
0.40335301 -0.14642781 3.5013256
0.23919953 -0.20344417 3.5874777
0.20175241 0.29596677 4.1782942
0.20197202 0.33016133 4.1531844
-1.0344636 -0.17830749 3.8698323
0.22796629 0.26972762 4.1528192
-1.0984731 -0.11158872 3.7774379
-0.84919417 -0.52357388 3.6598659
-1.081653 -0.14647751 3.6487761
-0.48646793 -0.17641541 4.0934072
-0.5055173 -0.32185644 4.0236583
-0.79271871 0.19589065 3.0045238
-0.7368955 0.27990487 2.9028683
-0.93286163 0.26539978 2.8053565
-0.043697096 -0.23803477 3.63747
-0.032340653 -0.23939766 3.6332827
-0.072422408 -0.24893773 3.6343892
-0.55898792 0.38401836 2.6501756
-0.48520491 0.4646264 2.4972286
0.23476468 0.3366355 4.1807709
0.23349535 0.27549613 4.1570697
-0.44209847 0.57466507 2.2320738
-0.98384959 0.17937902 3.0812168
0.19557095 0.31415525 4.1043825
-1.6134143 0.62810802 3.7124352
-0.97174263 -0.20327331 3.894156
-0.70529443 0.073762104 3.262543
-0.86836922 0.064677358 3.2988305
-0.1816332 -0.18898778 3.7093704
-0.85979712 0.07903897 3.2765105
-1.3086549 0.6576457 3.6935678
-0.9447611 0.23086901 3.0503104
-0.074988149 0.22691105 4.47329
-1.26219 0.63600618 3.6535683
0.00115223 -0.18547565 3.5840228
0.19330361 0.30415446 4.1161723
0.20101753 0.33870855 4.1584282
-0.88028419 -0.57519478 3.6583192
-0.49799293 -0.17388411 4.0607691
-1.1395509 -0.15737845 3.6628132
-1.083655 0.031656619 3.3782117
-0.79805684 0.11404887 4.1033263
-0.90763968 0.2023015 4.1238279
-1.0065697 0.053674493 3.3462358
-1.4005021 0.20614514 3.1507168
-1.3961222 0.20615986 3.1393759
-0.46618247 0.0053260205 4.1855373
-0.19691864 -0.32880339 3.7862561
-0.34096035 -0.34932801 3.7985287
-0.7880469 0.3144094 2.7178261
0.20795621 -0.17039402 3.6760263
-1.0601918 -0.21098958 3.8809836
-0.11479409 -0.30339277 3.7298174
-0.78152293 -0.43154204 3.4728115
-0.84922963 -0.19427128 3.8337729
-0.87805051 -0.58062917 3.654459
-0.95389587 -0.32248598 3.7296915
-0.96925044 -0.37965837 3.6801689
-1.3328154 -0.060116671 3.6273119
-1.4675249 0.10806657 3.3121614
-0.71758282 -0.542925 3.7630203
-0.46588668 0.54490101 2.05141
-0.44982794 0.5941574 2.0802367
-0.44423264 0.34021097 2.5251362
-0.81965429 -0.15510185 3.7790687
-0.58929521 -0.26318586 3.8876314
-1.1369362 -0.15458097 3.6618154
-0.90999395 0.20064804 4.1184211
-0.99987614 0.14318679 3.1596003
-1.2924023 0.73055273 3.6677604
-1.3276024 0.68610722 3.6390469
-0.9631654 0.22664136 3.0614972
-0.15449844 -0.18197441 3.7057359
-0.16445559 -0.19665019 3.6810493
-1.0225446 -0.05458878 3.3134565
-1.3596747 -0.044268705 3.7467468
-0.96237648 0.2285967 3.0136883
-0.91741526 0.10573286 3.1581731
-0.076697998 -0.23759234 3.7358429
-0.11275098 -0.22894379 3.6809576
-1.112203 -0.14276554 3.8433673
-0.87261635 -0.032029975 3.3958573
-0.7246117 -0.057425767 3.3354242
-0.83554471 -0.378813 3.8576484
-0.70438391 -0.048011873 3.3193111
-0.86436033 0.09778443 3.2929034
-0.94077152 0.072617538 3.2861524
-0.72394258 0.025204979 3.3951809
-1.085354 -0.1408769 3.7797599
-1.0425396 0.32824722 2.9236672
-1.1115555 -0.12227701 3.8524671
-0.96109217 0.14018443 3.1237893
-1.096467 -0.14785139 3.7853804
-0.8615703 -0.51312172 3.6699877
-0.14261779 -0.27383244 3.8762424
-0.72232664 0.16623867 3.0254595
-0.14587396 -0.33354104 3.8061495
-0.74499702 -0.39624429 3.8397262
-0.92034739 -0.16905357 3.8113983
-0.91724581 -0.17162646 3.8073878
-1.1711706 0.061759397 3.3924024
-1.1674209 0.061633702 3.3882072
-0.81507248 -0.14437701 3.7238824
-1.1140485 0.015405125 3.3891532
-1.1044509 -0.16881524 3.7342746
-0.77589059 -0.44452453 3.4566653
-0.72612518 0.23094158 2.8740885
-0.4720104 0.54426003 2.272449
-1.1695713 0.061926391 3.3907444
-0.83835155 -0.37797329 3.8587654
-1.0954024 0.059987355 3.3817644
-0.85127115 0.096471712 3.2621911
-0.12167406 -0.26908669 3.7621758
-0.10930466 0.1990332 4.4616055
-0.94427943 0.31690192 2.8161635
-1.1367537 -0.15672378 3.6924388
-1.1173146 -0.14396067 3.6904521
-0.88948041 0.11643364 3.1630726
-1.1618199 -0.14509805 3.6684141
-0.87967372 -0.47654486 3.7861519
-0.88568425 -0.2275573 3.8541055
-1.0533128 -0.15154652 3.7073388
-1.0892529 -0.1573752 3.6758623
-1.0480704 0.033157833 3.3709583
-0.96849573 -0.25034311 3.7738714
-0.78018039 -0.41203365 3.4969461
-0.8506366 0.2068662 4.1221924
-1.1024113 -0.16924386 3.6784306
-0.42724553 0.44073105 2.3306251
-0.4711242 -0.31320658 3.775017
-0.92056078 0.20132138 3.0797966
-0.77667117 0.075050995 3.065115
-0.96714842 0.12094108 3.1818116
-0.7385236 -0.27544305 3.9271724
-0.84997809 -0.40192163 3.8340609
