# .PCD v0.7 - Point Cloud Data file format
VERSION 0.7
FIELDS x y z
SIZE 4 4 4
TYPE F F F
COUNT 1 1 1
WIDTH 372
HEIGHT 1
VIEWPOINT 0 0 0 1 0 0 0
POINTS 372
DATA ascii
-1.130437 0.17976917 2.8407707
-1.0118635 0.40340969 2.4034266
-1.1935599 0.15179826 2.9081652
-1.1325269 -0.43919623 3.3926804
-0.47102281 0.30230141 2.5190506
-1.0502825 0.24827847 2.7064035
-1.0682312 0.30119973 2.6106169
-1.0172244 -0.35914737 3.2041409
-1.0858475 -0.40893847 3.3196588
-1.0419126 -0.38322181 3.2606683
-0.93788826 0.20869681 2.753032
-1.0248542 -0.39833948 3.223115
-0.92116988 0.12666638 2.9803805
-1.0236784 -0.39736754 3.2257264
-1.0429686 -0.50319988 3.2014589
-1.0260552 -0.42711276 3.2199757
-1.132244 -0.44050518 3.3887446
-1.1323092 -0.43774614 3.3906412
-1.6190394 0.042560715 3.2320368
-1.0058404 -0.45124224 3.1577945
-0.99194163 -0.3462854 3.1998093
-0.90691221 0.29440933 2.5570393
-1.1484935 0.32979476 2.5593462
-0.8098523 0.19902214 2.7222042
-1.0877444 -0.5132708 3.2781272
-0.97418523 -0.35982347 3.2174838
-1.108994 -0.48543835 3.3243964
-1.1406939 -0.43559289 3.402925
-1.2637037 -0.096845023 3.418241
-1.276528 0.11894231 3.0422292
-1.5511417 0.015750017 3.2359202
-1.2626872 0.18579841 2.899833
-1.3378737 0.1245656 3.0290532
-1.2804182 0.11286814 3.0458074
-0.9996174 -0.35930681 3.2027307
-0.89959002 0.56787074 2.046711
-1.1907275 0.064435877 3.1341002
-0.37845519 0.45322514 2.105324
-1.1890312 0.056822211 3.0787945
-0.91876674 0.29311794 2.5559721
-1.1351153 -0.050595708 3.1389422
-1.6970909 0.1521572 3.0084376
-1.2595057 0.10175995 3.0094681
-1.1889472 0.064117722 3.1364367
-0.601583 0.57331884 1.949955
-1.7513031 0.20319657 3.0359058
-1.3388803 0.12373404 3.0304742
-0.5107103 0.64708352 1.8333372
-0.32155573 0.5300526 1.8022697
-0.35674575 0.45725608 1.7792367
-0.31212825 0.52997255 1.8046083
-0.72380733 0.46103668 2.1606228
-0.64014548 0.27128249 2.5845597
-1.0194401 0.39638641 2.3897581
-1.3746316 -0.051446348 3.5023172
-1.2501124 -0.29957995 3.3938818
-1.0836364 -0.452391 3.2793798
-1.2758844 0.11996141 3.0414767
-1.0385157 -0.40454394 3.2462626
-1.2664839 -0.13035752 3.5090189
-1.2638444 -0.13808997 3.5678532
-1.3468934 -0.085972793 3.4640491
-1.2942131 0.0011619561 3.3086193
-1.2811384 -0.12262683 3.5132968
-1.2320586 -0.28795782 3.3624232
-1.1867638 0.088235565 3.0919931
-1.606553 0.026027957 3.2467937
-1.1919889 0.084784925 3.0917871
-1.1442007 0.048364922 3.1465621
-1.6261775 0.024943138 3.3456302
-1.2659113 0.10069132 3.0089226
-1.138005 0.17798491 2.8512008
-1.180613 0.055989332 3.080195
-1.1093899 0.20330524 2.8110912
-0.54704845 0.64683539 1.8302991
-1.7625879 0.21414968 3.0366607
-1.1003618 0.3100192 2.5546634
-1.0737394 0.3258056 2.5371568
-0.91897988 0.29459974 2.5531948
-0.82399172 0.19423583 2.7230527
-1.8332698 0.073465839 3.2258935
-0.95061439 0.21286799 2.7363355
-0.82703203 0.21153878 2.7777109
-1.8412009 0.062956534 3.2207446
-0.81711233 0.33591187 2.4494729
-0.72040308 0.35916278 2.3458819
-1.0927765 -0.41119111 3.32442
-1.2910361 -0.05437867 3.3064611
-1.3261 -0.064148761 3.2994215
-1.0959523 -0.41148937 3.3246961
-1.0938382 -0.51770979 3.2803836
-1.1215073 -0.36178213 3.0304229
-1.3243661 -0.08637093 3.3056915
-1.2996306 -0.073292151 3.3186009
-1.8052416 0.093046293 2.8886185
-1.3235825 -0.085542865 3.3075593
-1.0981119 -0.063280538 3.4245737
-1.1224693 -0.075769737 3.419826
-1.1304046 -0.45581716 3.3756816
-1.1213467 -0.33519664 3.0070951
-1.0384301 -0.49191442 3.1586123
-1.1139556 -0.36000875 3.0294931
-1.1007736 -0.26814917 3.6019866
-1.0301079 -0.45896065 3.1611123
-1.0378929 -0.46047699 3.164073
-1.1338731 -0.29359785 3.023469
-0.2561965 -0.30811203 3.6640081
-1.0951545 -0.266734 3.6057651
-1.0539474 -0.46091324 3.2230875
-1.3805048 -0.10910559 3.3807044
-1.0357176 -0.42757329 3.2199252
-1.0205239 -0.29261053 3.6324213
-1.095011 0.16377029 2.8554366
-1.0673729 0.13377699 2.8878417
-1.0441802 0.14752319 2.8455539
-0.95995903 0.019327695 3.1165221
-1.0670855 0.18505588 2.7962236
-0.97690892 0.14171569 2.9589915
-0.89639932 0.075913019 2.8025801
-0.93452996 0.054306891 2.8166556
-0.90335065 0.11308734 2.8132629
-1.0467749 0.24903014 2.7082486
-1.0358509 -0.42427555 3.2375798
-1.0256965 0.075766869 2.937819
-1.0275944 0.35978067 2.3330762
-0.94549114 0.29781973 2.5607126
-0.84896272 0.18878639 2.7893734
-0.96898293 0.19688392 2.7514071
-0.80076319 0.20904218 2.7115316
-0.87537295 0.13249283 2.8243039
-0.79347146 0.25446129 2.6066697
-0.75464076 0.39272252 2.309227
-1.1084342 -0.25819504 3.3352094
-1.1349672 -0.31453794 3.5596871
-1.7547265 0.05226595 3.2741115
-1.1341765 -0.059377901 3.0893328
-1.2778997 -0.1510559 3.4351437
-1.1133293 0.24827273 3.8099267
-1.1165124 -0.48288536 3.323971
-1.0332292 0.22232354 3.8303397
-0.99993408 -0.023445757 3.1318364
-1.3319522 0.12765776 3.0242882
-0.94962925 -0.010004802 3.2640724
-0.97539932 -0.018818522 3.259311
-0.92797863 -0.015019845 3.265765
-1.0906756 0.19413379 2.807003
-1.0348849 0.1559972 2.8394928
-1.2349477 -0.037045676 3.4765632
-1.4170971 -0.064739622 3.4780276
-0.86230755 0.3239781 2.5400403
-0.83004665 0.20853059 2.7792187
-1.7775155 0.071218133 3.2586033
-0.89087385 0.31543934 2.5847011
-0.96132648 0.48763654 2.2295022
-0.89324075 0.59589052 2.08284
-0.83445626 0.23487855 2.6176383
-0.86858159 0.5400672 2.0016634
-1.8336424 0.082881376 3.2269707
-1.2677876 -0.11439183 3.5196369
-1.1446347 -0.43678227 3.4037902
-1.2607461 -0.081459299 3.5490537
-1.7296633 0.17895782 2.965467
-1.4083774 -0.030609168 3.4779971
-0.36075085 0.54644728 2.0221381
-1.6015564 0.022798683 3.371865
-1.6274557 0.035669338 3.3569021
-1.6954001 0.18720159 2.9774821
-1.4323717 -0.03732447 3.3832326
-1.4415787 -0.044346787 3.3843904
-1.43115 -0.040660452 3.3248308
-1.2666601 -0.22964698 3.4430463
-1.0218189 -0.28564194 3.633049
-1.3192508 -0.012587195 3.288244
-1.3903273 -0.055831369 3.304431
-1.2872229 -0.084134474 3.4557495
-1.0850772 -0.52874255 3.2774465
-1.2624161 -0.13334559 3.5688975
-1.1096098 -0.35163438 3.0179586
-1.0287936 -0.4255946 3.2176025
-1.0321258 -0.42578024 3.2163672
-1.3820059 -0.054942906 3.5004063
-1.2737647 -0.29274184 3.3749492
-1.5050596 -0.054923978 3.4282246
-1.144664 -0.4827674 3.3758361
-1.2636607 -0.30498999 3.385464
-1.2753612 -0.24344704 3.4448125
-1.245719 0.19343786 2.9065568
-1.2514089 -0.29882839 3.3949535
-1.3105884 -0.096615046 3.4460227
-1.4051139 -0.036227126 3.475554
-1.1199365 -0.48698926 3.3268254
-1.0953517 0.19488564 2.8035893
-1.0891347 0.19620815 2.8050852
-1.5995952 0.009523049 3.3647256
-1.1330401 -0.28969786 3.3452492
-1.2968724 -0.26584107 3.4400091
-1.1484935 -0.31978369 3.5530119
-1.1226391 -0.28575921 3.343606
-1.1027321 -0.27580652 3.3268175
-0.96758753 -0.24418697 3.3499436
-1.0990196 -0.27702561 3.3243296
-1.0001543 -0.34504649 3.1998913
-1.3777866 -0.054538406 3.5030591
-1.7303908 0.16908608 2.9966984
-1.3158767 -0.10902887 3.5325682
-1.5250282 -0.038089175 3.4118159
-1.0241179 0.36106697 2.359035
-1.0391891 0.35565743 2.3562155
-1.0052019 0.33560356 2.5148437
-1.0378273 0.3778469 2.3699737
-1.2498239 -0.24487928 3.4384825
-1.3840352 -0.049096767 3.4974473
-0.89585519 0.31521639 2.5322909
-0.97578466 0.34745073 2.387923
-0.82380211 0.22097835 2.7632692
-0.9546867 0.33380261 2.3675766
-0.84484261 0.1529149 2.8100567
-1.4144137 -0.017445285 3.3504076
-1.4085377 -0.043015845 3.4729772
-1.3888478 -0.052310787 3.4988832
-1.8417695 0.058287665 3.2198596
-1.2389281 -0.29755315 3.3899455
-0.75021666 0.34131274 2.3672109
-1.1796544 -0.2897568 3.3653545
-0.45511761 0.62508947 1.8227466
-1.0871401 0.20415615 2.8465698
-1.0464152 0.098272309 3.0268955
-0.92805684 -0.01307206 3.267015
-1.1361259 -0.45753506 3.3773739
-0.98883498 0.10489322 2.9821537
-0.97546864 0.11730638 2.9648004
-1.1061161 -0.40518838 3.3603442
-1.0279249 -0.495318 3.140765
-0.89685434 0.15650743 2.8972239
-1.0389744 0.31742629 2.574733
-1.0762432 -0.42395881 3.2976427
-1.0087651 0.39721653 2.4040527
-1.7474874 0.026414035 3.2849538
-0.95950836 0.45824581 2.2136605
-0.61318469 0.43227318 2.4184604
-0.78843826 0.24445 2.6053956
-1.094144 -0.21597482 3.6273098
-1.115626 -0.30748671 3.5592523
-0.52260786 0.65143502 1.8987404
-0.41107044 0.76216507 1.7241466
-0.49462909 0.66273946 1.8163232
-0.35149184 0.51095313 1.835735
-1.6023766 0.022000527 3.2455273
-1.149421 -0.43544853 3.4088962
-1.2676642 -0.11215886 3.5207443
-1.2663584 -0.11238674 3.5201826
-1.1065063 -0.20018248 3.636884
-1.1273062 -0.2525121 3.0325119
-1.1026111 -0.2350388 3.6182668
-1.3554541 -0.091055587 3.4185021
-1.2358832 -0.074773476 3.4238656
-1.0591664 -0.25271216 3.6246564
-1.1163557 -0.26810482 3.6058013
-1.0070131 -0.42889804 3.1751127
-1.1921737 -0.1599755 3.6044605
-1.102078 -0.1683418 3.6466687
-0.99431384 -0.35703221 3.2024209
-1.3331486 -0.071029305 3.3034213
-1.2616895 0.10135136 3.022125
-1.4178933 -0.042242095 3.4826617
-1.3395712 -0.074008174 3.3054914
-1.0352764 -0.37472451 3.2303891
-1.2076364 0.086339556 3.0274098
-1.1323613 -0.024440577 3.0322247
-0.97989345 -0.048533939 3.3478203
-1.1654112 0.18189988 2.8607106
-0.96047503 -0.034516271 3.3217688
-0.97627825 -0.00095759216 3.2547607
-0.97702622 -0.0014629883 3.2546387
-1.094118 0.21578635 2.828954
-0.89184219 -0.21146168 2.7139075
-0.9913699 0.0066371541 3.2322824
-1.0303893 -0.41682613 3.192409
-0.71441936 0.49160302 2.1235726
-0.77497238 0.49702293 2.1069674
-0.62315309 0.57381439 1.9734361
-1.597528 0.0089848526 3.365711
-0.31400082 0.45041338 2.0346458
-0.5375995 0.5518229 1.9739902
-0.43787339 0.53088099 2.0949769
-0.35631478 0.81817573 1.6709694
-0.46113846 0.68753713 1.753834
-0.51164877 0.66376466 1.7282351
-0.54582989 0.2460968 2.390368
-0.27431631 0.72025305 1.6864295
-0.26307362 0.79066008 1.6203151
-0.239502 0.73882443 1.652235
-0.47303775 0.44009906 2.2547777
-1.1828982 0.15936232 2.9062216
-1.0304366 -0.090956889 3.7149041
-1.2285575 0.1017533 3.0350125
-1.0005649 -0.075955994 3.7205067
-1.1899079 0.056482956 3.0907354
-1.0254287 -0.083951183 3.7159433
-1.1279125 -0.56627113 3.2676334
-1.5456403 -0.040839065 3.4040275
-1.1171041 0.096610814 2.9947095
-1.0742356 0.010812057 3.0155234
-1.1374722 -0.50176597 3.3572671
-0.88340932 0.1628051 2.9494314
-1.0289911 0.18218115 2.790663
-1.180356 -0.59650081 3.3815622
-1.0701773 0.10263656 2.9297612
-0.78013879 0.2249255 4.0241785
-0.94087511 0.34839678 2.3588948
-0.80280012 0.21266174 2.7446358
-1.5972705 0.022445703 3.1858974
-0.79118198 0.19500649 2.77354
-1.6853033 0.1648459 2.9976354
-0.80076414 0.34821823 2.4402585
-1.1810174 -0.59709996 3.3812439
-0.73807573 0.52613372 2.0403357
-0.63586265 0.5956654 1.955434
-1.307072 -0.27306116 3.4395382
-0.43653685 0.67673635 1.7509934
-0.44415689 0.51913655 2.093034
-1.1336559 -0.5303793 3.2814074
-0.39205083 0.75282842 1.6836522
-0.56011838 0.53555995 1.957882
-0.3913846 0.37317261 2.3304839
-0.49335456 0.45605591 2.1443095
-0.46020311 0.41551521 2.126018
-0.10976803 0.77737969 1.3950696
-0.076058261 0.79629284 1.3686155
-0.31317684 0.75110376 1.671015
-1.2184237 0.062142987 3.1503754
-0.81751412 0.1958212 2.7170033
-0.97453552 0.30412412 2.4852662
-0.79733658 0.25413191 2.6142623
-0.61889899 0.27137586 2.5779476
-0.36706242 0.54422837 2.0201812
-1.1315615 -0.31561437 3.5625901
-0.38335291 0.53280336 2.0258753
-0.35856971 0.50945812 1.8390454
-1.1325312 -0.45619258 3.3766651
-0.89440811 0.093152665 2.79498
-1.0092764 -0.42888206 3.1703136
-1.0316385 -0.40061089 3.2272871
-1.006742 -0.42810607 3.1722813
-1.6237569 0.0049062637 3.3550739
-1.0009592 -0.39964899 3.1806366
-1.0031445 -0.4019219 3.182071
-1.7538311 0.19872892 3.0345297
-1.8411069 0.063033 3.2221844
-0.89343727 0.57249439 2.0250158
-0.69149333 0.37292865 2.3154507
-0.88496369 0.0746115 2.8068211
-0.82853687 0.314704 2.4573138
-1.2458715 0.11948254 2.9680541
-1.6213845 0.046117816 3.2310271
-0.71393561 0.55336761 2.0531123
-0.7395553 0.54339302 2.0691612
-1.5524237 0.013145654 3.2352333
-1.2783383 -0.070085406 3.3542836
-0.96108735 0.48643282 2.2324002
-1.8134547 0.15917082 2.9877288
-1.378785 -0.080559358 3.3378303
-1.3816 -0.060486387 3.4942293
-1.3583975 -0.069292784 3.339292
-1.8455788 0.061668091 3.221714
-1.1448473 -0.27692521 3.0342906
-1.0157917 -0.28519973 3.6335557
-0.27192396 0.47738302 2.0222702
-1.0158656 0.15425219 2.859144
-1.5646725 0.018225204 3.2535837
-1.045172 -0.087495573 3.4135704
-1.0422934 -0.21835288 3.6469705
