# .PCD v0.7 - Point Cloud Data file format
VERSION 0.7
FIELDS x y z
SIZE 4 4 4
TYPE F F F
COUNT 1 1 1
WIDTH 558
HEIGHT 1
VIEWPOINT 0 0 0 1 0 0 0
POINTS 558
DATA ascii
-0.96912223 0.43129057 2.4384
-1.1026165 0.16596472 2.951103
-1.0058039 0.32407308 2.6474714
-1.0800409 0.077123202 3.1737132
-0.94481939 -0.3969565 3.3429887
-0.99151522 -0.42384565 3.4337733
-0.91903877 -0.36701217 3.2743871
-0.82226831 0.096212044 2.8226526
-0.890562 -0.38183919 3.2447553
-0.89239901 -0.41155732 3.2386763
-0.83405668 0.34166369 2.6100731
-1.4977804 0.037329573 3.3048785
-0.87917542 -0.42581567 3.1793194
-0.87630057 -0.43403283 3.1746993
-0.84900701 0.32361796 2.5814791
-1.0907097 0.35068387 2.6030722
-0.73791301 0.2292719 2.7335446
-0.94948071 -0.5028531 3.3007078
-0.96499711 -0.47426626 3.3481364
-0.96556383 -0.47645989 3.3526049
-1.0942338 0.080805302 3.1323547
-1.4289411 0.0128 3.3030267
-1.2292215 0.13930653 3.0662038
-1.0754491 0.096855931 3.0948544
-0.92417568 0.49300924 2.2440588
-1.1097187 0.12532869 3.0693474
-1.0793399 0.075323284 3.1745515
-1.0817024 0.068614297 3.119153
-1.1356715 0.053860024 3.1016524
-1.0773737 0.07503067 3.1767373
-1.0648293 0.21485111 2.8818202
-0.50898409 0.69408798 1.8551255
-0.3322247 0.59059167 1.7880635
-0.32264632 0.59079838 1.7896651
-0.82373679 0.32143557 2.5919111
-0.95679158 0.4191632 2.4347584
-0.9131611 0.36720181 2.5193956
-0.98410237 -0.46902338 3.3892465
-0.39190638 0.72645116 1.796919
-0.43133575 0.35347724 2.3868797
-1.4617051 0.013171406 3.279542
-1.2375177 -0.070484951 3.388366
-1.2034932 -0.084051445 3.5124023
-1.1732264 0.12930746 3.0897875
-1.031839 -0.043017849 3.1336722
-1.4690006 0.031287946 3.2514546
-1.1716092 -0.0032803591 3.3264308
-1.2043253 -0.085338771 3.512846
-1.0911615 -0.28171012 3.3990695
-1.4954748 0.017752225 3.4183517
-1.1651878 0.11088708 3.056222
-1.0279956 0.22179016 2.8487501
-0.43633804 0.35916495 2.3836844
-0.95077729 0.11217467 3.0569296
-1.017818 0.3495909 2.5751066
-0.86133695 0.32345414 2.5785823
-0.75016934 0.22382417 2.7387793
-1.6668634 0.086955488 3.3554823
-0.99969512 -0.49346924 3.386034
-0.9512791 -0.39951691 3.3482301
-1.1971337 -0.060314663 3.3475192
-1.193288 -0.081731506 3.3550556
-1.0080131 -0.59389269 3.3467941
-0.89996916 -0.44262603 3.179744
-0.99376398 -0.4316766 3.4212525
-1.2198838 -0.068744048 3.4283192
-0.90201563 -0.41234714 3.2393644
-1.0089166 0.18209989 2.8911405
-1.5567523 -0.011526053 3.3995376
-1.2399676 -0.063629612 3.542275
-1.2467368 -0.049593024 3.538012
-0.58546233 0.27365157 4.0520034
-0.93881673 -0.44205064 3.3158479
-0.97511107 0.27118835 2.7422087
-0.90088326 -0.40932482 3.2570324
-0.97519428 -0.46460125 3.3613605
-0.72840744 0.23958959 2.7257636
-0.92226893 0.341344 2.507386
-1.0630105 -0.12240817 3.6309588
-0.75540727 0.2694307 2.6418624
-1.0655258 -0.12267867 3.6307552
-1.043901 -0.28278086 3.3911312
-0.97107595 -0.24732748 3.3629215
-1.102161 0.09173698 3.0715756
-0.97260576 -0.47196564 3.3483388
-1.1633327 -0.081909396 3.5104232
-0.93318421 0.20511222 3.8454401
-1.1993158 -0.085419223 3.5109394
-0.80467099 0.0029036221 3.2840877
-1.3814857 0.77683699 3.3048503
-1.3305256 0.72160888 3.3280318
-1.0934161 -0.032808866 3.5175443
-1.0696421 -0.076660179 3.6424627
-0.99390084 0.34969178 2.6151216
-1.6598334 0.06401407 3.3407946
-0.75230283 0.23704746 2.7954907
-0.91871524 0.22820218 2.7681713
-0.83156574 0.34476081 2.6081896
-0.93507034 0.51983213 2.2626197
-0.7731964 0.36144736 2.4705553
-1.2280732 -0.048890859 3.5427659
-1.0859313 -0.27474952 3.3923354
-1.7133373 0.070361786 3.3171253
-1.1202418 -0.11187891 3.5616412
-0.99593413 -0.42807063 3.4309008
-1.1120204 -0.07917621 3.5910082
-1.2663261 -0.032328244 3.5324862
-0.35471168 0.60228992 2.01056
-1.4901959 0.04045539 3.2832057
-1.46883 0.016051963 3.4425635
-1.4962243 0.028255733 3.429878
-1.2973871 -0.038417585 3.439754
-1.49466 0.032575693 3.2699871
-1.0257045 0.30364427 3.8319402
-0.63732624 -0.27028036 3.7977245
-0.63998163 -0.27365318 3.8017929
-1.0539423 0.12130473 3.0019145
-0.94831306 0.17639886 3.8354266
-0.93929344 0.16876245 3.8300192
-1.2384608 -0.06677369 3.5448163
-0.62373745 -0.27258322 3.7896965
-0.93740058 0.20323737 3.8461807
-0.62062293 -0.17977312 3.8365805
-1.1151146 -0.3002975 3.4021697
-1.013122 -0.42380401 3.396204
-0.62433618 -0.059183888 3.8951263
-0.852961 -0.27854013 3.651593
-0.78241032 -0.21074705 3.653918
-1.0062928 -0.18544884 3.6015072
-0.87934577 -0.37198451 3.2136078
-1.2610153 -0.054275241 3.3576226
-0.92920923 -0.20158784 3.6576052
-1.1455743 -0.081335343 3.4999955
-1.110433 -0.13138513 3.6099939
-1.2375045 -0.056084201 3.5523541
-0.99662519 -0.47359931 3.4022176
-1.1560845 0.2058163 2.9542713
-0.96582419 -0.4734112 3.3465724
-1.034729 0.28892085 3.8311143
-1.1692024 -0.094458073 3.4918821
-1.2630795 -0.037793525 3.5296988
-1.0143142 0.21397054 2.8400371
-1.3542731 0.7761898 3.3614302
-0.87828368 -0.35246888 3.2477548
-1.4669944 0.0029612924 3.4350586
-1.1504346 -0.26300514 3.4818122
-0.96255565 -0.50928646 3.3029823
-1.1316189 -0.20741422 3.523324
-0.96546757 -0.264604 3.3538015
-0.8150816 -0.28824991 3.6030133
-0.96192199 -0.26565748 3.3510129
-1.0273858 -0.29188654 3.630899
-1.2065918 -0.063885577 3.4820752
-1.0665294 0.38329607 2.569685
-1.076019 0.3464185 2.6070986
-1.1673294 -0.1083606 3.5783424
-1.3874631 -0.042784508 3.4753919
-0.99845225 0.38335571 2.3925974
-0.95158416 0.36206475 2.5477433
-1.2399491 -0.050266523 3.5496655
-0.96006393 -0.47978142 3.3223794
-0.91264874 0.36423251 2.3970056
-1.2827015 -0.017438984 3.4059994
-0.76377726 0.38001379 2.5931692
-0.93904442 0.096843034 2.9190493
-1.266468 -0.044655345 3.5272737
-0.60667735 0.53009993 2.1424294
-1.0151274 -0.42710462 3.4047039
-0.90542781 -0.44315392 3.2378974
-0.95389271 -0.09585613 3.5126233
-0.80471575 0.0048283525 3.2853746
-1.0938106 0.35222122 2.6231136
-0.91174388 0.10820051 3.0242848
-0.96578252 0.42519814 2.4386744
-1.2995807 -0.065361351 3.4035513
-1.1120561 -0.1310294 3.6100845
-0.72555006 0.27700862 2.6196406
-0.99471968 -0.43137178 3.4227464
-1.0589306 -0.1662007 3.4799199
-1.1841023 -0.08226648 3.5077198
-1.0003499 -0.42697912 3.4363842
-1.1201062 -0.10966013 3.5627754
-1.1188413 -0.10983466 3.5621107
-0.9397617 -0.20535229 3.6637788
-1.1403503 -0.14806621 3.4773221
-0.94759119 -0.19387892 3.664531
-1.1928898 -0.063231863 3.4686968
-1.0023626 -0.33477136 3.030695
-1.1251934 -0.11494363 3.5584586
-1.1364104 0.12802248 3.0283847
-1.0340809 -0.037730459 3.1416819
-1.1183827 0.081313141 3.0966344
-1.1106477 0.070607871 3.1023622
-0.90555334 -0.36678514 3.2783973
-1.0126505 -0.15706407 3.6218448
-1.0101391 -0.15311243 3.6223626
-0.98838115 -0.25152978 3.0790143
-1.0257176 -0.14695807 3.6448622
-0.9339022 -0.43648076 3.2978299
-0.94346511 -0.16205798 3.6745102
-0.87870753 -0.12503238 3.6831052
-1.0052352 -0.48202115 3.3968577
-1.1173273 -0.12543628 3.5991628
-0.86444312 -0.34017357 3.2199736
-1.2036194 -0.067492224 3.3519282
-1.0830272 -0.29290041 3.4203179
-1.2640578 -0.035936076 3.5353694
-1.1599755 0.11149016 3.0690687
-1.2750621 -0.044349331 3.5376642
-0.96788079 0.099150717 3.7738781
-1.1019017 0.12028267 3.0521708
-1.1007614 0.12657656 3.0500021
-1.1424638 0.13654004 3.0439601
-0.94046348 0.16547568 3.8297222
-1.091462 0.11331168 3.0251515
-1.2097601 -0.070720099 3.354435
-1.054788 -0.041141514 3.1695368
-1.1560794 -0.11613676 3.4747722
-0.90250099 -0.35967946 3.2507029
-1.1307597 -0.096592978 3.4692235
-1.0461564 -0.23900767 3.4116862
-1.1606534 -0.093887217 3.4982076
-1.078822 0.084625319 3.1706541
-1.4269 -0.056392729 3.4633539
-1.0792514 0.19772957 2.9021597
-1.4565507 0.011451831 3.3148406
-1.4659237 0.020072104 3.4396791
-1.0117991 0.23451294 2.8655992
-0.80513847 -0.18376988 2.7276754
-0.96883899 -0.26078898 3.3697424
-1.2637471 -0.033220127 3.5359983
-1.1198764 -0.29110026 3.405642
-0.22113986 0.27998325 4.2212563
-0.9553417 -0.26835713 3.6271579
-1.4648401 0.002479159 3.4358718
-0.9288134 -0.4490951 3.2439692
-0.97295499 -0.46283564 3.3604357
-0.43361425 0.5635668 2.0880802
-0.50059408 0.2902202 2.3865769
-0.35017335 -0.31952807 3.6063657
-0.30983093 -0.31976929 3.625788
-0.9450267 0.15685579 2.8722363
-0.84563744 0.25006738 2.8042369
-0.55708015 0.39761573 4.1045246
-0.27394637 -0.25870386 3.6871762
-0.93314797 0.26935884 2.7400305
-0.81321567 0.22409196 2.8466203
-0.97797465 -0.53173715 3.3761232
-0.75836784 0.23399433 2.7980075
-0.8244316 0.32486501 2.5848591
-1.4558413 0.019051176 3.2739272
-0.82889664 0.32189375 2.6392171
-1.1413642 -0.089822382 3.579428
-0.92046303 0.30834749 2.5386736
-0.76512605 0.36698127 2.4234595
-0.78187007 0.34614381 2.4763813
-0.7976898 0.32821393 2.4653542
0.056936294 -0.41702509 3.5609868
-0.59675604 0.48184007 2.2787566
-0.2432089 0.27633634 4.2104964
-0.99782729 -0.53813553 3.4667959
-0.89260942 0.14092734 2.659399
-0.64364469 0.33489031 2.4402826
-0.58536947 0.36113176 2.4204175
-0.52939808 0.3494654 2.4398413
-0.50818932 0.36097449 2.4311924
-0.6499995 0.54074967 2.1262426
-1.4728231 0.018826982 3.4459076
-1.1848203 -0.12934531 3.5843256
-0.28851771 0.50596637 2.2718592
-0.97212332 -0.56437808 3.4814606
-0.86582148 -0.32854363 3.2157643
-1.191281 -0.093172193 3.3934455
-1.1230214 -0.14167435 3.4559488
-0.96539932 0.055353023 3.7525437
-1.038152 -0.051671669 3.1356423
-0.93916214 0.19920284 3.8452585
-1.092393 0.17391758 2.9484766
-1.0104065 -0.51343775 3.391315
-0.95236522 -0.22800198 3.6469676
-1.6760602 0.058517486 3.3394411
-0.7889452 -0.04055161 3.051887
-0.92723989 0.15394075 3.0234537
-0.42923346 -0.2938427 3.8196561
-0.88601899 0.040474083 3.1558392
-0.98109239 0.082540557 3.065201
-0.95841497 0.17532651 2.9037657
-1.1801636 0.092037208 3.0843213
-1.0682106 -0.16171853 3.5264242
-1.042034 -0.030478425 3.1675451
-0.86931717 -0.083315894 3.7383752
-1.0612611 -0.12272198 3.6319108
-1.1240001 0.077598743 3.0792968
-0.63907415 -0.22514413 3.8110874
-1.0705183 0.09632206 3.1256783
-0.64048874 -0.22555725 3.810847
-1.1566955 -0.11625529 3.5780299
-0.99972582 -0.47586134 3.4018612
-0.64532065 -0.2234125 3.8090224
-0.61454856 -0.19897692 3.812073
-0.89376187 -0.42574432 3.1974614
-0.90098321 -0.41845992 3.2677526
-0.94745451 -0.39840949 3.3410954
-1.1618007 -0.098474704 3.5010929
-1.1259724 0.11282856 3.0793631
-0.86862516 -0.078257896 3.7445579
-0.85148442 -0.051958464 3.7518926
-1.0895076 -0.27813435 3.3943918
-0.86447674 -0.076159686 3.7391491
-0.9856047 -0.55482572 3.2915733
-1.0514133 0.26187322 3.8100846
-0.93969959 0.17693186 3.8261318
-0.97522348 -0.31031716 3.5909066
-1.198862 -0.06048771 3.4799631
-0.92516142 0.18697681 2.8768635
-1.0864162 -0.11600292 3.622143
-0.89116001 0.10916299 3.0124187
-0.98883879 -0.51413548 3.3297634
-1.2246177 -0.097341463 3.4392085
-0.6094653 0.36223561 4.0886893
-0.9000423 0.37942073 2.3875442
-0.92772627 0.22455293 2.773567
-1.0308208 -0.58919215 3.4083238
-0.94668198 -0.24576448 3.6376994
-1.095346 -0.29467288 3.4221427
-1.0625715 -0.27611637 3.3824086
-1.299746 -0.028596664 3.4226317
-0.96920627 -0.3143858 3.5827374
-1.1603969 -0.27056175 3.4820023
-0.43140453 0.57106817 2.0871894
-0.99143696 -0.51936495 3.3063872
-0.99973106 -0.26527572 3.3892248
-0.138412 0.97437322 1.4335783
-1.0072212 -0.58552355 3.4450588
-0.9805252 -0.31090531 3.591275
-0.51160264 0.7177043 1.7835873
-0.47300017 0.7335512 1.7314802
-0.19101483 0.47648236 2.1765471
-0.27013707 0.83604437 1.5941164
-1.0352621 -0.051577408 3.1699388
-1.1055952 0.071837477 3.1928742
-1.1317166 0.068914421 3.1035373
-1.075539 0.1534624 3.049912
-1.1271669 0.094340563 3.0833578
-0.9551096 0.17963384 3.8224468
-0.64453608 -0.28091174 3.7970896
-1.1131451 0.1094154 3.0535731
-0.94818676 0.18379335 3.8350604
-1.1619684 0.21159312 2.9506874
-0.99712312 0.082123794 3.1731429
-1.1594555 0.21890689 2.9382038
-1.0999646 0.17270723 2.938139
-0.96609366 0.10211906 3.0822632
-1.4926053 0.039004609 3.3042059
-1.388763 0.7583583 3.3127029
-0.97135764 0.093408622 3.0633051
-0.60906935 0.10748451 3.97241
-0.46842283 -0.30691662 3.7742345
-0.40945095 -0.29161072 3.7730033
-0.82494676 0.04538893 3.112406
-0.88908696 0.36037844 3.9194751
-1.0130343 0.11776527 3.0169168
-1.0321177 0.10971409 3.0263913
-0.98281437 0.27787039 2.7999282
-1.0249249 0.10965727 2.9872479
-1.0745131 0.06171212 3.0151191
-0.62689006 0.25616986 4.0506444
-0.99913692 0.13297711 2.9628899
-0.33891168 -0.21153829 3.6737506
-0.13055505 -0.28060415 3.6523254
-0.86678398 -0.38401994 3.196564
-0.76984811 -0.021364193 3.041019
-0.98662877 0.2773349 2.7324288
-0.93044162 0.32584879 2.6958811
-0.7604121 0.051276289 3.0755439
-0.92997473 0.38142169 2.5244634
-0.84159273 0.16057855 2.9103215
-0.91003406 0.20263454 2.8170648
-0.87860978 0.2276471 2.78756
-0.85077459 0.32488009 2.5775845
-0.80779719 0.35150844 2.6068938
-0.97355807 -0.30415082 3.579977
-1.018492 0.20330845 2.8487914
-1.0436279 0.088021472 3.0366101
-0.80096483 -0.0068458999 3.082181
-0.91558731 0.12977466 3.0178778
-0.87912947 0.16199751 2.9902792
-0.77847832 0.086484149 3.1109002
-0.81599545 0.065418601 3.1507018
-0.95988995 0.18688218 2.8673131
-0.9821592 0.13062209 2.9564953
-0.95624548 0.24650338 2.7587988
-0.89245147 0.15432346 2.9646688
-0.3472105 -0.27387601 3.5951662
-0.33101532 -0.25626513 3.6234467
-0.34663066 -0.27080396 3.5976062
-0.33436242 -0.26170942 3.6222825
-0.3747493 -0.22117646 3.6750329
-0.33515877 -0.2399831 3.6592002
-0.99061275 0.25125352 2.7557971
-0.96866184 -0.5514316 3.486192
-0.89477772 0.15135925 2.9266126
-0.98276323 0.34043199 2.6469972
-0.77641094 -0.029709991 3.0452068
-1.506018 0.0064686672 3.2964623
-0.2903167 -0.23640145 3.6889203
-0.65234333 -0.15757123 3.8482683
-0.86121953 -0.26250142 3.6596823
-1.239128 -0.035573263 3.5517063
-0.79882675 0.18635924 2.8247027
-0.79687613 0.16544293 2.8227813
-0.92229277 0.33210579 2.5153291
-0.82524318 0.3237586 2.5923886
-1.0986955 -0.29395682 3.4268916
-0.24612053 0.24846518 4.2630591
-0.25927326 0.24029565 4.2545552
-0.34886178 0.19189869 4.1997495
-1.2693477 -0.071799092 3.4026852
-1.094156 -0.29707384 3.423671
-0.69511563 0.53332675 2.0795689
-0.9776361 -0.2967436 3.5935309
-0.60436356 0.52891964 2.1335657
-0.62250167 0.58767766 1.9852124
-1.1767647 -0.24276204 3.4529946
-0.49929428 0.6286577 1.9121
-0.87840742 -0.14158316 3.6824553
-0.41149998 0.64492339 1.8556991
-1.0660719 0.2153495 2.8818424
-0.79938525 0.070806026 3.1176457
-0.81294012 0.071751513 3.1498291
-0.81145293 0.35051399 2.6052432
-1.0134584 0.33165777 2.4160845
-0.74726194 0.38278008 2.4138408
0.038342491 -0.23637788 3.6587558
-0.65372491 0.36092332 2.5557668
-1.1784261 -0.24362037 3.4490902
-0.55075777 0.29777959 2.3622115
-0.51592273 0.34786546 2.347892
-0.51441425 0.33706832 2.3412058
-0.64659476 -0.11855267 3.861887
-0.9259184 0.32002389 2.5265326
-1.1714463 -0.088194184 3.5186994
-0.3610799 0.59988654 2.0090573
-0.9936825 -0.4446986 3.4151688
-1.1069959 -0.12900545 3.6092303
-0.85017598 0.37954509 2.4648747
-0.47614282 -0.30195454 3.5874157
-0.36844668 0.31128591 4.1493974
-0.77022648 0.36171913 2.4554248
0.090111822 -0.1473505 3.525878
-0.24194229 -0.26631275 3.5442622
-0.80630565 0.22729908 2.6785316
-0.68723178 0.4048579 2.3948197
-0.89281201 0.6097964 2.1349499
-0.53541064 0.36548385 2.4806497
0.17098773 -0.27439207 3.5598567
0.27146772 -0.24507734 3.5544031
0.10684846 -0.19745407 3.5801337
-0.18902484 -0.26213959 3.5891116
-0.32417139 0.44246861 2.3010786
-0.48166478 0.67404795 1.8613033
-0.51947004 0.6710304 1.8149318
-0.37649316 0.58782595 2.0157883
-0.36556721 0.56818658 1.827216
-0.33858216 0.79105401 1.6792365
-0.35080913 0.61721432 1.8571084
-0.40609437 0.37048584 2.302669
-0.37684968 0.36038101 2.2696593
-0.9802615 0.28782123 2.7305856
-1.2381672 -0.063702516 3.5421524
-1.1665654 -0.25546697 3.4304438
-0.94519866 0.030002808 3.1234424
-0.79251933 -0.0023269879 3.0804737
-1.4968902 0.028163377 3.2731795
-0.80913091 -0.015721761 3.0846372
-0.97301143 -0.46931246 3.3833342
-1.0055822 0.17186193 2.8897376
-0.91994148 0.15769371 3.0206001
-0.99641573 -0.5210306 3.3725884
-0.79416203 0.037663635 3.1098523
-0.9960922 0.13552848 3.0055203
-0.7951268 0.081165954 3.1389654
-1.2042596 -0.063930295 3.4819813
-0.90745717 -0.41222247 3.2714896
-0.81638801 -0.06590388 2.7594082
-1.0455056 0.38915849 2.6309154
-1.4538836 0.013142282 3.2890279
-1.2376907 -0.043112241 3.5510302
-1.1855415 -0.04357902 3.3473456
-0.995116 0.20122349 2.8411331
-0.4546541 -0.25916386 3.7593138
-0.44903946 -0.26020834 3.7585139
-0.92581642 0.1954702 2.8486431
-0.42587492 -0.25475648 3.7439969
-1.2162185 -0.070358194 3.4863856
-0.94209641 0.22550625 2.7947128
-0.41498083 -0.2464332 3.7316942
-0.99825829 0.12749095 2.9642067
-0.97744274 0.22507656 2.7775347
-0.90622395 0.20135669 2.8141406
-0.60628533 0.17683707 4.0049148
-0.8911472 0.36901075 2.6611748
-0.22424619 -0.29147989 3.6874366
-0.26099241 -0.3048597 3.6858525
-0.28960007 -0.26193017 3.6910732
-1.0030663 -0.43294704 3.4313931
-0.29069266 -0.3278397 3.6467147
-0.8325457 0.33981624 2.6454771
-0.32634079 -0.33189145 3.6299918
-0.96905893 0.32104132 2.5786946
-0.66664994 0.43666264 2.6162105
-0.74590153 0.21601452 2.770211
-0.28267127 -0.29394087 3.6169209
-0.32889798 -0.31539884 3.6118877
-1.0452036 -0.098234497 3.5324438
-0.87274855 -0.38457197 3.1987643
-1.3718191 -0.0559396 3.4869614
-0.87948596 -0.41199622 3.1878431
-1.2192601 -0.09180706 3.4349489
-0.89826554 -0.38537613 3.2468684
-0.8768332 -0.41116408 3.1896224
-1.4916687 -0.0023315216 3.4272218
-0.87135732 -0.38265631 3.1980119
-0.87334841 -0.38502419 3.1995702
-0.97195959 -0.57822907 3.4739318
-0.65573961 0.41312268 2.3254082
-0.39660463 0.57137251 2.0461285
-0.34830463 0.58405399 2.0415056
-0.29794341 0.24726377 4.2661204
-0.80046892 0.10092464 2.8248627
-0.57219005 0.63537771 1.9288377
-1.0931156 0.13934696 2.9961681
-1.1025963 0.16947787 2.9468122
-1.4301863 0.010164081 3.3023944
-0.93456697 0.51859337 2.2654686
-1.2461017 -0.079099365 3.3895845
-1.2373981 -0.061515953 3.5460665
-1.1130002 0.13866024 2.9965129
-0.92945248 0.17523804 2.8885524
-1.2677881 -0.066860907 3.3627408
-0.89914811 0.085335918 2.9198375
-1.4411306 0.01454213 3.3217237
-0.8713271 -0.3494845 3.610991
-0.6814611 0.4969953 2.1677322
-1.1116077 0.15259573 2.9960163
-1.2421558 -0.064180836 3.3566318
-0.79679567 0.17288958 2.8838894
-1.0148845 -0.40748644 3.5155139
-0.84888494 -0.3421115 3.6109178
-0.92228472 0.3378042 3.9177036
-0.80205733 0.35162854 2.4548607
-1.2524251 -0.044691604 3.3562169
-1.018065 -0.15739176 3.5794764
-1.1647307 -0.077056892 3.4137869
-1.1138328 0.10181428 3.0780644
-0.8807866 -0.35173857 3.2387278
-1.2109545 -0.093221866 3.379705
-0.88222516 -0.20999458 3.6693013
