# .PCD v0.7 - Point Cloud Data file format
VERSION 0.7
FIELDS x y z
SIZE 4 4 4
TYPE F F F
COUNT 1 1 1
WIDTH 448
HEIGHT 1
VIEWPOINT 0 0 0 1 0 0 0
POINTS 448
DATA ascii
-1.1090769 0.22995512 2.8701918
-0.9942044 0.38834471 2.573072
-0.98433781 -0.34060928 3.2638617
-0.98463446 -0.34091255 3.262593
-0.94275588 -0.31326583 3.2029831
-0.99348015 0.38753605 2.5809181
-0.92678607 -0.32722604 3.1645141
-0.95493424 -0.31100911 3.1955769
-0.9255352 -0.32631645 3.1671133
-0.81754893 0.38072655 2.5324674
-1.0800018 0.24544786 2.83003
-0.82050979 0.40159845 2.543751
-1.0286155 -0.37470025 3.3322065
-0.798159 0.38719541 2.5135021
-0.9435643 -0.31389052 3.2056618
-1.0762349 0.41770524 2.5251412
-0.73319489 0.2854054 2.6702263
-1.0468063 0.1234017 3.1075234
-1.0070978 -0.4176884 3.265955
-1.1875551 0.19283226 3.0058362
-1.4552215 0.082309276 3.2051275
-1.1786627 0.26363733 2.8649619
-1.4567919 0.07963457 3.2049921
-1.1226928 0.18836358 2.9875298
-1.0985336 0.13650994 3.0934489
-0.32173902 0.55933636 2.0507925
-0.84648359 0.38289869 2.5135751
-0.93654031 -0.25448817 2.9397199
-1.250278 0.19746272 2.9961743
-1.0668467 0.27847084 2.8032537
-0.80991387 0.3812758 2.5258555
-0.51568717 0.82390052 1.6774297
-0.93293446 0.48415312 2.363888
-1.2423142 -0.022735251 3.4234879
-1.052403 0.017322827 3.0534682
-0.93424946 -0.32719037 3.188637
-1.1611131 -0.068975218 3.4650767
-1.1997616 0.05896483 3.2400746
-1.130248 -0.22226489 3.3132119
-1.101266 0.15799096 3.0517693
-1.5268254 0.087941393 3.3173428
-1.1778686 0.17557511 2.9717262
-1.0900648 0.1296092 3.0390422
-1.0283595 0.28472567 2.7719786
-0.97628945 0.32510176 2.6795061
-1.0021914 0.41489461 2.5005221
-0.7458207 0.28024361 2.6748352
-0.80132627 0.37645432 2.5027449
-1.6932234 0.16242459 3.2474878
-1.1084322 -0.22069144 3.2989008
-1.2277515 0.0024448042 3.2593408
-0.94174826 -0.41911519 3.0979283
-0.98589516 -0.20661068 3.5526397
-0.93019348 -0.37394169 3.1163263
-0.9102872 -0.23262817 3.5762279
-1.1495942 -0.077575564 3.5289178
-0.98347265 0.21346222 2.8454425
-1.4849554 0.08246471 3.1802897
-0.96171767 0.22853012 2.8028421
-0.86813104 0.093669355 3.0674269
-0.98642093 0.26721242 2.7552998
-1.5879388 0.060537573 3.2954266
-1.2795602 -0.0016190447 3.4518893
-0.85239881 0.13697819 2.7679825
-0.82174349 0.19606681 2.7652276
-0.6403327 0.31258327 3.9946821
-0.97860557 -0.38588396 3.235255
-0.96932817 0.33370769 2.6685181
-0.9667986 -0.41471234 3.4473922
-0.96273017 0.45475596 2.2961049
-0.76865262 0.27280244 2.7417307
-0.88986152 0.28100684 2.7077758
-0.72306806 0.29553548 2.6630025
-0.90445518 0.40146554 2.4409349
-0.7193929 0.34384188 2.5592477
-0.69089413 0.49042863 2.2646356
-1.1110171 -0.066288613 3.5475791
-1.174787 -0.082345717 3.3899846
-1.0268123 -0.25344917 3.5065379
-1.057744 -0.31267267 3.4282815
-0.89825839 -0.16533923 3.5845542
-1.1269495 -0.23333275 3.3357017
-1.0146432 -0.41518262 3.2658353
-1.202062 -0.021673258 3.423368
-0.97991514 0.25562429 3.7717111
-1.0920053 0.22936539 2.8509603
-0.83123219 0.055525668 3.2145984
-1.3873826 0.84470677 3.2176056
-1.3390439 0.78787917 3.2424741
-0.98014355 0.41394624 2.5415859
-1.6811416 0.13540068 3.2363963
-1.0447999 -0.43671975 3.3033006
-0.7527951 0.42108575 2.4073853
-1.1245286 -0.21538384 3.3068013
-1.7383152 0.14748786 3.206867
-1.1621904 -0.05331444 3.4761636
-1.0405514 -0.37148279 3.347729
-1.5256776 0.086538196 3.3164947
-1.3045903 0.030486789 3.4412558
-0.30729994 0.65491772 1.9696789
-1.5147357 0.11182435 3.1828396
-1.5013763 0.085273966 3.3427255
-1.5278212 0.098347209 3.328939
-1.3315113 0.026164977 3.3471406
-1.0382483 0.13371956 3.1036186
-1.0831181 0.17108378 2.9542775
-1.0654234 0.19082919 2.9366868
-0.69506139 -0.22719014 3.7322721
-0.69799054 -0.23052904 3.736177
-1.0640061 0.18348095 2.9226727
-0.6935702 -0.22943497 3.7389078
-0.99533421 0.22743578 3.760699
-0.98628426 0.21960922 3.7556245
-1.0445073 0.25599536 2.8584971
-1.2782568 -0.0048280982 3.4544616
-0.68118501 -0.22978453 3.7248476
-1.0412738 0.19899915 2.8918173
-0.9842099 0.2538583 3.7722375
-1.0442905 0.16798088 2.9244525
-0.68811381 -0.13822466 3.7734821
-1.1052079 0.24036725 2.8621459
-0.69016653 -0.1405859 3.7722201
-0.6777342 -0.13756162 3.7728531
-1.1548091 -0.24021971 3.3150086
-0.68883336 -0.14034264 3.7723203
-0.85389537 0.084968351 3.2005317
-1.0049245 0.18777198 2.8891637
-0.99642229 0.19359763 2.8858342
-1.0289861 0.17302273 2.8961592
-0.91160923 -0.22568937 3.5770864
-0.91003436 -0.18625058 3.5830843
-0.83173394 -0.16229361 3.5826623
-0.95247394 -0.36484966 3.1881332
-1.0858662 -0.10107637 3.562634
-1.1536316 -0.014260692 3.3814099
-1.2918445 0.010129585 3.2665839
-1.0374167 -0.26267391 2.9554787
-1.1996313 -0.027539069 3.4094865
-0.98437697 -0.4595159 3.2171106
-1.2773608 0.0057563148 3.4621537
-1.0411475 -0.41669023 3.3185399
-1.6893487 0.10399152 3.2387931
-1.0784055 0.34231684 3.7536967
-1.207409 -0.033873055 3.4044399
-1.0082556 0.27795014 2.7651494
-1.2049594 -0.049081314 3.4941323
-1.4995503 0.072212689 3.3351672
-1.0405061 -0.25861531 3.5001481
-1.0035269 -0.45231497 3.2205729
-1.1743588 -0.14811991 3.4363077
-1.0774854 -0.23646973 3.5475838
-1.209884 -0.048674252 3.490736
-1.2795221 0.011664947 3.4594209
-1.0563493 -0.31066504 3.4277253
-0.88859636 0.42841062 2.3275816
-1.3048241 0.018220231 3.4359055
-0.56690633 0.58834988 2.0890977
-1.284265 0.0083762361 3.4609182
-1.0584881 -0.36973357 3.3206954
-0.99339479 -0.041365515 3.434972
-1.5257931 0.094302356 3.3279946
-0.83128428 0.057438105 3.2159033
-1.0327375 -0.39144418 3.3205006
-1.0571882 -0.46537259 3.287281
-0.97706449 -0.1571843 3.5710645
-0.9233889 0.16627133 2.9513645
-0.78561449 0.24265948 2.742131
-1.332763 -0.00035008375 3.3105783
-1.1567565 -0.073158868 3.5247145
-0.71433413 0.33390787 2.557543
-0.98455274 -0.15644942 3.575525
-1.007543 -0.24624044 3.5056913
-0.30367482 0.62457395 1.7821747
-1.2226877 -0.021435311 3.4197156
-0.39278087 0.61655116 1.8957208
-1.5061698 0.087902829 3.216501
-1.0451833 -0.37032509 3.3530169
-1.1607585 -0.051314 3.4767191
-1.2291585 -0.0017832086 3.3805459
-1.2635077 -0.047960099 3.3046393
-0.71418756 -0.24294671 3.0946019
-0.9576391 -0.20799486 3.5677421
-1.0260792 -0.27409735 2.9487083
-1.0548674 0.022590261 3.0614254
-1.1266078 0.13336548 3.0198576
-0.92031664 -0.034367554 3.6643813
-1.0561414 -0.098141901 3.5413861
-1.0761269 -0.097911626 3.5458906
-1.2531561 -0.027912488 3.3784997
-1.1335895 -0.010864482 3.3805621
-1.0070747 -0.20814472 3.5533018
-1.0836333 -0.10060426 3.5572982
-0.99219775 -0.10942236 3.5964205
-1.1613681 -0.067316107 3.5136261
-0.8971951 -0.28513843 3.1440141
-1.123402 -0.23388267 3.3346839
-1.3302082 0.035904214 3.3277221
-0.98019212 -0.29919118 3.5046945
-1.1939712 0.17908451 2.9760375
-1.0351021 -0.22495809 3.3010392
-1.2569999 -0.038289327 3.3403361
-1.1142335 0.18327537 2.9706728
-1.1558826 0.18280579 2.9536092
-0.98752737 0.2163588 3.7552378
-1.2409574 -0.0076790606 3.2655571
-1.1941012 -0.05573272 3.3877072
-1.0847385 -0.18093622 3.3283436
-0.91320652 -0.015183706 3.6831818
-1.1991472 -0.033598751 3.411155
-1.1189436 0.16117418 2.9879801
-1.0826428 0.26155037 2.8227222
-1.483371 0.081600405 3.2156529
-0.70200807 -0.089822032 3.7865989
-1.4982337 0.089241371 3.3400216
-1.0515383 -0.51111203 3.3661106
-0.93315935 -0.34491345 3.1335015
-1.3022004 0.02949007 3.4448719
-0.63706285 0.31802377 2.5622425
-0.28413129 0.307275 4.1804504
-0.65721571 0.59462339 2.0805924
-1.0068809 -0.47463921 3.4176669
-0.57128656 0.68158239 1.9299819
-0.25952512 0.55894119 1.978081
-0.48560992 0.6602416 1.9272552
-0.39069244 0.61760443 2.043081
-0.41704866 0.80247116 1.7086151
-0.46817684 0.7790159 1.6839679
-0.47863579 0.34325987 2.3351531
-0.2326698 0.83844012 1.6363178
-0.22399566 0.91070193 1.571838
-0.19907728 0.85820061 1.6015722
-0.36146224 -0.28392059 3.5749261
-0.61107165 0.43520021 4.0498185
-0.32680726 -0.22446856 3.6385634
-0.93506116 0.43780574 2.4796824
-1.0253354 0.39396575 2.5085378
-0.81019157 0.38479242 2.5188177
-0.81722713 0.3814081 2.5728786
-0.81508034 0.42766386 2.4208643
-0.76213539 0.40596846 2.4126389
-0.77790803 0.38858777 2.4007027
-1.1651902 -0.0091293193 3.4428337
-0.30577275 0.30433956 4.168654
-0.88664043 0.20206204 2.588119
-0.48636815 0.41375169 2.3801589
-0.30488402 0.54765868 2.254811
-0.41147557 0.54142815 2.2027175
-1.2248999 -0.031012204 3.3051186
-1.1609118 -0.081978105 3.3701301
-0.98603505 0.24988274 3.7711911
-1.0985335 0.23765084 2.8681233
-1.7024345 0.13440853 3.2307281
-0.80603015 0.01395028 2.9828892
-0.99520838 0.14211559 2.9887846
-1.2588646 0.19174542 2.9994068
-0.91897237 -0.033372369 3.664475
-1.1367363 0.11225708 3.0396943
-1.1770936 -0.15492304 3.3637605
-1.1386938 0.14094633 2.9962859
-0.69620758 -0.18215705 3.7460418
-1.0869151 0.15774085 3.0452657
-0.69762027 -0.18252893 3.7457325
-0.70230383 -0.18023489 3.7437134
-0.67105877 -0.1566816 3.7484367
-1.1472681 0.19003734 2.9280128
-0.92352271 -0.29072618 3.1769514
-0.92773801 -0.36964872 3.1192374
-0.93798232 -0.36286357 3.1892023
-1.1567013 -0.15246662 3.4039061
-1.0040492 -0.47740516 3.4139113
-0.98721796 -0.34227416 3.2605655
-1.2005489 -0.038181387 3.4139338
-0.91398197 -0.026359247 3.6655486
-1.0272431 -0.4970918 3.2076182
-1.0855265 0.33906183 3.750581
-0.98629171 0.22782467 3.7518137
-1.23115 -0.031214578 3.3638186
-1.028176 -0.45712453 3.4274702
-1.0223134 -0.25552413 3.5095921
-1.0344146 -0.43512136 3.2992413
-0.95899528 -0.4234181 3.1982112
-0.90226322 0.16678739 2.9404619
-1.0758647 -0.53080797 3.3222618
-1.2604038 -0.034719355 3.3492627
-0.66360611 0.40142444 4.0312161
-1.5029476 0.090007372 3.156775
-1.0786819 -0.5313589 3.3217938
-0.99596888 -0.19264215 3.5585732
-1.5978358 0.23679051 2.9753332
-1.1358347 -0.23533539 3.3359244
-1.0765316 -0.53140324 3.3219481
-1.1007829 -0.21729119 3.2979367
-1.0901663 -0.21631712 3.2950943
-1.1279062 -0.20895244 3.3262539
-0.43537012 0.56022441 2.0934184
-1.0380532 -0.20824157 3.3077347
-1.1736995 -0.22723715 3.3260839
-1.1380373 -0.067778654 3.529294
-0.077773705 0.90472466 1.3416252
-0.045043703 0.92460799 1.3146572
-0.26885918 0.50892574 2.2564108
-0.45044032 0.77681547 1.737077
-0.40907305 0.79211384 1.6869658
-1.0577171 0.0085026044 3.0894432
-0.70251763 -0.2376135 3.7311907
-1.0965931 0.15530157 3.0506489
-1.4953839 0.08950606 3.1718647
-1.105652 0.23675019 2.8574378
-1.5181454 0.11023284 3.2036903
-0.89963573 -0.32867116 3.1200361
-0.79487467 0.14006354 3.0437264
-0.81345832 -0.14981769 3.6848361
-0.96214139 0.24778607 2.7932425
-0.98998779 0.19127885 2.8806844
-0.39614868 -0.2367219 3.5431416
-0.39559919 -0.2336911 3.5456395
-0.38423747 -0.22517958 3.5709498
-0.98596787 0.31407127 2.6811626
-0.45539561 -0.25420985 3.5496593
-0.7929154 0.024510337 2.9769092
-0.26386285 -0.25804603 3.5675187
-1.4845436 0.11451168 3.1460357
-0.87296551 0.29646704 2.6962438
-0.79936314 0.24327764 2.7580261
-0.79788911 0.22233579 2.7559636
-0.79842907 0.21748947 2.750057
-0.73954779 0.28204244 2.6686316
-0.81639308 0.21066096 2.8255768
-0.90452552 0.39539355 2.4449773
-0.77451962 0.41913423 2.3848307
-0.81137764 0.38363436 2.5262895
-0.72301459 0.34327665 2.5669458
-0.31835148 0.30177858 4.2348208
-0.31184387 0.27604109 4.220716
-0.32480693 0.26831874 4.2115307
-0.41305161 0.22293408 4.1521573
-0.18808661 0.35388148 4.2288857
-0.53611445 0.28124148 2.2899709
-0.48857525 0.42125279 2.3712125
-0.6075719 0.69657457 1.9581971
-1.302706 -0.0076036407 3.3110216
-0.67762971 0.60755676 2.0667543
-0.70197362 0.60002816 2.0635459
-0.65224499 0.59461516 2.0223053
-0.45383784 0.69012028 1.8910758
-0.57393879 0.64788783 1.9319719
-0.4626666 0.68154991 1.901306
-1.2171602 -0.18152362 3.3636024
-0.45995191 0.74673378 1.7831169
-0.35393292 0.76599145 1.7729617
-0.92704701 -0.090814412 3.6075544
-0.4465723 0.36192998 2.3103406
-0.35574818 0.70061505 1.8128703
-0.92161167 -0.036018308 3.6641414
-0.8164832 0.12489742 3.0493362
-0.73730236 0.39065811 2.473155
-0.52740592 0.35242888 2.3086085
-0.70318633 -0.075906307 3.7976265
-0.7210201 -0.22034977 3.725523
-0.90898538 0.38330537 2.4558687
-1.2107133 -0.0278151 3.431195
-0.31365472 0.65270436 1.9678603
-0.82891822 0.44133782 2.3983982
-0.79901654 0.28584737 2.6121299
-0.32967949 0.64100415 1.9737464
-0.31063452 0.62293524 1.7856628
-0.29595283 0.67124343 1.8167406
-0.37825832 0.42173439 2.2565436
-1.2777587 -0.001739964 3.4518483
-0.80988503 0.051974379 3.0117059
-1.5212903 0.099819623 3.1723821
-0.9722566 0.22148667 2.8402579
-0.82702428 0.038998626 3.0149577
-0.78676456 0.059824254 2.9990082
-1.0092026 0.23380089 2.8133893
-0.80949163 0.086594038 3.0310562
-0.80682039 0.093188904 3.0327764
-0.93007547 0.21600424 2.9478595
-0.47150296 -0.25671074 3.7664049
-0.81180018 0.091703072 3.0414217
-0.82541186 0.080165945 3.0440454
-0.81293172 0.13492605 3.0709417
-1.2411412 -0.0023014117 3.3932889
-0.95654577 0.25521901 2.7867455
-0.82068002 -0.0077539203 2.689199
-1.03134 0.45465213 2.555445
-0.51469457 -0.22206639 3.701601
-0.51058495 -0.22069666 3.7023666
-0.5049696 -0.2218864 3.7018123
-0.88230026 0.092480145 3.0667899
-0.90945345 0.19504161 2.9281454
-0.90847653 0.18801568 2.9377499
-0.92702764 0.25562257 2.7762439
-0.4810245 -0.21692729 3.6884291
-1.2534583 -0.0084428936 3.3970709
-0.94 0.28662354 2.7219639
-0.93991971 0.26645502 2.7471328
-0.46935701 -0.20878413 3.6767302
-1.0065025 0.18851334 2.8876176
-0.90571982 0.26131108 2.7427394
-0.9220674 0.25146726 2.7490354
-0.81324548 0.17670555 2.7461343
-0.66156512 0.21684414 3.9456189
-0.76590067 0.3201052 2.7827215
-0.27807036 -0.25859296 3.6407282
-0.31505135 -0.2709462 3.6373196
-1.2399459 -0.037459429 3.3704145
-0.34270447 -0.22730371 3.6417055
-0.90011483 0.16986986 2.8808031
-0.33090878 -0.19413777 3.6351476
-0.33695769 -0.19875374 3.6374123
-0.32307667 -0.28347945 3.6144266
-0.39167947 -0.30346346 3.5952418
-0.34352928 -0.29271773 3.5966136
-0.82067692 0.39936101 2.5791645
-0.37846759 -0.29562744 3.5782368
-0.95443356 0.3849878 2.5060148
-0.65106899 0.49191687 2.5585797
-0.33323956 -0.2587586 3.5675957
-0.37974623 -0.27889317 3.5602193
-1.2547092 -0.029291835 3.345314
-0.91008139 -0.35546038 3.1123419
-0.90423244 -0.32719731 3.121289
-0.90635598 -0.32952508 3.1227283
-0.55310553 0.60458666 2.064889
-0.35159835 0.62480837 2.0029521
-1.4565067 0.079714775 3.2044098
-1.1782461 -0.0046135159 3.3124976
-1.2790874 -0.015407477 3.2989156
-1.2771118 0.00038600885 3.4558175
-1.2587414 -0.0040285736 3.3000467
-1.7502664 0.12633424 3.2014074
-0.9055723 -0.22521481 3.5774162
-1.1222656 0.20249808 2.9147742
-0.21804391 0.58655941 1.9651383
-0.93303561 0.23510456 2.8157184
-0.93258327 -0.26095638 3.5535755
-1.221836 -0.024832001 3.3052535
-0.9222815 -0.29811618 3.5341821
-0.21546759 0.54481918 2.204133
-0.1982168 0.59876794 1.9671947
-1.2732323 -0.00027798305 3.266345
-1.0628084 -0.35122398 3.4316123
-0.96878427 0.38724875 3.8458669
-1.2297266 -0.019475687 3.2900569
-1.1278335 0.16488564 2.9957881
-0.91468781 -0.29643652 3.1618731
-0.93209368 -0.15896264 3.5934806
