# .PCD v0.7 - Point Cloud Data file format
VERSION 0.7
FIELDS x y z
SIZE 4 4 4
TYPE F F F
COUNT 1 1 1
WIDTH 416
HEIGHT 1
VIEWPOINT 0 0 0 1 0 0 0
POINTS 416
DATA ascii
-0.77268344 -0.54457778 3.8187332
-0.78158367 -0.54200238 3.8123994
-0.51314682 -0.83473712 4.5612321
-0.48506206 -0.68866009 4.2502036
-0.50022358 -0.83073974 4.6937771
-1.190733 -1.0896884 4.3848534
-0.84221375 -0.82019717 4.5118937
-0.022667825 -0.74075949 4.6205711
0.074667484 -0.41281709 4.7148542
-0.5392257 -0.6977126 4.2681456
-0.69943482 -0.14335963 4.5573821
-0.34634495 -0.55245829 3.8240738
-0.99786425 -0.84334511 4.5485258
-0.57998157 -0.83371198 4.5822535
-0.32055935 -0.8115074 4.5927687
-0.3053996 -0.85027397 4.4990215
0.4558095 -0.73737824 4.4910526
-0.20792054 -0.79776573 4.6421456
0.077401504 -0.38986266 4.7232018
0.24451913 -0.75562716 4.457386
-0.15861471 -0.78831649 4.5508852
-0.052443679 -0.80167145 4.6171346
-0.66656351 -0.89050996 4.733777
-0.7759673 -0.1085124 4.5702329
-0.87949187 -0.72917181 4.3362889
-0.96744573 -0.89909041 4.4852314
0.1662966 -0.84495091 4.5211501
0.17757264 -0.65288329 4.5832901
0.17987344 -0.78014362 4.5242395
0.59673554 -0.60550922 4.1880484
0.07804589 -0.42475161 4.7104583
0.23479524 -0.82244992 4.3812771
0.061869215 -0.97177804 4.5260315
0.20744267 -0.90187889 4.432693
0.17816146 -0.65148199 4.5825858
0.22374725 -0.86329472 4.4826403
0.011518914 -0.41065398 4.7322898
0.44093624 -0.69181061 4.5001473
0.19906084 -0.88929588 4.4906812
0.070760012 -0.41354418 4.7195759
-0.56956029 -0.83187264 4.6006088
0.57994008 -0.71530098 4.3669457
0.22656611 -0.69450265 4.5118499
0.57732779 -0.67300266 4.1526432
0.58875889 -0.63042945 4.1990428
0.59876209 -0.60789186 4.1922812
0.16287811 -0.71889085 4.5398402
0.17720224 -0.65489542 4.5838132
-0.7582913 -0.068052188 4.5980086
-0.058027446 -0.75231385 4.4425263
0.16390444 -0.84634018 4.5217738
0.42455301 -0.58522373 4.5509133
-0.21024746 -0.41180974 5.0195208
-0.32078475 -0.80879152 4.596529
-0.0544848 -0.89748025 4.363256
-0.30349189 -0.48695531 4.9043465
-0.7642808 -0.041110042 4.5819697
0.1313418 -0.78228682 4.5513391
-0.92723268 -0.027843991 4.3359332
0.31061694 -0.72346234 4.3108573
0.61691481 -0.68283802 4.1216044
0.13020766 -0.80479729 4.550231
-0.060125634 -0.76876354 4.5099902
0.17728974 -0.64724255 4.5824308
-0.065302745 -0.80647451 4.49928
0.52554131 -0.46613178 3.6866615
0.32181469 -0.73187584 4.249773
0.093633763 -0.91400737 4.504756
0.17589532 -1.0135139 4.2053151
0.18096076 -1.0137837 4.2060328
-0.75427532 -0.25766453 4.9878006
0.25015628 -0.9762435 4.2246027
0.32083532 -0.81256795 4.2572842
0.53537852 0.083142027 4.231267
0.32484999 -0.61980486 4.135776
0.66279167 -0.68379998 4.314476
0.3124041 -0.83656359 4.2297354
0.6561079 -0.71085566 4.3355389
0.65845197 -0.70423537 4.3337293
-0.051246393 -0.7984615 4.6146197
-0.059904169 -0.77586192 4.5979357
0.26368836 -0.87658167 4.3063164
-0.85626358 -0.46596047 3.5455551
0.87321198 0.11860663 4.269875
-0.99114561 -0.17560725 4.4797544
0.11487803 -0.77906233 4.5519323
0.14550973 -1.2929283 4.3755751
-0.073328629 -0.96417052 4.4741998
0.77643734 0.12959957 4.1783724
0.22412428 -0.91945606 4.2883983
-0.060562715 -0.76522797 4.5091524
-0.02550588 -0.81263286 4.4822116
-0.10106322 -0.78720331 4.5798397
-0.93217784 -0.84659171 4.3963628
-0.84900862 -0.77446288 4.4694209
-0.13078368 -0.30703938 4.7877073
0.004504127 -0.33231884 4.7764897
-0.57837117 -0.83072132 4.5353622
-0.93689829 -0.87947911 4.4393015
-0.94730133 -0.94071096 4.3284578
-0.22156219 -0.78558177 4.6481309
0.4052892 -0.58506447 4.5234632
0.39924049 -0.59195316 4.5281429
0.10528956 -0.92316294 4.5134778
0.015246751 -0.19511797 4.8505201
0.40183207 -0.60888577 4.5183749
-0.75179726 -0.067327276 4.5866909
0.50278318 -0.56941843 4.0334473
-0.21036242 -0.79534185 4.6399603
0.57252073 -0.64957291 4.3041067
0.01263484 -0.73877841 4.5839334
0.62482136 -0.6704641 4.1315846
-0.058461327 -0.76588082 4.5127053
0.28614035 -0.73340583 4.4308214
-0.041307047 -0.13908651 4.8544164
-0.48231623 -0.69052833 4.2339892
-0.74069518 -0.23583542 4.9589772
0.11983942 -0.7518906 4.5680594
0.2316387 -0.95807016 4.3112326
0.12154224 -0.7450822 4.5646091
-0.74580383 -0.22608447 4.9407048
0.43862867 -0.56068856 4.0241709
0.40102476 -0.58035278 4.0530438
-0.70733422 -0.79070699 4.7169299
0.66113055 -0.64161474 4.3994689
-0.28497714 -0.4735496 4.944159
0.10348121 -0.92464465 4.5161161
0.42542326 -0.58312613 4.5461426
-0.93749171 -0.1967409 4.6123476
0.51571882 -0.33723441 3.5359535
0.21984355 -0.92985374 4.3073134
-0.99990427 -0.26824003 4.4563971
0.23058133 -0.91209364 4.2405667
-0.96237117 0.073370665 4.2051291
0.73214668 0.096829027 4.0035229
-0.10060245 -0.76054049 4.5983057
0.18974532 -1.0441297 4.1901617
-1.6812481 -0.13719496 3.1166215
0.63985026 -0.68097991 4.121573
-0.81259221 -0.80290544 4.4868507
-0.040497079 -0.4213838 4.8704505
0.024039902 -0.76846665 4.5704947
0.16929325 -0.9862988 4.1866102
0.35551232 -0.64308226 4.470233
0.23791659 -1.0752919 4.1507106
-0.97255951 -0.082648918 4.4749331
-0.95388967 -0.22154899 4.4851141
-0.32789448 -0.84720528 4.5680804
-0.8506614 -0.49490777 3.5630796
0.29022965 -0.73492455 4.4312673
-0.8075121 -0.82769197 4.5746317
-0.25818202 -0.76109034 4.4567027
0.27617794 -0.75407636 4.3492827
0.28723049 -0.88992393 4.2617822
0.31724545 -0.72571832 4.1863728
0.26406363 -0.87738264 4.3078923
-0.73481268 -0.22986571 4.9741478
-0.0082602249 -0.1450495 4.8340707
0.25536671 -0.91795588 4.2779751
0.59017783 -0.37328941 3.5811093
-0.70358342 -0.64663363 4.6240435
-1.009272 -0.21304181 4.8224192
0.26703939 -0.9703148 4.1103344
-0.16063255 -0.81817216 4.5630026
-0.069985241 -0.92669314 4.4126873
0.57349002 -0.35315776 3.571296
-0.98003596 -0.13328846 4.5775747
0.47639289 -0.67026448 4.4442024
0.48905304 -0.40023184 3.6195629
0.023990242 -0.586891 4.6615133
0.42874983 -0.61484957 4.5423441
0.39675999 -0.60150069 4.1088805
-0.33493266 -0.82027662 4.6233358
0.17282878 -1.0344239 4.3878169
0.21754673 -0.81223112 4.4416118
0.13539021 -0.86009425 4.4736881
0.26910564 -0.98013788 4.1243243
0.21212143 -0.82146353 4.4424224
0.20603772 -0.88945121 4.31563
0.2142081 -0.85470331 4.2123995
0.31491467 -0.825809 4.2209387
-0.068235099 -0.38351518 4.9497895
-0.7551862 -0.45644632 4.9206328
0.25677094 -0.97378415 4.2096963
-0.36806989 -0.71102935 4.3528976
-0.93373984 -0.84445906 4.3952746
0.51633614 -0.56814951 4.066843
-0.49435249 -0.94151407 4.7642341
-0.042352002 -0.42728382 4.9447312
-0.72586948 -0.88909537 4.7398825
-0.52712911 -0.81257117 4.556077
-0.47333652 -0.70890003 4.2540331
0.39732206 -0.38195771 3.5276845
-0.16093627 -0.35573834 5.0035777
-0.70920163 -0.78637642 4.7170572
-0.70519328 -0.80759078 4.7335773
-0.91199833 -0.62414837 4.6141062
0.12599103 -0.81401056 4.5531974
-0.12977879 -0.72669321 4.4039383
-0.22830999 -1.0255203 4.1343393
-0.16144961 -0.83702052 4.5173087
0.53174716 0.10294077 4.2807379
0.13556319 -0.9798547 4.2296429
0.28323984 -0.86916995 4.1721907
0.71295917 0.13416533 4.0332642
0.62349987 -0.32973492 3.5730498
0.53649199 0.091944948 4.2248373
0.63968772 0.1073024 4.0028362
0.69038844 0.16643403 4.081202
0.6357286 0.11681274 3.9866157
0.43718138 -0.031632945 2.8217583
0.4273982 -0.0018717058 2.7812829
0.47436839 -0.058401491 2.6586697
0.094553865 -0.83962226 4.3256822
0.29467964 -0.88603443 4.2284231
-1.0237664 -1.114923 4.3643365
-1.0636622 -1.0952928 4.3311658
0.3295458 -0.69256103 4.2010036
-1.0861635 -0.92829728 4.5359316
-0.99176717 -0.86952919 4.5096564
-0.95340931 -0.92218065 4.5183821
-0.0018827026 -0.17557454 4.8430443
-0.9422819 -0.89932787 4.4890862
-1.0005865 -0.9387337 4.5226631
-1.0095464 -0.8521682 4.5404043
-0.96767616 -1.0315466 4.3098855
-0.016906844 -0.74654919 4.6214514
-0.089792192 -0.80933821 4.327424
-0.90037197 -0.8240214 4.4489837
-0.90469104 -0.82285053 4.4082637
0.32575393 -0.34611154 3.5396464
0.33041787 -0.39184344 3.5858009
0.4862856 0.041760299 4.2498026
0.63248587 -0.34979689 3.5408607
-0.88960826 -0.69970143 4.1927323
0.50585431 0.20698485 3.9645202
-1.2598045 -0.24556823 4.7038622
-1.0252718 -0.24036185 4.5497918
0.48394179 0.17768306 3.9758966
-1.2947729 -0.21495561 4.6932316
-1.2487704 -0.25201085 4.7088547
-0.10373602 -0.794873 3.3057168
0.34279001 -0.28712198 3.389554
0.41888732 0.18852966 3.9510109
0.66450685 -0.67067176 4.303915
0.29460451 -0.88503605 4.2233624
0.4253487 -0.59568429 4.5578365
0.27275601 -1.0261269 4.1664901
-0.97151375 -1.029796 4.3070726
0.56379771 -0.63669932 4.2828903
0.14239362 -0.83630097 4.4766941
-0.11154408 -0.80285424 4.6135116
-0.98005414 -0.87346703 4.3381815
-0.72330654 -0.32518128 4.9252667
-0.92945015 -0.80749494 4.3731928
0.40358201 -0.60608828 4.1340027
0.13996394 -0.83923823 4.4976802
-0.93417978 -0.75754017 4.3232532
0.56912351 -0.67281187 4.3649035
0.31622353 -0.83535379 4.2321148
-0.83442509 -0.78984928 4.4640355
0.20678356 -0.87808377 4.4434485
0.1971751 -0.88367033 4.3622866
0.35376093 -0.48562041 3.852273
0.35319 -0.44619387 3.8080826
0.20071642 -0.95878607 3.8930953
0.36974117 -0.4619436 3.808568
-1.0281839 -0.61309838 4.1387677
0.57962871 -0.38501045 3.6625943
0.30637154 -0.90208685 4.3371305
-0.68823671 -0.65890002 4.6184173
0.27048764 -0.75432068 4.3523273
-0.33834025 -0.84512472 4.5388479
0.13841327 -1.0344902 4.1804161
-0.33274484 -0.85547101 4.5415421
0.62133795 -0.63694787 4.285995
0.56063157 -0.6734395 4.3609023
0.31298059 -0.77516264 4.2924027
-0.036457516 -0.58238709 4.6746078
0.32521901 -0.68368489 4.1915188
0.43283007 -0.59378958 4.0545669
0.37881786 -0.35425362 3.5723464
0.089313574 -0.68162787 3.363873
0.33775163 -0.50502658 3.7317104
0.3330467 -0.31747976 3.4352927
0.3972187 -0.38904843 3.540036
0.40419537 -0.28828201 3.3507471
0.33325577 -0.12920269 2.9807687
0.33640489 -0.14355843 3.001652
0.33599138 -0.075143248 2.8971355
0.30509421 -0.1043357 2.6431344
0.32189599 -0.0074103498 2.6515803
0.26181033 -0.99276698 4.122016
0.25977597 -0.9928658 4.1487031
0.26696792 -0.98506826 4.1039438
0.10796472 -0.98654848 4.1923432
0.11344681 -0.94347942 4.5303879
0.095356219 -0.99430555 4.1770802
0.53234804 -0.68100101 4.3262296
-0.031588551 -0.58040541 4.6865077
0.30895287 -0.66230291 4.1768398
0.31961942 -0.72967917 4.2392755
0.010159144 -0.82257873 4.4822659
-0.75533962 -0.45240599 4.9235463
0.4592078 -0.58312738 4.0903058
0.52159089 -0.65601069 4.074995
-0.16095303 -0.87843472 4.4692678
-0.89603078 -0.75522339 4.4459882
0.40764579 -0.57125998 4.0056963
-0.89909726 -0.71405691 4.3588576
-0.57802689 -0.65835041 4.1659808
0.42341527 -0.54734552 3.9411933
0.35777536 -0.4254266 3.7753251
0.5437606 -0.39694721 3.5587718
0.57957828 -0.38584721 3.6582065
0.54132789 -0.64804113 4.3226542
0.52797389 -0.47648841 3.6575992
0.48612624 0.069760688 4.2444367
0.39267236 -0.32177216 3.5568871
0.72202224 0.11291748 4.0073142
0.25743464 -0.46103317 3.6440885
0.24039549 -0.37303877 3.5378265
-0.67341608 -0.54978162 3.8224587
0.59067607 0.13227668 4.0576229
0.58287776 0.11435056 4.0699406
-1.0428609 -0.21486239 4.5441546
-0.88406187 -0.033387512 4.2635574
-1.138659 -0.21252319 4.4431429
0.64327252 0.29944026 3.7524078
0.55773038 -0.13126534 3.0509317
0.19168368 -0.1493206 2.9521732
0.45373353 -0.068856053 2.4732521
0.32718301 -0.11000679 2.5217028
0.4416827 -0.15165648 2.5998585
-0.37966797 -0.71457142 4.5206227
0.28556368 -0.91835666 4.2382846
-0.9994061 -0.22554536 4.630229
0.52428901 0.10104969 4.2744231
-0.97888231 -0.26471692 4.6692219
0.75375271 0.11551073 4.0757637
0.33472908 -0.42086992 3.6268215
0.33452481 -0.37400347 3.5597477
0.50382721 0.18131255 3.9903252
0.25833359 -0.50785768 3.7091126
0.3576608 -0.32719684 3.4157095
0.333915 -0.30023447 3.402519
0.35043436 -0.34336987 3.4070735
0.63584977 0.28747419 3.7698419
0.64434636 0.36251986 3.71226
0.64877623 0.37390852 3.6866817
0.2223791 -0.19938634 3.1081479
0.21458383 -0.17939326 3.072237
0.2071255 -0.13901842 2.9215441
0.32328564 -0.018136259 2.6733239
-0.94371724 -0.0058750524 4.3148346
-1.0453994 -0.23488042 4.5443821
-0.24015747 -1.0215142 4.0214334
-0.2089285 -1.0526756 4.0763321
-0.37316477 -0.84372824 3.9684453
-1.0646557 -1.1272676 4.466166
-1.1632916 -1.1026742 4.4020114
-1.1264765 -1.1265633 4.4071198
-1.1409066 -1.117626 4.3984404
-1.0213703 -1.1376067 4.4186239
-0.92158884 -1.0552112 4.460958
-0.9962371 -1.0423087 4.413662
0.52867967 -0.55527914 4.0435724
-0.98364145 -1.0067059 4.4362888
-0.94148594 -1.0316082 4.4589491
0.44844306 -0.57069451 4.0377836
-0.78803474 -0.85181808 4.5891223
-0.79652143 -0.85172409 4.592628
-0.98047006 -1.1337779 4.3964124
0.33260918 -0.16151614 2.6131339
0.31068447 -0.02785328 2.3886282
-1.3151966 -0.14347504 4.6817207
0.36207974 -0.33643427 3.4266176
0.42589945 -0.612737 4.537838
-0.94395822 -0.34008279 4.7075238
-0.46733612 -0.72424787 4.0373282
0.34396261 -0.033753432 2.9869077
0.40383554 -0.29795837 3.353451
0.16969189 -0.53715622 3.5298271
0.17642666 -0.24505462 3.2556274
-1.4276892 -0.1930142 3.3109062
0.21096916 -0.30733955 3.291327
0.17570131 -0.094547331 2.8819969
-1.0221696 -0.28122512 4.4471951
0.18818483 -0.1241359 2.8978114
0.308669 -0.17311105 2.7685201
0.40614989 -0.59873855 4.0751233
-1.0734127 -1.1327468 4.4105196
-1.105273 -0.89842409 4.5277743
0.26527786 -0.87020189 4.1158705
-0.87588686 -0.041508775 4.2688961
-0.73923993 -0.26519623 4.9827042
-1.0166597 -0.61944145 4.1411209
-0.88833326 -0.70082736 4.2402091
0.0045526447 -0.33934689 4.7594714
0.2735543 -0.73811167 4.4158106
0.27989015 -0.72766131 4.3891683
-0.065179005 -0.15700769 4.8365993
0.17506574 -0.92518622 4.4644303
-0.2643806 -0.83655763 4.4806433
-1.9116679 0.51545179 2.0007238
0.16907334 -0.77810526 4.5272398
-0.96128953 -1.0097023 4.2329783
0.17452502 -0.92443842 4.4571762
0.20557497 -0.24758124 2.8715396
0.32383758 -0.68889272 4.1938124
-0.93197703 -1.0175676 4.252255
0.20742856 -0.87477946 4.4437804
0.3016108 -0.10888586 2.6567864
0.17996617 -0.78193295 4.5260401
-1.0166384 -0.32911482 4.4785886
-6.7157207 1.1871084 0.37579799
