# .PCD v0.7 - Point Cloud Data file format
VERSION 0.7
FIELDS x y z
SIZE 4 4 4
TYPE F F F
COUNT 1 1 1
WIDTH 373
HEIGHT 1
VIEWPOINT 0 0 0 1 0 0 0
POINTS 373
DATA ascii
-1.0354667 0.21180543 2.981523
-0.99859756 0.11639942 3.1962097
-0.65702635 -0.54276854 3.8716159
-0.63664836 -0.53024006 3.7594509
-0.65539712 -0.5151878 3.7974262
-0.8444013 0.12746376 3.0982184
-0.8477422 0.14954232 3.110481
-0.67462814 -0.61698651 3.9390495
-0.83442324 0.13559806 3.0751235
-1.095144 0.13056457 3.1770642
-0.66530877 -0.62123007 3.8852408
-0.66432595 -0.6231488 3.8897631
-0.92707574 0.20789596 2.9411063
-1.1793756 -0.19096994 3.9568224
-1.1748133 0.74650168 2.1615536
-1.176419 0.74035615 2.1740184
-0.67820585 -0.62222356 3.9347427
-0.62287015 0.14836219 2.761153
-0.87890667 0.12507339 3.091377
-1.415235 -0.090341814 3.7958851
-1.0048872 -0.035529748 3.6829774
-0.82617015 0.50057441 2.213567
-0.82435864 0.17008126 2.9272914
-1.0603168 0.29648349 2.7910116
-0.89414728 -0.24806245 4.0962152
-0.66738057 -0.66274267 3.8365026
-1.2109773 -0.1849798 4.0861154
-1.2271378 0.80681914 2.202106
-1.0445961 0.19274902 2.9670761
-0.72449237 0.077918157 3.3143017
-0.66139179 -0.54562587 3.8785827
-1.4212438 -0.065728903 3.7649512
-0.64345336 -0.56081581 3.7607236
-0.76522416 -0.28101063 4.1670189
-1.2151886 -0.19684143 3.9432578
-0.19831936 0.21104251 4.4219899
-0.80945247 -0.079824097 3.488461
-0.64236391 -0.2173043 3.969209
-0.70192891 -0.16203007 3.6611762
-1.1656141 0.52427316 3.9258573
-0.83136106 0.16575955 2.9587271
-0.79602289 0.23253763 2.9138334
-0.79766899 -0.26326734 4.1205134
-0.67721397 -0.57284546 3.971602
-1.2099655 -0.18629003 4.08499
-0.95467502 -0.20205505 4.1315184
-0.59152395 0.41666919 2.3892951
-0.83779484 -0.27013138 4.1555471
-0.24842086 -0.35343847 4.2197785
-0.92046416 -0.2323626 4.1366234
-0.58245254 0.088987134 4.328577
-0.50745314 -0.35247764 4.142941
-0.85804629 -0.24846967 4.0690579
-0.84282178 -0.24006046 4.0676217
-0.63818473 -0.55807388 3.7560358
-0.47392136 -0.40263322 4.0792131
-0.92254579 -0.21580659 4.1410713
-1.0113336 -0.25103635 4.0766439
-0.78555298 0.3275139 2.5905206
-0.95464075 -0.21750215 4.1255746
-1.0926634 0.13318092 3.1970804
-1.031463 0.20613971 2.9810567
-0.8176645 -0.07289806 3.4201052
-0.8772195 -0.24455258 4.086103
-0.79749399 -0.26097187 4.1214767
-0.79645485 -0.26105699 4.1204839
-0.59439117 -0.31883425 4.1725612
-0.55358958 -0.38147989 4.1451092
-0.68802285 -0.29006445 4.1594658
-0.52535689 -0.32246801 4.1558042
-0.5320496 -0.24187684 4.1679902
-0.91520894 -0.26081774 3.9784861
-0.78270781 -0.27373698 4.1561046
-1.0010463 -0.080965765 3.6520007
-0.951873 -0.061030172 3.6161957
-0.99449015 -0.056034431 3.6220002
-0.90084845 -0.091074504 3.6886928
-0.58535266 0.050041575 4.3151221
-0.83547759 -0.25579387 4.0344901
-1.2540429 -0.19193271 3.9584715
-0.98158884 0.0013357287 3.4658287
-0.72953188 -0.27063313 4.0492616
-0.6890915 -0.4083935 3.8989925
0.19520696 0.26827174 4.4792557
-1.1750261 -0.19560896 4.0946727
-0.63447303 0.39553586 2.4852347
-0.64014667 0.37533885 2.487591
-1.2139128 -0.18971126 3.9364491
-0.82242489 0.18462577 2.9407566
-0.83610719 0.15006927 2.9673679
-0.54503942 -0.34963301 4.1133533
-0.7132619 0.15111649 2.8935847
-0.72921956 -0.22439949 4.1789656
-0.96662962 -0.2305073 3.9376051
-0.74662876 -0.30457026 4.0374594
-0.58474851 0.049652457 4.3143883
-0.58674449 0.054659586 4.3150396
-0.65850228 -0.60783684 4.0459137
-0.58389324 0.08473222 4.3283515
-0.97818828 -0.020395042 3.5148304
-0.92285734 -0.20522723 4.141469
-0.69162309 -0.6618644 3.9410727
-1.0136012 -0.10133223 3.6731241
-0.51272535 -0.19557717 4.2166333
-0.93961 -0.13431892 3.6941421
-0.23533033 -0.27782443 4.2184472
-0.60573727 -0.6669687 4.0260444
-0.9659524 -0.075273834 3.6520503
-0.50877798 -0.18790789 4.2157164
-0.90165979 -0.26016575 4.0365996
-0.83457977 -0.29929647 4.0195003
-0.49350426 -0.4159039 4.1270871
-0.57531303 -0.31462696 4.1586328
-0.83593923 -0.21431798 3.7261014
-0.95296729 -0.19754641 4.1328335
-0.79850817 0.51438898 2.1511447
-0.25783598 -0.30711609 4.224607
-0.25803047 -0.36335048 4.2157898
-0.96055573 -0.079119287 3.623812
-1.2428671 -0.17170142 3.9752283
-1.2298627 0.55340707 3.9265077
-0.62539202 -0.53199691 3.7085812
-0.62121904 -0.17302428 3.5182362
-0.21703875 0.23109889 4.4348187
-0.82484263 0.16188607 3.0995343
-0.53702128 -0.2173337 4.1782088
-0.8408252 -0.31060755 4.0424056
-0.82262641 -0.27681878 4.0154891
-0.87640053 0.00085879909 3.3986402
-0.013175198 -0.33945012 3.9438739
-0.032475475 -0.338938 3.9369457
-0.014131176 -0.32357362 3.9587591
-0.87036312 -0.21672542 4.0713158
-0.79342508 -0.02320197 3.4380617
0.010021308 -0.28068751 3.9916117
0.043385729 -0.28903636 4.0089593
-0.93678904 -0.29094741 4.0258393
-0.5977447 -0.38952702 4.1374221
-0.6848408 -0.27523819 4.1717372
-0.50510859 -0.37800407 4.1457248
-0.95714289 0.12390702 3.0454602
-0.85863477 0.15904731 2.9447424
0.17311172 0.22720155 4.5235629
-0.51489854 -0.19856289 4.2172976
-0.66978854 -0.26124042 4.1540728
-0.89509505 -0.0092803026 3.4842751
-1.1774205 -0.17213301 3.9608939
-1.0019094 -0.23496786 3.9727643
-0.77203548 -0.38339671 4.002089
-0.87697601 -0.056725282 3.5044203
-0.95208848 0.068742663 3.2812595
-1.0467948 0.21839859 2.8854327
0.11570133 -0.18649448 3.7802103
-0.82702643 0.17588034 2.9888337
-0.76880556 -0.39558363 3.998817
-0.64217895 0.11869502 2.7936029
0.52504385 -0.13662691 3.5258269
0.5972259 -0.075882398 3.5409672
0.38084298 0.36126626 4.1800179
-0.83745199 -0.25708896 4.1484537
0.41148907 0.30306521 4.178782
-0.92166418 -0.20236832 4.0647922
-0.26173148 -0.19795229 4.2722979
-0.83463544 -0.22375154 3.7295609
-0.83852923 -0.23956852 3.7409873
-1.0114315 -0.088517137 3.7330065
0.043383259 -0.38349774 3.9873509
-1.3613098 0.48631737 4.2623191
-0.89942718 -0.082189247 3.6778176
-0.53784806 -0.57235712 4.014349
-0.69368219 -0.35628068 3.5151293
0.034428164 -0.35156822 3.9466248
-0.74676472 0.089609586 4.4256954
-0.50588197 -0.14467373 4.2244439
-0.99825025 -0.22500655 3.9573326
0.033857629 -0.36338618 3.9272938
-0.79330021 -0.0091857491 3.6439886
-0.80614448 -0.052069712 3.678932
-0.82606477 -0.11303236 3.7352097
-0.99709129 -0.067200914 3.6078641
-0.72596174 -0.2641215 3.5398653
-0.68396258 -0.23235662 3.4874949
-0.7970013 -0.0838705 3.6192217
-0.60500753 -0.079425573 3.5026085
-0.93053114 -0.2482627 3.9735444
-1.0003331 -0.03232149 3.5483196
-0.083955653 -0.24868803 3.7757952
-0.83598334 0.032415569 3.3205268
-0.84042668 0.0182399 3.3330817
0.042949222 -0.2479917 3.7838831
0.043280449 -0.24943733 3.7862275
-0.75238913 -0.14403565 3.5747561
0.34565738 -0.13121058 3.6335089
-0.45541036 0.01006645 3.1675506
-1.2674708 0.68635458 3.6472354
-0.49595526 -0.45277697 3.9916623
-0.89096773 -0.073146403 3.6425853
-0.32076263 -0.31120491 4.0013599
-1.4345986 0.019900519 3.6007764
0.030468734 -0.36065561 3.9273572
0.053302541 -0.36059937 3.9294164
-1.454355 0.14219394 3.4014997
-0.69673043 -0.66518557 3.946636
-0.76337528 -0.46602291 3.994704
0.2326114 -0.17077675 3.7434037
0.11165573 -0.26125121 3.7445781
0.073308468 -0.27362469 3.753248
0.42596251 -0.075355507 3.561321
-0.70153368 -0.59262431 3.97526
-1.0433124 -0.25613132 4.1208282
-0.86136448 -0.24829924 4.0932059
-1.2150683 -0.17679025 4.0806127
-0.73486209 -0.24887145 4.0629425
0.41715389 0.37218988 4.2010055
-0.67744321 -0.59021246 3.9565225
-0.98523796 -0.024147425 3.4953403
0.67274994 0.40155983 3.919112
-0.75060719 -0.27227089 4.0745072
0.4201161 0.0014277142 3.2369599
-1.0326104 -0.34603494 4.0902042
-0.73032266 -0.28257778 3.5525711
-0.70315373 -0.24691767 3.5076172
-0.76961094 -0.27545777 4.1629119
-0.56191808 0.24300258 4.3915033
-0.94485593 -0.21118449 3.7742772
-0.53994679 -0.22111629 4.1894503
-0.68225569 -0.26412085 4.1728182
-0.6347658 -0.44918135 4.1054974
-0.68844974 -0.59297502 3.9771297
-0.79188859 -0.045714095 3.5435431
-1.3863813 -0.129393 4.0708108
-0.026369005 -0.2165059 3.8423829
-0.67187226 -0.1341517 4.2375588
-0.92322385 0.095372766 3.3025801
-0.94419837 0.0063535185 3.3760347
0.02024986 -0.26439223 3.80843
-1.0091228 0.040256098 3.3070965
-0.84157819 0.019937919 3.3265085
-1.2634578 0.67296815 3.6599789
0.12159733 -0.20764373 3.6917777
0.13157372 -0.20881924 3.6870449
-0.49679065 0.20674768 3.1445563
-0.74668735 0.13894051 3.1503203
-0.70448273 -0.41602716 3.9084582
-0.67875171 -0.57283038 3.9728134
-0.63249367 0.22907664 2.8453152
-0.68066573 -0.27700001 4.1552062
0.67374766 0.41605473 3.9681582
-0.65615362 -0.6517877 4.0224829
0.049294673 -0.22471793 3.5887427
0.19413257 -0.12086701 3.4777467
-1.4121532 0.56679535 3.7538936
0.23342814 -0.07927645 3.4471116
0.18006051 -0.16552781 3.642375
-0.67051899 -0.11102054 3.4839313
0.53325289 -0.12329887 3.5228639
-0.66463286 -0.1370355 4.2206168
0.28351769 -0.090486027 3.4408972
-1.0585016 0.31840789 2.8594766
0.52868086 0.0057096891 3.287693
0.59618741 0.48312005 3.8942218
0.64244491 0.4505581 3.9662001
-1.5445727 0.75845563 2.5143368
-1.3315731 0.25159293 3.1086965
-1.0766952 0.29154074 2.6255763
1.1212461 0.22002789 2.7109852
-0.97746992 -0.25949201 3.9621005
-1.3490887 0.043955345 3.4757283
-0.91860819 -0.06335815 3.6149473
-0.68293816 -0.258645 4.1702261
-0.70769405 -0.31042185 4.198832
-0.62673551 -0.44110757 4.1136127
-1.3491836 0.044009265 3.4704792
-1.2146167 -0.20480856 4.103003
-0.021972889 -0.33931136 3.9650476
-0.67526871 -0.11042169 3.6243396
-0.85802013 -0.2906644 4.1658907
-1.181578 -0.1797297 3.9550838
-0.6439029 -0.22486779 4.0203123
-0.62814194 -0.46651739 3.7230034
-0.024000725 -0.34526688 4.1707911
-0.70839399 -0.30346477 4.0313721
-0.68208241 -0.28440174 4.1778903
-0.6811707 -0.090390109 3.5401578
-0.67049491 -0.070088983 3.5210731
-1.2385105 0.56362343 3.920444
-0.93484688 0.096937828 3.3049517
-0.93903708 0.09063933 3.3170462
-0.00094451656 -0.20779252 3.8336442
-0.86737722 -0.019004228 3.4113932
0.039880309 -0.25325692 3.8048472
-0.92130846 -0.22947457 4.1338739
-1.0490202 0.17552879 3.1893017
-0.92089057 -0.20837319 4.1414604
-1.0969346 0.14630628 3.1944797
-0.094406411 -0.32612762 4.1250353
-0.090526849 -0.32417363 4.124341
-0.085277952 -0.32466626 4.122004
-0.73600137 -0.24907777 4.0696154
-0.062066231 -0.30926979 4.0860429
-0.90680796 -0.2669054 4.0459771
0.04746674 -0.28555116 4.004704
0.037528146 -0.35039562 3.940011
-0.73609585 -0.24379019 4.0705256
-0.73350877 -0.24641809 4.0661983
-1.0730959 -0.064067826 3.6885896
-0.63029665 -0.75950223 4.015563
-0.63649863 -0.56171858 3.7049296
-0.63357615 -0.56048346 3.7058406
-0.62950689 -0.53103048 3.7112279
-1.014204 -0.077693813 3.6870267
-0.50419247 -0.35374022 4.1405616
-1.0718207 -0.063906901 3.6866708
-0.58209026 -0.065534286 4.263721
-0.62964344 -0.44194889 4.1154189
-0.80261225 -0.18058436 4.0943313
-0.010212828 -0.21189603 3.8383529
-0.55174398 -0.61886275 4.0198231
-0.78403223 -0.015560772 3.5026197
0.048313107 -0.28778383 3.888658
0.13868694 0.23080093 4.545464
-0.95446211 0.010797992 3.3666897
-0.93668014 0.029911719 3.3266397
-1.3693651 0.65128797 3.7602267
-0.5665344 -0.40483528 4.1061635
-1.2656353 0.68656588 3.6470358
-0.64179587 -0.068685755 3.4322715
-0.76496106 0.11458661 3.1590364
0.21336599 -0.10774356 3.5291903
-0.76500446 0.11708603 3.1503239
-1.0220168 0.17446171 4.3437977
-0.82883 0.1756649 3.0253222
-0.86172414 0.10930604 2.9884217
0.59755266 0.05289213 3.2218149
0.51057082 0.047704622 3.2792773
0.59285671 0.064106725 3.2310941
0.34311357 -0.11066256 3.4283481
0.33807504 -0.1128264 3.4302649
-1.5063488 0.62235892 2.7090249
0.19608936 0.10025898 4.1246018
0.54252779 0.29259887 3.9646192
-1.5082287 0.78210425 2.4067683
-0.38250747 -0.31184646 4.1073446
1.2694 0.27109998 2.5660918
-0.95812434 -0.22647323 3.8739326
-0.63930166 0.26796052 4.3809571
-0.63296175 0.35213286 4.4167047
-1.2720734 0.68725008 3.6569467
-0.96977073 0.16350999 3.0671711
-1.3687444 0.63590974 3.7686167
-1.2628351 0.69342661 3.6399784
-0.84003901 -0.005928406 3.4106777
-1.1859497 -0.18921721 3.9781511
-0.56450808 0.22913563 4.3876419
-0.88576227 -0.24398573 3.9904346
-0.99078119 -0.056489769 3.5813622
-0.78274578 -0.33099338 4.0469904
-1.3940896 -0.037425332 3.6786203
-0.28882569 -0.35658476 3.9650173
1.1522322 0.23952486 2.6840861
1.0533643 0.18369299 2.7636223
-0.74898213 -0.27634948 3.5977118
-0.7423113 -0.046029013 3.2972078
1.1224443 0.20874324 2.6896393
0.16281059 -0.16911745 3.4385395
0.52450889 -0.2510024 3.5117433
-0.83304381 -0.21402825 3.7189498
-0.66396099 -0.11874086 4.2335019
-0.52884847 -0.32749289 4.1589828
0.74473077 0.14703596 2.835366
1.0114356 0.3062391 2.5962763
-0.93423754 -0.25074628 3.9729903
-0.52634406 -0.32414162 4.1574397
