# .PCD v0.7 - Point Cloud Data file format
VERSION 0.7
FIELDS x y z
SIZE 4 4 4
TYPE F F F
COUNT 1 1 1
WIDTH 407
HEIGHT 1
VIEWPOINT 0 0 0 1 0 0 0
POINTS 407
DATA ascii
-1.019859 0.014445625 3.200938
-0.95517737 -0.078820333 3.4099109
-0.50184554 -0.71382129 4.0412674
-0.50954592 -0.68591624 3.9675825
-1.0914897 0.09553881 2.8659332
-0.81631398 -0.034427211 3.3101542
-1.0539124 -0.071671508 3.4004927
-0.68202472 -0.43708143 4.2136164
-1.0372943 -0.40143028 4.1811881
-1.0381362 -0.4043631 4.1817608
-1.1146677 0.17337322 2.8299651
-0.8091625 -0.27465907 3.8537087
-0.84736097 -0.061034571 3.2939355
-1.294543 -0.31768993 4.0452943
-1.4088621 -0.28704125 4.0553703
-1.0532478 -0.032632101 3.1591573
-0.73632169 -0.43806526 4.2912722
-0.75156444 -0.4080981 4.3391514
-0.50807899 -0.75922728 4.0036535
-0.80267191 -0.38868454 4.3259416
-1.3352469 -0.32274047 4.0548439
-1.3068464 -0.41566271 4.2983727
-0.66484559 -0.69685268 3.7952526
-0.67341167 -0.69513607 3.7894535
-0.51070195 -0.74966449 4.1327176
-0.50119072 -0.38852477 4.1405053
-0.70097399 -0.42902359 4.2742381
-0.47497225 -0.30218714 3.9279795
-1.0784045 0.31301948 4.1568499
-0.76618254 -0.19725738 3.612272
-0.56830966 -0.39569905 4.361011
-1.2365669 -0.39139202 4.3037686
-0.63707054 -0.44627541 4.3058138
-0.50983727 -0.74566811 4.1424174
-1.3618114 -0.32802293 4.0225439
-1.3491244 -0.33071071 4.1098404
-0.79623622 -0.39673397 4.3328485
-1.1057034 -0.38691169 4.185575
-0.82782352 -0.45862135 4.1701589
-0.080408528 -0.49870667 4.3490787
-0.075631492 -0.49646911 4.3496847
-0.42840099 -0.080030374 4.4955859
-0.09402743 -0.36226958 4.3979297
-0.48477435 -0.32241717 3.965255
-0.27662602 -0.47524479 4.2650647
-0.75805384 -0.4131723 4.3407001
-0.68857408 -0.24072255 3.726371
-0.74757797 -0.43948939 4.2253127
-0.71870971 0.20458788 2.3990121
-0.63696778 -0.44397694 4.3067803
-0.63602823 -0.44398221 4.3056893
-0.74686134 -0.41961068 4.2465014
-0.64213669 -0.45043606 4.3047824
-0.5065518 -0.46186274 4.3210373
-0.37030703 -0.40572363 4.3272157
-0.76792401 -0.45188147 4.1760468
-0.79240334 -0.39961588 4.3347135
-1.2871542 -0.19312292 3.7858007
-0.42979181 -0.11903283 4.4820547
-0.48521295 -0.36450312 4.0737963
-0.90336323 -0.19334838 3.6752825
-1.0577759 -0.40660754 4.2025747
-0.50232679 -0.42181078 4.2308173
-0.79242522 -0.39684334 4.3351388
-0.68415064 0.22883458 2.6697206
0.15265092 -0.40150309 4.0935478
-1.0736741 -0.4026204 4.1643186
-0.44027933 -0.92620701 4.1694813
-0.80501914 -0.44982806 4.2063727
-0.66324526 -0.40738305 4.2762418
-0.5661757 -0.40273294 4.3576856
-0.33934703 -0.6404143 4.1694918
-0.082720585 -0.34613883 4.3829265
-0.82518512 -0.42525342 4.1407456
-0.42923647 -0.11937403 4.4812613
-0.50157368 -0.23013346 4.4288712
-0.42954552 -0.084378257 4.4954562
-1.2574987 -0.39720502 4.3075848
-0.71198028 -0.19870341 3.7307899
-0.55549181 -0.44029224 4.3487463
-0.54744118 -0.59284675 4.0738645
-0.092507318 -0.44976944 4.3570576
-0.50465012 -0.71587849 4.0405316
-0.34640113 -0.35037929 4.373014
-0.68490434 -0.5580036 4.2225142
-0.061473191 0.076380745 4.5601764
-0.63256687 -0.60703474 4.1574636
-0.49966985 -0.38511866 4.1353173
-0.32350674 -0.57631606 4.2808242
-0.48384625 -0.9007718 4.1620789
-0.084845982 -0.50704134 4.3465505
-0.35399258 -0.59680521 4.2817926
-0.43845907 -0.1019769 4.4896479
-1.0998849 -0.38691914 4.2059479
-1.1442125 0.33738118 4.1641235
0.071928032 -0.50333446 4.2592425
-0.48732087 -0.7001549 3.8760424
-0.065520316 0.087985992 4.5669889
-0.68418986 -0.49634653 4.2318068
-0.37667379 -0.38184687 4.3414841
-0.67122763 -0.46121797 4.2036047
-0.69590759 -0.4440915 4.2490325
-0.80556303 -0.18588972 3.5980904
0.12960069 -0.46430096 4.0521874
0.12897332 -0.44859278 4.0672674
0.15308659 -0.40418133 4.0980577
-0.097439006 -0.38303015 4.3950863
-0.70258576 -0.59411782 4.2284851
-0.57956111 -0.42136303 4.2421408
-0.50698483 -0.43504158 4.3266768
-1.1508356 0.3467243 4.1590319
-0.79536492 -0.41757086 4.3280311
-0.77067137 -0.20254968 3.655103
-0.61087024 -0.57567179 4.1804309
-0.80591136 -0.43751648 4.1991472
0.5051924 0.23076925 4.2817841
0.49330664 0.26242468 4.2561622
-0.67424333 -0.44312391 4.3375902
-0.6208263 -0.50752592 4.2223649
-0.094899498 -0.34256881 4.4049554
-0.71520722 -0.40809393 3.9208345
-0.71680027 -0.42419592 3.9324143
-1.2366734 0.25960845 4.5104628
-0.79485464 -0.27144742 3.8772545
-0.36733428 -0.73516452 4.1712785
-0.58689779 -0.52916819 3.6921637
0.17799404 -0.47292072 4.0501189
-0.85610014 0.12473919 4.5857038
-0.58193707 -0.091774106 4.608367
-0.57747275 -0.45728266 4.2371178
-0.18018663 -0.57340729 4.0916772
-0.57217938 -0.4425934 4.2243752
-0.70315343 -0.45910862 4.2365561
0.17637406 -0.48467594 4.0308094
-0.62315625 -0.43970606 3.7209561
-0.10742509 -0.49451458 4.3489513
-0.4752447 -0.7405169 4.2223206
-0.46939361 -0.55243278 4.2983727
-0.47139457 -0.55860513 4.3005114
-0.69886076 -0.26542392 3.8088713
-0.5656988 -0.55640417 4.0970283
-0.78452665 -0.44046041 4.1727715
-0.83274806 -0.16047025 3.5796206
-1.1260214 0.42640659 4.1687045
-0.77544159 -0.15117201 3.5167367
-0.46983454 -0.54786962 4.298759
-0.50725508 -0.40530244 4.3578095
0.16289827 -0.36838686 3.8884702
0.16356295 -0.36981326 3.8907547
-0.65462315 -0.32200283 3.7595849
-0.41121259 -0.14509389 3.3269017
-1.2187171 0.46827719 3.8913639
0.21058851 -0.26021117 3.7232192
-0.24048722 -0.59112322 4.1119866
-0.17722137 -0.41906616 4.331399
-0.17204331 -0.45880964 4.1398983
0.17281947 -0.48220041 4.0312347
-0.25707555 -0.76627189 3.8724155
-0.2129644 -0.70562601 3.9171302
-0.086206526 -0.41699401 4.2861319
-1.3891112 -0.087149553 3.6592228
-0.52499533 -0.83909225 4.1184788
-0.53110397 -0.28646654 3.6957233
0.19185866 -0.39161894 3.8547239
-0.62040806 -0.50919837 4.2203665
-0.7040652 -0.4358961 4.2850566
-0.58145922 -0.4271149 4.242516
0.53062665 0.27589172 4.2736015
-0.71453208 -0.23449017 3.7808762
-0.90222943 -0.21914084 3.7047291
-0.097584635 -0.46671617 4.0437388
0.21669573 -0.30996731 3.8827763
-0.88913608 -0.14859365 3.5505142
-0.33773941 -0.58153522 4.2597952
-0.12900913 -0.51227748 4.0193453
0.22424354 -0.31944272 3.8460217
-0.67111415 -0.31323168 3.7814898
-1.08638 0.36353207 4.169199
-1.0672083 -0.35383889 4.288888
-0.53348243 -0.41066563 3.6866727
-1.3022193 0.42163691 4.0119352
0.2336216 -0.2576887 3.5949049
0.2989437 -0.1701595 3.5896375
-0.45174348 -0.13360032 3.3968899
0.50096583 0.29850093 4.247963
0.47715342 0.2416593 4.2115903
0.41193122 -0.04921272 3.2900953
-1.580042 0.49524337 2.8596065
-1.5930793 0.57556683 2.6498649
0.46521145 -0.090034232 3.3099234
0.47730231 -0.059176538 3.2602038
-0.5145734 -0.43133259 4.2253985
-0.8672545 -0.54586428 4.297812
-0.27527136 -0.76010734 3.8886964
-0.47510749 -0.77819979 4.2064075
-0.41294464 0.074835546 4.5578737
-0.59412777 -0.45195979 3.6472957
-0.37752751 -0.38567612 4.3495731
-0.60393178 -0.43290901 4.3276405
-0.21033812 -0.58551055 4.1163497
-0.51729971 -0.43889523 4.3465223
-0.46343213 -0.619739 4.2728434
-0.51898766 -0.76658511 4.1488008
-0.24544281 -0.5996626 4.1188889
-0.51000047 -0.30875936 4.4113493
-0.72975886 -0.36888316 4.2618251
-0.40820792 -0.48489127 4.3137379
-0.55447203 -0.59102339 4.0839753
0.47968695 0.23244809 4.2239552
0.53698939 0.25463837 4.2645473
-0.51652908 -0.45155755 4.3286996
0.7624926 0.34227064 4.016995
-1.3431401 0.33807105 4.0103965
0.30650517 -0.18494618 3.5364919
0.27904895 -0.27559856 3.7350957
-0.58472043 -0.2827557 3.6615281
-0.75674367 -0.39667848 4.2347102
-0.62349635 -0.61651778 4.1978102
0.46932143 0.28330681 4.1529317
-0.32171744 -0.60662204 4.2511826
0.55177009 0.2427212 4.2164979
-1.304064 0.032024559 3.3569946
-1.1016781 0.092296004 2.8516524
-1.599584 0.5898931 2.6383147
-0.79392105 0.23373863 2.6120217
-0.77580482 0.35395107 2.318181
1.0933497 0.18116067 2.7200806
-1.3873574 -0.28214502 3.9712858
-0.28021842 -0.39410549 4.3084083
-1.3979242 -0.33239412 3.920248
-0.61234611 -0.029669475 4.5100121
-0.14083643 -0.41551381 4.1060958
-1.3224891 -0.27715331 4.0136037
-1.2979653 -0.23836094 3.8935585
-0.61493784 -0.036225647 4.515408
-0.62570494 0.043228325 4.5110826
-0.49934942 -0.0084736254 4.5317917
-0.10652912 -0.33897752 4.3737068
-1.3210002 0.018997818 4.4014273
-0.58136934 -0.09514232 4.6065631
-0.28370148 -0.65312147 4.1668158
-0.50329179 -0.40580592 4.2003398
-0.11475605 -0.34446818 4.3765545
-0.83143049 -0.45504433 4.1658683
-0.45524481 -0.61113095 4.2802191
-1.2708222 -0.17765066 3.7164655
-1.0568404 -0.41835541 4.3299618
0.12294912 -0.46488473 4.0741229
-1.0404644 -0.39037442 4.1797972
-0.34383783 -0.52405345 4.3028932
-0.6002003 -0.11410399 4.642345
-0.82965678 -0.45198715 4.1640892
-0.34163266 -0.64504659 4.1736999
0.1416761 -0.4717465 4.2789941
-0.5151608 -0.45912829 4.3513308
-1.1541325 0.34696144 4.1590505
-0.88227421 -0.10061665 3.5240273
0.12133987 -0.33168793 3.9427369
0.14039034 -0.31523827 3.922375
-1.0376056 -0.36876503 4.3012967
-0.52451324 -0.44869027 4.3212943
-0.52423501 -0.31211752 3.7136209
-0.75217158 -0.42114478 4.2631054
-1.010178 -0.023505447 3.4086342
0.074554093 -0.45549232 4.2366872
-0.7524839 -0.45759329 4.2423167
0.19189465 -0.40634674 4.1073565
-0.28208148 -0.4036175 4.3140216
0.18033311 -0.47149995 4.0432463
-0.58230257 -0.42216587 4.2502384
-0.49182343 -0.70155984 3.8803408
-0.57997203 -0.42458153 4.2456498
-0.9674654 -0.26609743 3.9052217
-0.22629791 -0.46206564 4.2500587
-0.44543788 -0.92856437 4.1795149
-0.49121347 -0.69950145 3.8790908
-1.3061473 -0.41544473 4.2996182
-0.84143758 0.16175359 4.6078076
-0.59725863 -0.42266336 3.6879702
0.041856132 -0.36911389 3.8847556
-0.9664008 -0.2658366 3.9031889
-0.84224766 0.15588331 4.609508
-0.54304713 0.14699104 4.5936465
-0.86290681 0.048280325 4.5999041
-0.58603275 -0.32156172 3.7046516
-0.87588835 0.010821534 4.5640039
0.0042557539 -0.33997214 3.9164755
0.012001311 -0.32938665 3.9041026
-0.69852805 -0.24128522 3.8026834
-0.71500123 -0.26859242 3.8200831
-0.42327157 -0.23386763 4.4293203
-0.092831053 -0.36618179 4.3928571
-0.45789173 -0.61218917 4.2822933
-0.8978188 -0.25764814 3.8746424
-0.86849391 -0.20972098 3.7998817
-0.06119306 -0.49719781 4.3541822
-1.392451 -0.035865523 3.5920353
0.21593207 -0.31294677 3.8235841
-0.14474085 -0.53418964 4.0373988
-1.3242979 0.18322882 4.2246289
0.22302996 -0.27040344 3.6078832
-0.073809065 -0.46238464 3.91272
0.22460234 -0.23322655 3.5527084
0.18279797 -0.26955077 3.5828543
-1.061253 0.043634463 3.1806974
-1.3759837 0.29035676 3.9605668
-0.8570624 -0.13420944 3.2531476
0.71649653 0.36056435 3.9971416
0.46317121 0.25755185 3.9715292
-1.2024128 0.1572305 2.867312
-1.5647165 0.4416424 2.9023523
0.77420056 0.10798457 2.8396761
-1.605444 0.38713506 2.2690098
-1.6614026 0.49356884 2.5236623
-0.77904582 0.25077087 2.4732175
0.62401223 0.0079168603 3.1867406
-1.3351276 -0.27261028 4.0079408
-0.37722313 -0.78258103 4.1775813
-0.86289036 -0.43548572 4.3127794
-0.34705302 -0.52783906 4.3030739
0.18144117 -0.40807498 3.9917707
-0.15227473 -0.38672325 4.3080945
-0.87459737 -0.16104567 3.5326781
-1.306157 0.42543828 4.0134225
-0.39885378 -0.57053149 4.2672935
-1.2169304 0.46862265 3.8909876
-0.56437325 -0.23824234 3.6077642
-1.2249899 0.55731148 3.8451886
-1.0499909 -0.015265468 3.1436794
-0.86933982 -0.026941618 4.554821
0.48725969 0.24148907 4.218771
0.71508902 0.3624053 3.9721532
-1.5870354 0.55085623 2.6816478
-1.5977764 0.58312416 2.6100881
-0.22281605 -0.46435726 4.25142
-1.5944313 0.58339655 2.5512624
-0.69781572 -0.44582877 4.3240891
-0.19622816 -0.58951008 4.0819588
-1.3189234 -0.33609205 4.1237764
-0.75528622 -0.38113409 4.143548
-1.3114685 -0.29003364 4.0324931
0.13698483 -0.46650556 4.2236409
-1.2347264 0.20533237 4.5487704
-0.82332057 -0.42036948 4.0765939
-0.57984918 -0.078868732 4.6029472
0.15674265 -0.47738826 4.0265088
-0.49259228 0.094115309 4.5552492
-1.2339122 0.24856524 4.5158873
-0.91743976 -0.26242879 3.8448529
-0.53307223 0.18787102 4.5848866
-0.70948768 0.11522261 4.5921516
-1.0086397 -0.3940258 4.3282704
-0.57123977 -0.44225815 4.2283854
-1.4458063 0.28399622 4.3506155
-1.4439055 0.28661072 4.3451114
-1.32156 -0.3018654 3.9483602
0.22806048 -0.18679881 3.52335
-0.30949301 -0.52560323 4.241313
-1.3987288 -0.33000964 3.9188924
0.73423195 0.39087391 3.9560311
-1.4524516 0.2552439 3.1606874
-1.4645762 0.30368745 3.1064842
-1.2845902 -0.039218679 3.4460242
0.1119131 -0.43718737 4.252737
1.0434604 0.22675771 2.781045
-0.31535965 -0.75199801 4.0012007
-0.20146948 -0.41453996 4.2666898
-1.2153438 0.47569612 3.8837647
-1.0336695 -0.065882899 3.2144427
-1.3950353 -0.5577842 3.8279345
-1.4162101 -0.48771057 3.7528052
-1.2924075 -0.3572551 4.0813169
-0.86067814 -0.43898606 4.3200579
-1.2376773 0.24632071 4.5438962
-0.86776882 -0.44650948 4.2010689
0.031490475 -0.35941467 3.9251184
-1.3217829 -0.2047572 3.8513687
-1.4119904 0.19610043 3.229641
0.48634037 0.26973513 4.0627751
-1.016228 -0.097673066 3.4886734
-0.77266359 0.047863405 4.402266
-1.1072801 -0.38651362 4.2087502
-1.0381386 -0.40429023 4.1811113
-0.72881842 -0.41947651 4.1634049
-1.2899777 -0.20034528 3.7843652
-0.75919843 -0.41902941 4.334918
-0.76779574 -0.19004869 3.6064253
-0.5000037 -0.72142744 4.2276106
-0.41489378 0.060831118 4.5541339
-0.73873609 -0.43298912 4.1852303
-1.2946109 -0.31272399 4.0398564
-0.49655437 -0.015605186 4.5150476
1.0338006 0.13976783 2.7787268
1.0932477 0.17007403 2.6985979
-0.77314508 -0.46496311 4.1845217
-0.36182907 -0.49084282 4.3170009
0.7372182 0.080400638 2.8800182
0.9668082 0.25955361 2.6176565
0.76010984 0.10630035 2.8426874
-0.78808028 -0.44320589 4.1725564
-0.86782426 -0.077688195 4.5392361
0.89144093 0.42763308 2.4472969
0.75996798 0.27522191 2.6719387
-0.37744832 -0.62759459 4.2493143
-0.86756665 -0.1505509 3.5705829
-0.9037599 -0.18233189 3.6634159
-0.35973805 -0.48731184 4.3152561
