# .PCD v0.7 - Point Cloud Data file format
VERSION 0.7
FIELDS x y z
SIZE 4 4 4
TYPE F F F
COUNT 1 1 1
WIDTH 424
HEIGHT 1
VIEWPOINT 0 0 0 1 0 0 0
POINTS 424
DATA ascii
-1.0189834 0.17282842 3.053395
-0.97192556 0.076305285 3.2655761
-0.58301663 -0.52938396 3.787899
-0.59165674 -0.58190727 3.9209378
-0.9683193 0.076284647 3.2726283
-0.59345907 -0.55365968 3.8470032
-0.82520115 0.11311664 3.1743507
-0.84568655 0.091400832 3.1525438
-1.0694002 0.088754453 3.2503405
-0.96591848 0.080399945 3.2665391
-0.96130377 -0.10871316 3.7436452
-1.1168964 -0.24108715 4.0297318
-1.2004988 0.71178144 2.2445383
-1.084285 0.33003688 2.6820192
-1.360752 -0.14367904 3.8790584
-0.95625883 -0.079920098 3.7507699
-0.92727208 0.50151652 2.2467217
-1.0523161 0.12759836 3.009578
-0.57821125 -0.57480717 3.834825
-0.86586279 -0.22250566 3.9692097
-0.89093322 -0.24092735 4.1881752
-1.143523 -0.23683095 4.1602082
-0.87906355 -0.089011617 3.5187578
-0.40158656 -0.62961644 3.8664749
-0.12624688 0.17589873 4.460084
-0.60444719 -0.55107182 4.101162
-0.24263418 -0.27904284 4.2151036
-0.7886619 -0.28670424 4.1424804
-1.1180223 0.47452924 4.0049777
-0.78281158 0.19879942 2.9766262
-0.72776508 -0.30735737 4.1777415
-0.60733795 -0.61323452 4.021347
-0.88536084 -0.24930859 4.1954293
-0.60255027 0.39140251 2.4462729
-1.1845655 -0.22290541 4.0300956
-0.94295198 -0.26562604 4.1178527
-0.17755575 -0.38625887 4.2490015
-0.17827706 -0.38965824 4.253787
-0.45509553 -0.36315519 4.2066402
-0.5113396 0.047205441 4.3805642
-0.43524277 -0.39109531 4.1880064
-0.84865075 -0.26777503 4.2054853
-1.1839054 0.52764744 3.9963419
-1.0537395 0.086686596 3.2495096
-0.72125971 -0.43828651 4.0955772
-0.85262555 -0.26251453 4.2035937
-0.98297435 0.12231791 3.0246637
-0.78681779 0.29675302 2.654058
-1.0661887 0.091245413 3.2702684
-0.83277518 -0.29466712 4.0908494
-0.63853884 0.35158935 2.568078
-0.60830629 -0.61690146 4.0133171
-0.80894417 -0.28989699 4.1466336
-0.72759646 -0.30506736 4.1787186
-0.72659546 -0.30512366 4.1776853
-0.44172025 -0.23616128 4.2637482
-0.50826621 -0.51958549 4.1435037
-1.3312896 -0.01980125 3.6208053
-0.94786608 -0.099690691 3.6892438
-0.51401961 0.0083286138 4.3668666
-0.58244658 -0.26796216 4.0734496
-0.76904684 -0.29987746 4.0933304
-0.55822921 -0.23397698 3.9553626
-0.94218421 -0.040732384 3.5332344
-1.1093949 -0.2293039 4.1707973
-0.58768791 -0.29021326 4.1109333
-0.64130056 0.36860898 2.5436103
-0.64649081 0.34828579 2.545996
-0.92405629 0.064238623 3.1354599
-0.65783566 -0.267672 4.2338452
-0.43334377 -0.51729894 4.058773
-0.58705717 -0.061341111 4.3271756
-0.90434885 -0.2763105 4.0018702
-0.59911102 -0.25042975 4.2502975
-0.67923439 -0.34693992 4.0923777
-0.43203819 -0.50713336 4.1051302
-0.51343727 0.007957682 4.366106
-0.5155015 0.012919212 4.3668823
-0.58838719 -0.098769762 4.3092132
-0.63253713 -0.45863989 3.9511092
-0.84879619 -0.12471623 3.744293
-0.18276457 -0.34151733 4.2613878
-0.18817975 -0.3401373 4.2611704
-0.78780824 -0.30353498 4.1335468
-0.76632917 -0.31533498 4.2141423
-0.43686214 -0.22721779 4.2623215
-0.77650785 -0.41638434 4.0914431
-0.554138 -0.48316815 4.1632953
-0.83500022 -0.30555412 4.0979753
-0.57739913 -0.25375816 4.0158606
-0.58629298 -0.031715374 4.3361926
-0.42071593 -0.45409873 4.1710258
-0.86835474 -0.17071651 3.8589723
-0.5031473 -0.35470903 4.2066846
-0.57992226 0.04370337 4.3687515
-0.7823683 -0.25575379 3.7855971
-0.70965642 -0.29813135 4.2051172
-0.88368934 -0.24477911 4.1967192
-0.85693735 -0.14884588 3.8197691
-0.79912698 -0.32343841 4.1863589
-0.18353315 -0.34159386 4.2603078
-0.26408404 -0.37684146 4.2091279
-0.45226285 -0.47291675 4.1701283
-0.52219278 0.025829606 4.3739796
-0.76292133 -0.12614635 3.765852
-1.1799754 -0.22321732 4.0507774
-1.1827409 0.50240105 4.0084043
-0.021346822 -0.40251771 4.1731281
-0.47984239 -0.6172418 4.0689111
-0.44695553 -0.645401 4.0521588
-0.56663805 -0.56911314 3.7569027
-0.92038822 0.038303118 3.340873
-0.61000162 -0.32977369 4.2214317
-0.14482962 0.19547549 4.4738202
-0.80298752 0.12599775 3.1626368
-0.6648522 -0.31373683 4.1295481
-0.19344357 -0.26946691 4.3023143
-0.77303261 -0.35485116 4.1009326
-0.75654984 -0.3204833 4.0736461
-0.7829259 -0.30203375 4.117578
-0.83971584 -0.038581938 3.4619975
0.050527513 -0.3667337 3.9699652
0.03184101 -0.3632572 3.9658484
0.049851649 -0.35100809 3.9850247
-0.38411063 -0.51211661 3.9848132
0.074447609 -0.30794585 4.0173135
-0.61281079 -0.31757331 4.2244158
-0.93655282 0.085920945 3.1134033
0.15406306 0.13532676 4.5254474
-0.72271156 -0.3015475 4.1717477
-0.79642838 -0.45149186 4.0962553
-0.5987314 -0.30313319 4.2063107
-1.1885384 0.51208496 4.002955
-1.1659602 0.56318063 4.0300512
-0.88532656 -0.27016422 4.1906142
-0.93813413 -0.28176036 4.0383334
-0.70449537 -0.425937 4.0572844
-1.0341868 0.18003044 2.957885
-0.72837818 0.1107216 3.1823394
-0.70116377 -0.43803003 4.0537744
-0.88926226 -0.28956828 4.0612774
0.44002759 0.33944777 4.197155
-0.76653498 -0.30219591 4.2072668
-0.85498643 -0.24840268 4.1274676
-0.18764396 -0.23294288 4.3091383
-0.78075016 -0.26518977 3.7889142
-0.78389096 -0.2811777 3.8003345
-0.95982695 -0.13345531 3.8005159
0.10957507 -0.41004691 4.0107899
-1.2996408 0.42986605 4.3484364
-0.85020941 -0.12447272 3.7410672
-0.4664408 -0.61040455 4.0586348
-0.64579022 -0.39309284 3.5679181
0.098424852 -0.37794676 3.9707453
-0.45477971 -0.65076792 4.0617104
-0.3796562 -0.2615909 4.246347
-0.93527257 -0.27159673 4.0228653
0.09732414 -0.389606 3.9513412
-0.74690145 -0.049128644 3.7038169
-0.7575469 -0.092554867 3.7388296
0.043739896 -0.41258323 3.9796019
-0.95080459 -0.11078303 3.6751158
-0.67883164 -0.30179638 3.5947578
-0.20497395 -0.38401806 4.2520695
-0.63952845 -0.26876888 3.5410922
-0.56589186 -0.42238972 4.1799603
-0.56834519 -0.42844453 4.1819596
-0.56297815 -0.1144671 3.5545549
-0.48044255 -0.61871487 4.0696726
-0.65015173 -0.4212575 3.9732504
-0.86653912 -0.29367033 4.0362077
-0.028496847 -0.2759161 3.8056319
-0.566109 -0.41780934 4.1803327
-0.80667359 -0.019938141 3.3952537
0.39289662 -0.1488772 3.6478271
-0.42834392 -0.019188311 3.2147791
-1.2337815 0.63700116 3.7320709
-0.32873872 -0.47342536 4.0073667
-0.42775977 -0.48984036 4.0354586
-0.84330946 -0.11496276 3.7056186
-0.57623219 -0.61467355 4.1007662
-0.25505814 -0.34497592 4.0396533
-0.57401544 -0.57424998 4.1170816
0.11678043 -0.38645989 3.9527307
-0.70965064 -0.37401393 3.6724284
-0.34047124 -0.64752954 3.7667496
-1.41971 0.091452554 3.4886992
-0.66144758 -0.32957485 4.1325121
-0.57733947 -0.15374485 3.5754511
0.28501409 -0.19158375 3.7616658
-0.93468201 0.074266776 3.1254582
0.12821212 -0.29759267 3.7767417
-0.97329956 -0.30500457 4.1876926
-0.62192994 0.18788098 2.8623545
-0.76243812 -0.091933861 3.6497233
-1.4186321 0.12671174 3.3863356
-0.9441883 -0.066535898 3.5626252
-0.17555664 -0.35692003 3.9480555
-0.16370311 -0.35820436 3.9512835
0.15569402 -0.21738438 3.8064432
-0.20788182 -0.40073416 3.9217162
0.16488956 -0.22726804 3.7701747
-0.72342902 -0.17289805 3.6526918
-0.52860522 -0.06222114 3.5362341
-0.58584994 -0.27763972 3.5659318
-0.53156364 -0.069440871 3.497798
-1.3266786 0.59497482 3.8473501
0.19246083 -0.16621566 3.5202277
0.24718109 -0.097146116 3.5366271
-0.47228047 -0.0054998109 3.2822728
0.5823428 0.11264791 3.1837816
0.10205648 -0.1279514 3.5302417
0.42545521 0.31956297 4.1516461
0.25449958 -0.19079271 3.5456636
0.43658841 0.33474073 4.1677089
0.41885397 0.33797571 4.1077356
0.35452235 -0.045814868 3.3371811
-1.1708819 0.65526718 3.6912136
0.58588791 0.39654788 3.9444559
0.39949536 0.032229729 3.2271037
-1.5274922 0.76375604 2.4708631
0.84622359 0.18952248 2.7650597
0.4492332 -0.011392105 3.2499425
0.46589491 0.018748773 3.201113
-0.9620887 -0.39441487 4.1558313
-0.38690561 -0.63462216 3.877444
-0.57826632 -0.64756113 4.0871935
-0.69784164 -0.31936571 4.2188978
-0.49130422 0.20104145 4.4440875
-0.88935632 -0.25515646 3.838007
-0.58066821 -0.67616022 4.0740128
-1.1023324 -0.25635257 4.1695695
-0.60165995 -0.58980119 4.1073503
-0.29864365 -0.4694418 4.013525
-0.61039817 -0.30641752 4.2254996
-0.56205273 -0.48993018 4.1546435
-0.61796224 -0.63362592 4.0271192
-0.33454707 -0.48168266 4.0139394
-0.81338453 -0.22510687 4.1285496
0.077186882 -0.2898716 3.8340335
-1.2290179 0.62358564 3.7445221
-0.78095317 -0.33473822 4.117342
0.17278934 -0.2301558 3.7140598
-1.0400593 0.17370214 2.9774151
0.42675161 0.31023401 4.164114
0.4392648 0.34820911 4.2020659
0.48265383 0.32932496 4.2080936
-0.60925293 -0.31911057 4.2077188
0.72683585 0.40458599 3.9745891
-0.56451583 -0.49151617 4.1567998
-0.63929832 -0.65276492 4.0084023
0.096849427 -0.24774198 3.613764
0.23522264 -0.14013723 3.4981904
-1.3718691 0.51373214 3.8431566
0.22845931 -0.18648493 3.6628149
-0.56522644 -0.40082851 4.1890874
-0.59334916 -0.17943141 4.2737679
0.32250065 -0.10770559 3.4581738
0.55959851 -0.0054376172 3.2964456
0.32277122 -0.093190424 3.4396305
-0.8401677 -0.25142092 4.0998058
-0.71697658 -0.47812968 4.0702615
0.4233686 0.36154661 4.092742
-0.41880241 -0.48446977 4.1414585
0.49959809 0.31660894 4.1609721
0.67467225 0.41938579 3.9307721
0.64165628 0.46793419 3.9043441
0.6913085 0.43565726 3.9741564
-1.2906462 -0.15513831 4.1344824
-1.5563307 0.71348923 2.6115556
-1.0756248 0.25482088 2.7000899
1.1249399 0.225346 2.6991303
0.096851207 -0.35234168 3.9265356
-0.69609898 0.10099607 4.3894138
-0.70230341 0.18091257 4.3846774
-0.96217227 -0.12016238 3.7879434
-0.58036214 0.12249294 4.4126978
-0.45123515 0.0058479756 4.3381901
-0.58598059 -0.27419269 4.0804963
-0.91366667 -0.3057113 4.0264959
-0.20738849 -0.24255967 4.275423
-1.3097621 -0.0053575919 3.5578439
-0.61128604 -0.30093378 4.2229877
-0.63391 -0.35342783 4.2520485
-0.55386668 -0.48177218 4.1625152
-1.3100635 -0.0052601532 3.5526032
-0.6112563 -0.32845363 4.2184196
0.04256409 -0.3669492 3.9914658
-0.66663808 -0.46155632 4.0156817
-0.78575993 -0.33631462 4.2251759
-1.1193794 -0.22987728 4.0281863
-0.43948194 -0.40080807 4.1919951
-1.3333859 -0.097456157 3.7411013
-0.20470256 -0.25108677 4.2702198
-0.18920729 -0.26336151 4.299655
-0.43612078 -0.52179968 4.0628252
0.048703145 -0.37472153 4.1970673
-0.65752608 -0.26747084 4.2340436
-1.1564169 0.56196046 4.0212069
-1.191813 0.51249921 4.0027785
-1.3135616 0.27932858 4.3068666
0.055918116 -0.23391505 3.860585
0.077000178 -0.2185234 3.8414338
0.047351051 -0.24200436 3.8661687
0.042715959 -0.25114346 3.8393049
-0.91649908 0.049367122 3.3368278
-0.57235801 -0.5343293 4.1329026
-0.85141003 -0.27609313 4.1962256
0.044957757 -0.37865007 4.1995573
-0.83861077 -0.27608573 4.1283541
-0.014818618 -0.35489595 4.1509004
0.0066697402 -0.33874047 4.1142082
-0.80827481 -0.02102438 3.3940263
-0.61317378 -0.61893767 4.024229
-0.66611302 -0.28879413 4.1211286
-1.0236381 -0.10982721 3.7587667
-0.31585145 -0.3452597 4.1463938
-0.57437754 -0.59772873 3.7542155
-0.57066393 -0.56824982 3.7597167
-0.44965732 0.22304742 4.428484
-0.96460283 -0.12229086 3.7547827
-0.95549673 -0.11801451 3.7336948
-0.65014327 -0.28618652 3.5634127
-0.31196621 -0.61043578 3.8447754
-0.63450837 -0.18582863 3.5810101
-0.050652701 -0.22574809 3.8155427
-0.74814498 -0.099571198 3.6724219
-0.76706594 -0.12594464 3.6887388
-0.18613356 -0.25663814 4.2971191
-0.55668503 -0.48268551 4.1644258
-0.19153073 -0.23637658 4.2671256
-0.40498647 -0.44090953 4.0255122
-0.77526432 -0.41591683 4.0859866
-0.48088077 -0.34405246 4.1834707
-0.5769347 -0.62941384 4.0931277
-0.14384875 -0.35393056 3.8186893
-0.86779958 0.015648145 3.1147525
0.43224263 0.36504149 3.9018328
-1.1734746 0.32509026 2.7099295
-0.73530769 -0.22456294 4.1525497
0.6201005 0.077816375 3.1366627
0.046921242 -0.23823865 3.8656123
-0.95269305 -0.28442484 4.1713367
-0.44290107 -0.40441504 4.1919746
-0.39396685 -0.47202578 4.0183101
-0.83181882 -0.28152686 4.1198244
0.18697163 -0.236368 3.802953
-0.24146004 -0.27398625 4.2089248
-0.36065054 -0.67189378 3.8481038
-1.3304876 0.59898329 3.8486116
-0.47031763 -0.67086524 4.0498543
-0.49470702 -0.44427252 4.1530681
-1.2319596 0.63724983 3.7318022
-0.60268921 -0.10383733 3.4858084
-1.0472175 0.1447579 2.9943688
-0.45533505 -0.47675788 4.1735616
0.25620022 -0.12708732 3.5489669
-0.74036276 0.081932902 3.2106333
-0.27281979 -0.44766632 3.9620879
0.62492567 0.043643542 3.2283807
0.5403741 0.036268227 3.2891369
0.4350937 0.31885204 4.1594133
0.62038314 0.054684017 3.2379408
-1.5079248 0.57648385 2.803319
0.7236135 0.43766701 3.9661884
0.71481752 0.38290802 3.9273856
0.68332827 0.42722392 3.9270718
0.25826648 0.075384423 4.1465278
0.67144459 0.41476431 3.9339087
0.70670116 0.37611136 3.9287417
-1.5246823 0.73876953 2.5028799
-1.5294071 0.77153826 2.4308989
-0.71838391 -0.49561024 4.0416007
1.2663076 0.28054145 2.5490613
-0.28275296 -0.47420979 3.9800203
-1.3753767 -0.11515724 3.8653531
-1.3028914 0.37558025 4.3866415
-0.89842039 -0.27156141 3.9379554
-0.66761625 0.061822105 4.4759836
-0.66861075 0.056563456 4.4787607
0.078402758 -0.38127401 3.9459047
-0.56950384 0.22457942 4.436799
-1.357277 -0.051175073 3.7241502
-0.78675818 0.25734699 4.4608359
-0.84718573 -0.12133227 3.7414837
-0.53198111 0.29117602 4.4853005
-0.56337899 0.30854699 4.4730616
-1.0966649 -0.23517299 4.1782742
-0.65733445 -0.30692255 4.1043634
-1.3810786 -0.12646461 3.7807374
-1.3595825 0.51969504 3.8803258
-1.1228205 -0.21628906 4.0217714
-1.2380167 0.63772297 3.7419622
0.41307402 0.37796304 3.9365842
-1.3292456 0.58354807 3.8568261
-1.2295693 0.64422452 3.7247057
-0.56765866 0.27765018 4.482008
-0.69033593 0.11634485 4.3828292
-0.58915985 -0.1354854 4.2908068
-0.9515186 -0.29521775 4.0595036
-0.8420828 0.19340496 4.2673531
-1.1178873 -0.24389754 4.0295973
-0.82190186 -0.29310951 4.0769191
-0.80932581 -0.27571952 4.0302181
-0.80278808 -0.044764273 3.4725449
-0.82123339 -0.28866938 4.0513802
-0.57104814 -0.53608811 3.800559
-1.3452263 -0.089349374 3.7615612
-1.36023 -0.13871898 3.8736401
-0.57696575 0.11521411 4.3961296
-0.324139 -0.34709406 4.1281228
-0.22370681 -0.38940996 4.0016694
1.0598763 0.18724366 2.7540278
1.1255171 0.21427175 2.6776485
0.20331779 -0.18864712 3.4597814
-1.1981446 0.67992616 3.7126567
-0.77976102 -0.25534597 3.7783413
-0.59252322 -0.16123922 4.286788
-0.45646733 -0.36667112 4.2051034
0.75504327 0.14397033 2.8373933
0.99021399 0.19896032 2.312001
-0.47537088 -0.5024128 4.1362314
-0.45408967 -0.36325857 4.2034955
-1.1922326 0.67308861 3.7190926
