# .PCD v0.7 - Point Cloud Data file format
VERSION 0.7
FIELDS x y z
SIZE 4 4 4
TYPE F F F
COUNT 1 1 1
WIDTH 241
HEIGHT 1
VIEWPOINT 0 0 0 1 0 0 0
POINTS 241
DATA ascii
-1.0226982 0.13941674 3.1957848
-0.697115 -0.49491683 3.7273366
-0.7177183 -0.55061686 3.8577423
-0.69889832 -0.52072221 3.78829
-1.0196377 0.13906477 3.2030818
-0.69301808 -0.53432852 3.746937
-0.71288389 -0.52034312 3.7847519
-0.82456207 0.1963104 2.9458666
-0.86824024 0.1728694 3.1168618
-0.85387659 0.15999614 3.081507
-0.88781494 0.15256988 3.0929549
-1.1182144 0.15609394 3.173718
-0.88304257 -0.10526913 3.7242024
-0.72786283 -0.62935948 3.8680923
-1.0550749 -0.058659922 3.6676025
-1.23663 -0.19245598 3.9372578
-1.0567733 -0.06510783 3.672116
-0.95311642 -0.10795347 3.6727226
-0.89910388 0.14971502 3.0957379
-1.1179498 -0.062334027 3.6766684
-1.081576 0.20069377 2.9361558
-1.2728506 -0.19066489 4.0654607
-1.0978392 0.0057414104 3.5364494
-0.73189706 -0.24424025 4.1459947
-0.79710644 -0.24531841 4.1758938
-0.26646212 0.17353724 4.4523211
-0.91976494 -0.2539579 4.0727019
-1.1139612 -0.057679467 3.6686628
-1.2092675 0.52305794 3.9337904
-0.87412983 -0.0011966744 3.4168088
-0.79750627 -0.23542508 4.177341
-0.66223603 -0.34439132 4.1670933
-1.4488413 -0.16657446 4.0328236
-0.84601492 0.1943845 2.9665165
-0.8625133 -0.27792981 4.1117649
-1.0187261 -0.21422583 4.1194005
-0.58108115 0.46165583 2.4159653
-1.3034104 -0.17164394 3.9331276
-0.65935081 0.034165278 4.3329968
-0.65119809 0.027304225 4.3255558
-0.64897466 0.062269028 4.3405828
-0.57491738 -0.37335035 4.141264
-0.50397724 -0.33986139 4.1177897
-0.90528095 -0.25193527 4.0581918
-0.98359197 -0.23438503 4.1316051
-0.74508828 -0.63020849 3.9283261
-1.2397552 -0.20203713 4.0746469
-0.73299438 -0.66531163 3.8239067
-1.5018492 -0.069363855 3.7717998
-0.9041391 -0.27861071 4.1396103
-0.87284333 -0.0018153882 3.4093544
-0.7420224 -0.52201968 4.0363989
-0.99879777 0.1810572 2.9298549
-1.0188664 -0.22665778 4.1144428
-0.78389692 0.3687737 2.60656
-0.73989636 -0.60404772 3.9275556
-1.0460674 0.23766524 2.9831223
-1.0790974 -0.25428513 4.0029025
-1.282392 -0.19274426 3.9629893
-0.74510455 -0.58317906 3.9621329
-0.86233383 -0.2756753 4.1128197
-0.86126053 -0.2757431 4.1118622
-0.66228485 -0.33919826 4.1689768
-0.9604643 -0.23958339 4.0395284
-0.62160116 -0.4015404 4.1406727
-0.58132553 -0.22037345 4.2208905
-0.75832069 -0.31129038 4.1667314
-0.65915638 -0.30683771 4.1774735
-0.67646587 -0.48986262 3.7183704
-0.9991225 -0.24841714 3.9290941
-0.94674063 -0.087954052 3.6833017
-1.004087 -0.25216272 3.9330611
-0.6740666 -0.20532112 3.9048946
-1.0176152 0.0141478 3.461313
-0.84246218 -0.33800888 4.03128
-0.67122197 -0.41517335 4.1350398
-1.2374289 -0.20227773 4.0749021
-0.59661919 0.14812747 2.8178566
-1.2703681 -0.18979451 3.9157143
-0.85134816 0.178477 2.9743829
-0.79558992 -0.24254714 4.1740704
-0.91733992 -0.30104107 4.1498432
-0.97433919 -0.27147558 3.9663699
-0.72443175 -0.04174209 4.2785044
-0.4421576 -0.32202119 4.0703654
-0.65143353 0.023536922 4.3248477
-0.65336448 0.028553126 4.3256154
-0.72579354 -0.078593142 4.2593875
-0.65048009 0.058053225 4.3401456
-1.4705355 -0.17047241 4.0336366
-0.33235669 -0.33413118 4.2340865
-0.30449146 -0.30667424 4.2292938
-0.70137358 -0.57856685 3.7042317
-1.010169 -0.069585957 3.6449573
-0.57849157 -0.21392888 4.2263741
-0.65339565 0.035271466 4.3218532
-0.96328127 -0.26976809 4.024332
-0.80001056 -0.051892679 3.521863
-0.77292192 -0.42371586 3.9155488
-0.77744097 0.57200241 2.1743591
-0.32771567 -0.33574557 4.2335291
-0.32856688 -0.39160129 4.2225976
-0.34948307 -0.25225019 4.2440376
-0.66008747 0.04152118 4.3325768
-1.3004088 -0.17269193 3.9540753
-1.2729787 0.55335069 3.9332213
-0.30490091 0.15198746 4.4613638
-0.98588431 0.20028143 3.0575454
-0.89060855 0.1535316 3.0896149
-0.84474218 0.18517734 3.1072209
-1.2405565 -0.23900047 4.112401
-0.90359008 -0.32152519 4.0304227
-0.6966784 -0.45401132 4.0940199
-0.092528947 -0.3611244 3.9531865
-0.091688357 -0.35793757 3.9553921
-0.074733198 -0.346926 3.9762108
-0.0510596 -0.30574763 4.0115061
-0.33629662 -0.26815942 4.2735429
-0.57312226 -0.39900196 4.1431665
-0.97560894 0.15172109 3.0470183
-0.54628283 -0.41723251 4.1158133
0.10121212 0.17893714 4.5677576
-1.0495092 -0.2577062 3.9945915
-0.78372806 0.36756212 2.5974047
-0.73593611 -0.27955186 4.1499662
-1.2556305 0.61281961 3.9578552
-1.0576597 0.25374302 2.8875375
-0.76614076 -0.24837148 3.996686
-0.62433863 -0.40216061 4.1402683
-0.83151084 -0.40616786 3.9862874
-0.65174407 0.14991857 2.8066647
0.32914919 0.28845778 4.2630162
0.32373038 0.32170278 4.2372246
-0.90318203 -0.27204347 4.1384649
-0.84080654 -0.33841521 4.0290031
-0.88439775 -0.22327501 3.7215009
-0.88898396 -0.23942828 3.7321751
-0.81670791 0.062383801 4.4316678
-0.81532204 0.066065088 4.4303274
-0.51911408 -0.24774675 4.2074051
-1.2475873 0.64012098 3.9434006
-0.79833281 -0.2416867 4.1733093
-0.8271625 -0.47649616 3.9797208
-1.0318191 -0.27059597 3.9795845
-0.84027648 -0.34007114 4.0270176
-1.1078407 -0.26619297 4.1034904
-0.92489189 -0.26076573 4.0827618
-1.2765933 -0.18220171 4.0601268
-0.79739237 -0.26259524 4.0570798
0.35943082 0.33115703 4.2599044
-1.2378271 0.56304109 3.9744959
-0.57319313 -0.43973932 4.1006484
-0.57969952 -0.21490858 4.2205324
0.31190461 0.30363679 4.1901865
0.62568343 0.36613518 3.9887183
-0.75094914 -0.30758035 4.1639819
-0.62808269 0.21343516 4.4099693
-0.75335658 -0.29649037 3.4955757
-0.73248768 -0.27060217 3.4648685
-0.99730724 -0.045257688 3.5393527
-0.8315379 -0.26828599 4.138237
-0.31446248 -0.314244 3.9632695
-0.74204803 -0.56311929 4.0425768
-0.70243585 -0.46619022 4.0956354
-1.4465778 -0.13126132 4.0459476
-0.97174704 0.09605898 3.3310764
-0.14573012 -0.29249588 3.8799965
-0.64573544 -0.091420062 3.5343659
0.21488185 -0.18601066 3.8003228
0.24531969 -0.22297077 3.7724693
-0.51783305 0.22216488 3.1657019
-1.0652207 0.24712785 2.9063797
0.31739867 0.29767832 4.2050743
0.31190848 0.29393232 4.2024331
0.32292554 0.33035216 4.2423239
-0.50600702 -0.25981292 4.1632128
-0.83174616 0.12302531 4.3372617
-0.37678739 -0.36982504 4.1934223
-0.58742362 0.019734262 4.3015857
-1.0362802 -0.26491061 3.9472263
-1.3844314 0.063273795 3.459554
-0.69456947 -0.45857492 4.1043334
-1.2774532 -0.21103351 4.0814466
-0.076350704 -0.37313607 3.9454732
-1.4382831 0.062037203 4.0827904
-1.2385705 -0.18111964 3.9358659
-1.425227 -0.032717358 3.6377249
-0.34619179 -0.24477531 4.2445273
-1.2454989 0.61146331 3.949713
-1.2812183 0.56394529 3.9272392
-0.9633345 0.11474627 3.305944
-0.96807545 0.1080841 3.3176336
-0.067131959 -0.24297716 3.8333998
-0.97384745 0.10841458 3.2701287
-0.98595196 -0.24233629 4.1219225
0.042950407 -0.2322378 3.8163142
-0.12705508 -0.33644688 4.1021323
-0.50946105 -0.26923853 4.1681814
-0.022895683 -0.37400186 3.9583402
-0.79881501 -0.25777599 4.0647993
-0.45110416 -0.3311426 4.1100302
-0.69141454 -0.56376362 3.6913087
-0.68412477 -0.5334667 3.6990073
-0.77995878 0.38547912 2.5792544
-1.0597078 -0.072391883 3.6780548
-0.69755602 -0.45942777 4.1060009
-0.8218683 -0.0078110732 3.5045407
-0.11965322 -0.32545054 3.8440351
-0.98670393 0.026763249 3.3636436
0.079905219 -0.23291333 3.8083346
-1.4045498 0.65992785 3.765826
-1.2961324 0.69741672 3.6578593
-1.0781645 -0.25848749 4.0083165
-0.78792101 0.13458925 3.1670187
0.17212093 -0.1196515 3.5635655
-0.87842834 0.13745093 2.9929478
0.30541486 -0.12127303 3.4674292
0.30027232 -0.12341126 3.4690802
0.49199679 0.25803146 4.0253606
-1.4912958 0.84336448 2.4141338
-1.4781177 0.87958753 2.2851837
-1.3029172 0.6978544 3.6675501
-1.4045062 0.6442405 3.7736473
-1.0760987 -0.25382793 3.9776244
-0.96511281 -0.12118548 3.7940791
-1.2377117 -0.1952206 3.9369664
-0.93147475 -0.23915553 3.9595904
-1.4144182 0.041114211 3.5182247
-1.0295779 -0.26305002 3.9761667
-0.87428313 0.0062708901 3.4110672
-1.0354419 -0.24881566 3.9431968
-0.94541878 -0.25219131 3.979413
-1.4382679 -0.024704188 3.6574795
-1.4635131 -0.076440528 3.7666132
-0.71301335 0.13236247 4.3532405
-0.35000613 -0.37497559 3.9713111
1.0446316 0.18409094 2.8403141
1.1168092 0.21056052 2.7698672
-0.59644854 -0.34857896 4.157454
-0.43972737 -0.32437122 4.0696344
-0.59383106 -0.34522054 4.1561298
