# .PCD v0.7 - Point Cloud Data file format
VERSION 0.7
FIELDS x y z
SIZE 4 4 4
TYPE F F F
COUNT 1 1 1
WIDTH 471
HEIGHT 1
VIEWPOINT 0 0 0 1 0 0 0
POINTS 471
DATA ascii
-0.86196417 -0.29311419 3.5721784
-0.75604367 -0.58895528 4.3737721
-0.87003303 -0.28992915 3.5650573
-0.69339651 -0.59377265 4.3364072
-0.97674584 -0.54470456 4.2417397
-1.090991 -0.52747202 4.2693219
-0.69209057 -0.58922249 4.4695568
-0.7176944 -0.40389824 3.9091492
-0.21748476 -0.50539851 4.223403
-0.23044753 -0.59741557 4.433754
-0.20431648 -0.53755903 4.4391851
0.19333874 -0.47635049 4.3293037
-0.82368684 0.10991251 4.3124809
-0.8710891 -0.60390484 4.4885883
-1.12893 -0.59173644 4.2546601
-0.5031684 -0.58523095 4.3850327
0.28259751 -0.57296497 4.353231
0.0017679444 -0.59544796 4.3667574
0.28710547 -0.57016432 4.3530617
-0.8980853 0.15076067 4.3182254
-0.87308782 -0.21076852 3.3603377
0.0047375411 -0.46598291 4.4196501
-0.01627663 -0.51542348 4.3762136
-0.65380114 -0.5926429 4.4685969
0.45995134 -0.45606551 4.0635047
-0.20400341 -0.53469115 4.4369535
-0.084833987 -0.23387177 4.5350447
-0.087514348 -0.22930554 4.5362468
0.032652166 -0.67836422 4.2008357
0.066273525 -0.64187145 4.2244244
-0.33342326 -0.57137209 4.3632789
0.11185896 -0.57937199 4.2019033
0.0075584613 -0.45640597 4.4172115
0.27059838 -0.52627331 4.3607306
-0.094682217 -0.21745773 4.5446181
-0.75270158 -0.58605945 4.3705339
-0.89003563 0.12654246 4.3297544
0.41866726 -0.56208879 4.2406917
0.056493886 -0.51213318 4.3531094
-0.22487703 -0.58513349 4.3366094
0.43835771 -0.50632375 4.0416746
0.46139812 -0.45854834 4.067914
0.090132654 -0.70065778 4.1549616
-0.25433069 -0.71651435 4.2704239
0.73898816 0.24760458 4.1648784
0.25817275 -0.41814044 4.4093027
0.084178329 -0.75726825 3.9918301
-0.010850751 -0.73809344 4.3033986
-0.50351471 -0.58246142 4.3887439
-0.10019068 -0.67352438 4.3645444
-0.48854962 -0.25932163 4.6953154
-0.048479889 -0.59176517 4.3842931
-1.0210083 0.24017502 4.0708795
0.15562576 -0.54992723 4.1606369
0.47984567 -0.53551245 3.9995193
-1.1569142 -0.3376492 3.8732147
-0.84777373 0.14637767 4.3589711
0.026466034 -0.68796587 4.3060846
0.0049766782 -0.4603478 4.4187417
-0.24097832 -0.60118932 4.314868
-1.0786456 0.18736519 4.2034478
0.44500205 -0.31752235 3.55708
0.17153916 -0.55991024 4.1008496
-0.092110068 -0.72069407 4.3351407
0.66616821 0.18773231 4.01371
0.94298637 0.33244583 3.8391612
0.0084953653 -0.82984364 4.0447989
0.16846061 -0.48498327 4.076519
-0.92556763 0.0053325961 4.7367644
0.083434865 -0.79824024 4.0705109
0.058988858 -0.6855492 4.1258888
0.16669081 -0.62457663 4.0990248
-0.21735553 -0.22343774 4.6831131
0.50809276 -0.53775609 4.1957388
0.1557586 -0.66377807 4.0805507
0.49744889 -0.56395787 4.2162447
0.50045824 -0.55756205 4.2146211
-0.092748508 -0.90084237 4.2766123
-0.2366949 -0.59292811 4.4309649
0.12972759 -0.68085849 4.1444988
-0.15343472 -0.56513715 4.4185948
-0.090164222 -0.74033785 4.338994
0.12309697 -0.79257429 4.1001019
-0.24423192 -0.57310998 4.2881517
-0.91437089 -0.21147358 3.2922125
0.72427714 0.21535523 4.1354685
0.73777771 0.25628746 4.1698389
-1.1089258 0.099549703 4.2090764
-1.1173228 0.11297341 4.1968455
-0.064626329 -0.58726221 4.3833871
-0.87865466 -0.55659801 4.4897628
-0.25909919 -0.75806838 4.289927
0.89436781 0.3561005 3.8542442
0.91674489 0.37655714 3.8930321
0.056351725 -0.73884678 4.1314311
-0.23391254 -0.56032276 4.3249278
-0.28216645 -0.57823968 4.3917894
-1.0139353 -0.50863248 4.2144589
-0.29251084 -0.094789147 4.5938244
-1.1120026 -0.66838491 4.0660253
-0.40778232 -0.56643486 4.4489527
0.24151024 -0.41680765 4.3802304
0.23454516 -0.42314869 4.3843799
-0.4874199 -0.6231609 4.2895136
-0.082035609 -0.73062497 4.3449197
-1.0211587 -0.41196981 3.9120262
-0.89683771 -0.37466845 4.5293207
-0.48632431 -0.61996627 4.2874513
-0.20369847 -0.53443325 4.4370804
-0.9017027 0.13474365 4.3262124
0.48390651 -0.52638048 4.252234
-0.28141093 -0.38171199 3.8688512
-0.8703472 -0.27419308 3.582567
0.5065949 -0.5533995 4.0394945
0.48777694 -0.52367407 4.0101104
-0.23406306 -0.55884504 4.3335342
-0.23219472 -0.56109494 4.3286586
0.11982575 -0.55651289 4.2779589
-1.0894176 -0.5358007 4.1276312
-0.047528051 -0.0089194952 4.5822382
-0.19643025 0.066468813 4.6675043
-0.90779388 0.025695302 4.7091751
0.51053929 -0.52368593 4.2001452
0.31515703 -0.44272712 3.8743606
-0.059005469 -0.56036979 4.3997636
-0.68316633 -0.45849097 4.0495462
0.058738638 -0.77765524 4.1550345
-0.64974922 -0.59016198 4.4826856
0.32112798 -0.40102044 3.8858514
0.27966675 -0.41735455 3.9113181
-0.89665252 -0.53291947 4.4737864
-0.35201225 -0.7095294 4.5361538
-0.029331518 -0.67586505 4.318481
0.50216651 -0.49456507 4.2800331
-0.084183238 -0.73193008 4.3473921
0.25962779 -0.41617364 4.4046192
0.0074349153 -0.80731946 4.0096354
0.45884058 -0.19004691 3.4054806
0.35101965 -0.28080899 3.5854981
0.42189059 -0.28419352 3.53368
0.0495947 -0.74865478 4.1499343
0.067614034 -0.73257673 4.0843396
0.66607553 0.23136592 3.8885312
0.021194709 -0.86162204 4.0311007
-1.669346 0.17539859 2.7892087
0.50276703 -0.53544563 4.0015426
0.029640548 -0.72614622 4.2733326
-0.98156959 -0.53961462 4.2352314
-0.21924211 -0.2148252 4.6849055
-0.14444317 -0.5705505 4.4057069
-0.1556447 -0.56940913 4.3936486
-0.49794585 -0.60340023 4.4393597
0.070099011 -0.89690435 3.9962945
-0.51105142 -0.62053972 4.3599567
0.01420554 -0.7086066 4.3345046
0.72981149 0.225079 4.1290827
0.9005512 0.36514652 3.848768
0.89272869 0.35111976 3.8580017
0.12372681 -0.55833989 4.2787781
0.13873635 -0.68411493 4.1083593
-0.42511806 -0.54143822 4.2548904
-0.99865723 -0.51959872 4.231503
-0.39043698 -0.53905421 4.3144746
0.11559323 -0.57731032 4.1959548
0.17314953 -0.55416769 4.0372663
-0.91296268 0.037513789 4.691998
-0.017855829 -0.65481567 4.3553104
-1.0222582 -0.45878428 4.0897136
-0.16226932 0.057711028 4.6502438
0.032325741 -0.61731398 4.2912769
0.043009918 -0.71573019 4.1702576
0.088441305 -0.78827012 4.0471187
-0.87330943 -0.39068624 4.3809218
-0.34224236 -0.60467553 4.3698101
-0.083517201 -0.73612493 4.346911
-1.1033074 0.14203189 4.3072944
0.41994518 -0.24978229 3.4866538
-0.090597339 -0.52726036 4.2809911
-0.14955549 -0.38731441 4.483418
0.26878276 -0.43744299 3.9666457
0.18635823 -0.51477098 4.047451
-0.52085918 -0.59249192 4.4142241
-0.012494637 -0.84828693 4.2263832
0.044561122 -0.62962669 4.2829127
-0.04363839 -0.67056656 4.3076968
-0.069695309 -0.79682654 3.9983313
0.110901 -0.80478609 3.9723639
0.038319007 -0.70720452 4.1567798
-0.8808291 -0.51265365 4.4673347
-0.034324881 -0.64574093 4.3170557
0.128721 -0.68849069 4.0095234
0.058383089 -0.67442405 4.0545368
0.1598822 -0.65335655 4.0719643
0.42084065 -0.54390299 4.2228618
-0.4829869 -0.24445979 4.7288518
-0.25089428 -0.17397478 4.7612438
-0.95690686 -0.36494771 4.5780687
-0.30138397 -0.60593808 4.4455233
-0.39427814 -0.6445387 4.3267965
-0.2175369 -0.62212408 4.3199463
-0.17338787 -0.62623501 4.3020926
-0.93609315 -0.1935574 4.6707454
0.091527313 -0.79648006 4.0562482
0.030244794 -0.7310124 4.2812018
0.20812087 -0.45580727 4.0277886
-0.5210191 -0.48421007 4.1413789
0.39388552 -0.41400066 3.9353778
-0.22938168 0.1211387 4.6284051
-0.70507717 -0.57064831 4.3299084
-0.082470015 -0.73176897 4.3474336
0.33850881 -0.22551419 3.3868072
-0.34555888 -0.13843136 4.8063378
-0.89817774 -0.52845544 4.4737248
-0.66982698 -0.57520324 4.4715118
-0.36242399 -0.83820212 3.8646016
0.44281733 0.25634229 4.1465569
-1.047187 0.15456073 4.2202525
0.12937936 -0.69469535 4.0207729
0.64730173 0.27043226 3.9162452
0.59957248 0.28014365 3.9724972
0.0043914127 -0.85130119 4.138288
-1.1710486 0.057742186 4.1336112
0.073536947 -0.93105519 4.0037303
-0.06059907 -0.59791929 4.3886867
-0.51351821 -0.61790204 4.3500762
0.13283719 -0.72049987 4.0784545
0.037145764 -0.87132311 4.0421834
0.34254014 -0.38028896 3.6219337
0.38987148 -0.44897538 4.225636
0.56313181 -0.19051999 3.4520879
-0.24760039 -0.73078477 4.2914267
0.45546016 0.23394461 4.1374846
0.071146734 -0.93276376 4.0113592
0.45165768 0.24434869 4.0913639
0.025380097 -0.83565575 4.1626344
0.57515764 0.24899504 3.8794775
0.076435305 -0.93533719 4.0133591
0.62314498 0.30492577 3.9618018
-1.0197691 0.24772726 4.0627804
0.36632803 -0.14343067 3.2161038
0.039294757 -0.86543417 4.0319376
0.57342291 0.25859174 3.862921
0.0053361654 -0.81516951 4.2137351
0.762927 -0.0090776915 2.8609071
0.46867186 0.11225343 2.685652
0.46491235 0.142204 2.6443179
0.44896695 0.077690333 2.7390792
0.49117082 0.052072987 2.6531363
0.48986739 0.15207227 2.5090957
0.06847474 -0.89622402 3.9740493
0.51805913 0.080740511 2.5267022
0.022538248 -0.69413096 4.2021303
0.021591876 -0.79288214 4.1529365
-0.49837199 -0.61651284 4.2852612
0.27942017 -0.4209483 3.9195642
-0.15913741 0.026890721 4.6599016
0.2661117 -0.22947299 3.4387147
0.50830585 -0.19991267 3.4327323
0.51177078 -0.52492732 4.1853118
0.13484555 -0.71079022 4.0728354
0.25752231 -0.4285484 4.4163198
0.11194948 -0.81538111 3.9578848
0.10714501 -0.85041666 4.0149083
-1.1411334 -0.75556237 4.0429773
0.41632462 -0.48347098 4.1551471
-0.060048029 -1.09655 4.2033973
-1.1206983 -0.73587835 3.9734302
-0.27020749 -0.15642516 4.5894437
0.054495234 -0.72477609 4.1447792
0.049905706 -0.73867583 4.1376328
-0.265273 -0.63342762 4.4353299
-1.0878057 -0.53644156 4.1115432
-0.039601307 -0.64984691 4.3319025
-0.04259944 -0.64747065 4.3340993
0.27234492 -0.3863804 3.9073467
0.2840468 -0.47254795 4.3408155
-0.73646957 -0.49199867 4.4056883
0.27956569 -0.41960537 3.9138141
0.033380665 -0.68241656 4.3090367
0.41144887 -0.51891387 4.2374797
-0.1487758 -0.39076236 4.4778032
0.045043733 -0.73500824 4.1868992
0.15943344 -0.66284114 4.0832582
0.025806 -0.70019883 4.2024212
-0.91205907 0.035614736 4.7202697
0.65154231 -0.39313269 3.8730102
0.052026868 -0.79148859 4.029716
0.070915572 -0.93205971 4.0099659
-0.67296582 -0.47052354 4.0489669
0.073511891 -0.93256325 4.0108109
0.25811693 -0.32161725 3.706655
0.26459566 -0.28279245 3.6624029
-1.1251595 -0.41368741 4.0251026
0.065330036 -0.78091836 3.7358191
0.26749584 -0.27324212 3.6468952
-1.1496217 -0.33774227 3.8682511
0.41405466 -0.17207699 3.3930521
0.34313315 -0.060778484 3.2800672
0.4553816 0.25035676 4.0876117
0.13502675 -0.72735542 4.1872816
0.098720208 -0.57512736 4.1959567
-0.85853308 -0.4041757 4.3767581
0.10965219 -0.57707489 4.1984758
-0.51864833 -0.61799908 4.3298936
-0.65775555 -0.57836241 4.4759011
0.12930945 -0.55813766 4.271286
-0.51414633 -0.62871689 4.3331299
0.47315934 -0.48816049 4.1634178
0.40332538 -0.51892602 4.2327337
0.1555583 -0.60186982 4.1427193
-0.21038967 -0.37796444 4.4909987
0.15595569 -0.60271168 4.1391282
0.47523731 -0.49782228 4.1688623
0.18390988 -0.51282436 4.0429068
0.31005421 -0.43320706 3.9157612
-1.0751834 -0.032919627 4.4125543
0.31832367 -0.19592647 3.4294891
0.5503009 -0.34839934 3.5805879
0.029953998 -0.48679364 3.2002363
0.030787323 -0.48875496 3.2066483
0.031752069 -0.48614863 3.1989658
0.023771387 -0.50222242 3.197391
0.25146562 -0.34114614 3.5852358
0.69368941 0.60231584 3.7617145
0.70141429 0.24870628 3.9749115
0.37180138 -0.22023509 3.3344412
0.36849967 -0.13476147 3.210757
0.60013723 0.41599137 3.6568699
0.34361336 0.024960177 2.8351343
0.34374654 0.010651429 2.8562853
0.38387188 0.19929281 2.572479
0.35804826 0.077647589 2.7518272
0.49940446 0.026170041 2.4233613
0.34776524 0.04793993 2.4962199
0.34415519 0.046333581 2.4964643
0.46626019 0.037590992 2.3958502
0.37130994 0.14335679 2.5056765
0.38208711 0.12265084 2.5229847
0.10287127 -0.81683552 3.9694693
0.11021156 -0.80977631 3.9518976
0.13361722 -0.70412219 4.0648627
-0.055675037 -0.79782844 4.0256376
-0.067440167 -0.80476099 4.0093393
-0.062117133 -0.79294419 4.0096359
0.37774563 -0.52467364 4.195694
-0.20646252 -0.37622687 4.5032787
0.17075075 -0.49041665 4.0267205
-0.41523421 -0.12218909 4.7951932
0.17046979 -0.55767399 4.0901866
-0.36452401 -0.83869368 3.8863134
-0.35328797 -0.82198316 3.8567963
-0.16579814 -0.62331867 4.304791
-0.93618822 -0.18948314 4.6736135
0.39147034 -0.50190151 3.9443932
-0.33892328 -0.66583711 4.2767177
-1.0570184 -0.48607057 4.1867971
-1.0836447 -0.68908298 4.0582948
0.28253666 -0.40754518 3.9198484
-0.70864874 -0.41756853 3.9360764
0.31448314 -0.38751823 3.8017786
0.27370647 -0.26283482 3.6300914
0.48706314 -0.20282689 3.3660998
0.50750601 -0.24203014 3.5332165
0.3981556 0.22638574 4.1064587
-1.1263243 0.088563055 4.4396992
-0.89181602 0.14717932 4.3464065
0.65694863 0.24823739 3.891319
0.38824269 0.20256054 4.1153154
0.18300308 -0.29207653 3.4905317
0.18306012 -0.22836712 3.4047856
0.019114865 -0.50305879 2.9382296
-0.76414353 -0.30598405 3.584846
0.52356279 0.27835593 3.9295111
0.51331091 0.2612384 3.9411631
0.093437724 -0.84075731 4.1169152
0.16505891 -0.34401765 3.5376334
0.46325237 0.44508141 3.7676282
-1.184535 0.080901049 4.2556424
0.36294612 -0.16058631 3.2384069
-1.1109558 0.11306808 4.1805935
-0.97211462 0.23043072 4.0027089
0.61618543 0.43728915 3.6294651
0.0468647 -0.7239517 4.1167665
0.5600642 0.0062639569 2.92522
0.20402011 0.015584812 2.7940135
0.22167304 0.03303355 2.7391248
0.3800984 0.039127864 2.3772972
0.12489222 -0.73177326 4.0738983
-0.54779524 -0.48485044 4.307395
0.12191758 -0.74312681 4.0870438
-1.1344931 0.052193116 4.3584361
-1.1206764 0.012007891 4.3993058
0.53544641 0.23956805 3.9543662
0.68254328 0.24916424 3.9623322
0.26444709 -0.2582587 3.4800963
0.26039553 -0.33979529 3.5801432
0.2739186 -0.21231687 3.4130514
-1.1121687 -0.036382746 4.3205099
0.44719559 0.33320162 3.8544364
0.17440772 -0.33805496 3.5555975
-1.3267351 0.18047769 4.0754476
0.36662573 -0.13677275 3.2123239
0.29315463 -0.14059301 3.256052
0.36634856 0.086458743 2.9189329
0.23439409 -0.24556608 3.3280835
0.30576012 -0.18482628 3.2622821
0.31877589 -0.084251635 3.1250975
0.60631776 0.4261446 3.6462181
0.62579489 0.49961346 3.5892735
0.63337302 0.51031882 3.5641429
0.21777843 -0.040835105 2.9654038
0.22075315 0.055316426 2.82797
0.22132063 0.095039524 2.7697928
0.21663071 -0.034865897 2.9523566
0.21366964 -0.014753781 2.9157944
0.21741037 0.025687108 2.7022855
0.36990458 0.13281372 2.5275083
0.10210477 -0.54495376 4.3808146
-0.5021643 -0.62065744 3.7586708
0.37672251 -0.0040291375 2.4498563
0.37327114 -0.011560209 2.4690926
0.3820599 0.12073317 2.2428837
0.37352985 0.12069217 2.5344448
0.25851551 -0.44582808 4.396534
-1.439329 0.10232013 3.0057869
0.33470991 -0.019413991 2.6217484
-0.50562131 -0.62944752 4.36725
0.28133842 -0.43582046 3.9338574
-0.97168756 -0.58519983 4.3384604
-0.96511275 0.22176166 4.008801
-0.24049114 -0.58900696 4.3378229
-0.023507906 -0.66026688 4.3094501
-0.23066446 -0.20133121 4.6838007
-0.22458825 0.084294654 4.6629505
0.5684706 0.23797572 3.8735709
-0.42571691 -0.13019207 4.7848382
-1.0267197 -0.43488163 3.9822862
-0.26772088 -0.6540013 4.3214116
-0.15815236 -0.13786472 4.5780363
0.00073183107 -0.59920013 4.3655515
0.11779207 -0.55079341 4.2358847
-1.0775647 -0.54312831 4.1634746
0.89296216 0.13205758 2.2054939
-0.21994945 0.050250102 4.6476984
-0.0085328044 -0.73865432 4.3023601
-0.012399387 -0.75584549 4.3165803
-0.43934157 -0.61590505 4.2785392
1.2481757 2.4600272 -2.7766213
1.2828108 2.562613 -2.9807956
1.389979 2.423492 -2.7485948
-0.66884023 -0.37483341 3.802192
-1.1227844 -0.73720503 3.9700081
0.62742555 0.12397454 2.6513257
0.82430047 0.40188968 2.3332629
-0.0083629498 -0.73795271 4.295083
0.84145552 0.44368327 2.2788823
-0.012500725 -0.73516399 4.2952399
0.82423347 0.38511357 2.3429377
1.4705992 2.6608868 -3.207135
0.40190348 -0.40949878 3.9280879
0.84857142 0.15771325 2.8258801
0.21729372 -0.084407784 2.7154312
0.18192416 -0.51788133 4.0450912
0.42916209 -0.50517076 4.0164266
0.34272951 0.043836828 2.5095251
0.0020868138 -0.59549683 4.3634701
-0.081595182 0.055174779 4.6332388
-1.1656457 -0.5034377 4.0083156
-0.97951967 0.2355047 4.0021687
-0.99004793 0.28226188 4.0492644
0.14228551 -0.48247638 4.3568025
