# .PCD v0.7 - Point Cloud Data file format
VERSION 0.7
FIELDS x y z
SIZE 4 4 4
TYPE F F F
COUNT 1 1 1
WIDTH 518
HEIGHT 1
VIEWPOINT 0 0 0 1 0 0 0
POINTS 518
DATA ascii
-0.094863921 -0.57745105 4.4439235
0.033065349 -0.65921015 4.8564939
0.86620903 0.078283124 4.6175437
-0.12852645 -0.69937825 4.9264431
-0.47864681 -0.72976768 4.8109384
-0.064971164 -0.68048155 4.7629843
0.18823922 -0.63487232 4.7216587
0.18998311 -0.68155408 4.6303406
0.92088175 -0.50438285 4.4671059
0.92460221 -0.50095081 4.4655013
0.701415 -0.46251455 4.5099359
0.71595997 -0.46135771 4.2290702
-0.81250733 -0.055710476 4.6473923
0.31508297 -0.61966515 4.6965919
-0.45464751 -0.78883696 4.7478995
0.65689933 -0.43538815 4.6035457
0.60797596 -0.54924268 4.6114459
0.9895063 -0.39243698 4.1327105
0.42084926 -0.63855392 4.5710368
0.56201619 -0.20915966 4.7261524
0.55899197 -0.20496342 4.7278032
0.34048676 -0.59723252 4.6517825
0.55727708 -0.17360508 4.7379723
0.37043175 -0.73334306 4.6032386
0.39432827 -0.61339152 4.7196121
0.72918284 -0.72712415 4.2731504
0.70564282 -0.65017581 4.5139589
-0.31951427 -0.0014189082 4.7379837
0.8505885 0.093619607 4.638473
0.98363179 -0.47208339 4.1436753
0.97212481 -0.44744277 4.1208377
0.9925099 -0.39418945 4.1366615
-0.0064089592 -0.6588946 4.7323442
0.41605988 -0.73728901 4.5487447
0.88535887 -0.35019931 4.5188432
1.0146366 -0.46102005 4.0848188
0.62849891 -0.75688237 4.065402
1.0088017 -0.47564381 4.0685163
0.89624578 -0.50718606 4.4786248
0.6660077 -0.8399179 4.4559488
0.63081962 -0.6407674 4.5475945
0.67823529 -0.70510912 4.4666619
0.56667453 0.02884282 4.7484074
-0.533678 0.062769271 4.520967
0.59262198 -0.82746518 4.2594686
1.0243568 -0.46675131 4.0601892
-0.45719796 -0.60461229 4.4202356
-0.54295254 0.015858043 4.6672497
-1.4722656 -0.23801002 3.4931519
-0.22147372 -0.083324336 5.1445441
0.74331194 -0.64183652 4.2474127
0.52462578 -0.55741471 4.6531882
0.71386224 -0.67789638 4.3350005
0.70467263 -0.72263807 4.3108301
1.1394563 0.31563491 4.0879669
-0.55443728 -0.074509211 4.686276
1.2272778 0.47840092 3.7919941
0.42229635 -0.57497734 4.586154
0.70086634 -0.46093377 4.5142741
0.4566004 -0.62166286 4.5570731
-0.43947417 -0.71043146 4.6447778
-0.43522599 -0.7714445 4.6954818
-0.45924765 -0.84435618 4.5942364
0.52088505 -0.552948 4.651392
0.49918821 0.031457387 4.857501
1.0763377 -0.43364793 4.3065124
-0.33297136 0.0044580135 4.7374415
1.0487896 -0.43812871 4.0718241
0.70433831 -0.46962291 4.520431
1.0134358 -0.4601371 4.0775728
0.42506802 -0.57507855 4.5892801
0.74359411 -0.52133834 4.4404073
-0.4448356 -0.70415455 4.6391778
0.5700056 0.022549132 4.7478247
-0.21574566 -0.063459173 5.1119208
0.60834795 -0.53352952 4.6037717
-0.22509758 -0.056107704 5.094213
0.80031544 -0.37850311 3.9990125
0.77088469 -0.39830431 4.036109
0.25190139 -0.26096144 5.0300326
0.70498627 -0.64634275 4.4770041
-0.47555086 -0.077239402 4.8074198
0.76312202 -0.20027485 3.4880507
0.7259596 -0.28727081 3.6961854
1.0052527 0.32372656 3.8561277
1.0147595 0.29645446 3.8672757
-1.5065119 -0.36270368 3.2322693
-1.4821467 -0.23570815 3.4824412
1.027398 -0.47027594 4.0657854
0.47198451 -0.19556811 4.9066963
0.66376436 -0.68545234 4.367806
0.61117893 -0.80705571 4.2452693
-0.54686463 0.018730568 4.6701846
-0.28942576 -0.69505578 4.7986522
0.72853643 -0.5360046 4.1947656
0.46796918 0.077350542 4.8417144
0.39836049 -0.71154863 4.546823
1.0310594 -0.47167867 4.0673423
0.82772052 -0.20742452 3.5128713
0.75891423 -0.25647303 3.5802152
0.55852383 -0.81715488 4.266017
0.68255711 -0.61384302 4.4733453
0.75072616 -0.63741761 4.2537131
0.28607756 -0.68236274 4.6383624
0.44745064 -0.63367164 4.5802703
0.69807619 -0.47541755 4.1541681
0.74154025 -0.43495515 4.1701179
-0.44384262 -0.74096662 4.6488819
0.73334605 -0.55860585 4.3003926
-0.17300189 -0.73192304 4.9497476
-0.15413091 -0.6737088 4.9166903
0.72619146 0.15596016 4.6997766
1.0360506 -0.3035982 3.8548694
0.65142006 -0.68397039 4.3389487
0.8524943 -0.38243899 3.942817
0.37149298 -0.6905995 4.5451293
-0.33003446 -0.93847185 4.754745
1.0938907 -0.48631695 4.3147793
-0.25626013 -0.38797808 5.0426908
-0.53991437 -0.88620192 4.8021545
0.52771139 -0.56884259 4.6332588
-0.53381902 -0.81085986 4.7935991
0.64832222 -0.64687949 4.3523965
-0.064545609 -0.67887145 4.7643771
0.39183933 -0.70144314 4.5565248
0.70794505 -0.45757547 4.2255788
0.66141081 -0.69805276 4.3590708
1.289215 -0.38899785 4.2043386
0.68002993 -0.55048239 4.4340057
0.6737594 -0.76931763 4.1518021
0.63784701 -0.79996246 4.0153394
-0.42489728 -0.6499511 4.6244769
0.84531695 -0.2785503 3.5479317
0.72127032 -0.29410481 3.6752529
0.4759295 -0.27296481 3.6107299
0.82406497 0.24700981 4.1623054
0.51349002 -0.29734224 3.5982192
0.59344858 -0.89656913 4.2326217
0.17299199 -0.62318313 4.7005482
0.40987441 -0.62521386 4.7291722
0.56127065 -0.69639057 4.5521522
0.60220343 -0.71756655 4.5744529
0.76369625 -0.71084225 4.2437792
0.6505416 -0.2557219 3.5064254
0.30123737 -0.69423294 3.2307353
0.66776866 -0.73138261 4.1456833
0.13815214 -0.69794947 3.3862853
0.72157192 -0.54885352 4.1896825
0.29789931 -0.66211444 3.2528431
0.37170544 -0.12736854 5.0544486
0.86885995 0.31344137 4.1762581
-0.53287292 0.063908346 4.5316606
0.99753338 0.33482692 3.8968985
0.61873698 -0.19624053 3.3397062
0.65768284 -0.86812073 4.2563076
-0.53684461 0.0059866044 4.6768522
0.87448215 -0.17969079 3.5030286
0.86443442 0.29724327 4.1216111
0.91532385 0.30615568 3.8675506
0.5239138 0.02274451 2.7790534
0.50384396 0.047250077 2.7388492
0.63564247 -0.5776639 4.4311666
0.65894586 -0.78186435 4.3622289
0.73976862 -0.50058323 4.2039266
0.55660897 0.082719661 4.8126006
-0.43245524 -0.80711108 4.7795653
-0.48278913 -0.77697062 4.7357635
-0.47606313 -0.82717425 4.7941885
-0.49062881 -0.74035573 4.8059783
0.60200322 -0.5844568 4.5912919
0.70160884 -0.53394097 4.4007502
0.48353955 -0.54119742 4.6860237
-0.50179607 -0.76045752 4.5925603
0.82515967 0.24570349 4.1598678
0.819049 -0.19944347 3.5006318
0.4493098 -0.57581699 4.6685004
0.69056445 -0.80517709 4.1443748
-0.45283598 -0.61438662 4.4301987
0.43789452 -0.58140087 4.6760659
0.74472803 -0.70742434 4.2739487
0.12360846 -0.69738668 3.3680542
0.27280155 -0.68340027 3.2854757
0.44638777 -0.58796209 4.6826162
0.72981328 -0.69206822 4.2486682
0.70638043 -0.71668667 4.1883984
0.67573923 -0.71071696 4.341166
0.62397003 -0.63207591 4.5427079
0.75736618 -0.36942825 4.0326157
-0.46651652 -0.66223288 4.5712342
0.77186495 -0.40026939 4.0386553
0.70968992 -0.62002957 4.2000527
0.82123029 -0.31482837 3.6263032
0.85373181 -0.2291244 3.6036468
0.16451882 -0.67524147 4.675168
1.034739 -0.4114435 4.2264118
0.99289304 -0.44522122 4.3143663
0.74890751 -0.57453495 4.3034196
0.74846226 -0.57567686 4.2999182
1.0398984 -0.42004183 4.231585
0.16843081 -0.65680182 4.6946363
0.80366009 -0.40870178 4.032629
-0.4438906 -0.1780775 4.8790016
0.35594007 -0.57898623 3.428807
1.0684652 0.3280212 3.9389019
0.36974922 -0.079030566 2.6358252
0.37758687 0.019341489 2.6327155
0.6933949 -0.80957967 4.1914048
0.66691023 0.10428161 4.748982
1.0475229 -0.44424468 4.0740843
0.656461 -0.88612759 4.1645622
1.0327325 -0.53537887 4.494628
0.40169483 -0.66953695 4.5790043
0.7120595 -0.47485676 4.1817036
0.29987729 -0.12337947 5.0626626
0.74093688 -0.53431618 4.2463737
0.88897628 -0.11173281 4.6230197
-0.25098756 -0.43863535 4.7528639
0.6835742 -0.76622331 4.1048722
0.7047202 -0.44955659 4.2157946
0.85296828 -0.23040648 3.5994363
0.54527801 -0.8799876 4.2414122
0.81188309 -0.32477254 3.6163557
0.64504087 -0.19349909 3.5308135
0.70969546 -0.72755098 4.198143
-0.32037139 0.020323368 4.7532439
0.8510865 -0.26589286 3.5006201
0.71819144 -0.69908565 4.2028503
1.0038731 0.3119058 3.8715723
0.64132005 -0.70467156 4.4852476
0.81835693 0.24887639 4.164957
0.27648491 -0.62489146 3.1838405
0.8826378 0.32482496 3.9443226
0.87913841 0.30764255 3.9593694
-0.58912444 -0.11131852 4.7624645
0.77191424 0.21116613 3.9150095
-0.50411844 0.05362745 4.4423833
-0.70147628 -0.12764511 4.6818628
0.30902961 -0.59781027 4.7501025
0.72718406 -0.72434777 4.2677937
-0.52980036 -0.10933311 4.8391976
0.86061293 0.31027424 4.1716728
0.90751165 0.29116952 3.9669526
0.58558661 -0.21634562 3.3999333
0.61415112 -0.18248284 3.3263645
0.33477551 -0.097787946 2.9404602
0.32846785 -0.093451366 2.929765
0.38403916 0.011055657 2.6546123
0.83070976 0.064976037 4.5921421
0.30099326 0.025308779 5.0895438
1.0986834 -0.29521075 3.8680887
0.98918617 -0.47532833 4.1404138
-0.36863816 -0.48410833 4.8492317
0.70785934 -0.84517527 4.1067457
0.66762424 0.39538625 3.8281398
0.38670191 -0.34898603 3.1603987
0.27881333 -0.22568798 2.922287
0.5488295 -0.18982203 3.3764973
0.44187474 -0.42771527 3.563694
0.91444439 0.29184917 3.8760593
0.29551908 -0.60222536 4.7530389
0.57228529 -0.5573228 3.8016274
0.61580372 0.39612624 3.8963134
0.50910944 -0.54611033 4.6525798
0.74043375 0.19101492 3.9607942
-0.5559442 0.080951519 4.5016503
0.32821247 -0.33714041 3.0025272
0.283057 -0.22300397 2.9238441
0.32493287 -0.06776014 2.9897587
-0.58124477 -0.40203133 3.8209653
0.29622814 -0.073857576 2.9198134
0.10716912 -0.58537322 4.7120428
0.37480316 -0.1551014 3.0157046
0.099461995 -0.43660936 2.5739331
0.27190888 -0.61092925 4.7586546
0.23676975 -0.55627429 4.6394525
-0.16249357 -0.65737474 4.9347763
0.44250041 -0.14415823 4.9439945
0.86159366 -0.26858434 3.5082195
1.0626299 0.26501161 3.9756565
-0.47123477 -0.63020867 4.5908656
-0.45644572 -0.63365579 4.5839024
0.42034262 -0.3889288 3.6566324
0.43352023 -0.36194366 3.6373854
0.44894218 -0.34364489 3.6224012
0.5857445 -0.30674613 3.6461067
0.57631725 -0.28674161 3.6190264
0.58691078 -0.29637304 3.6152387
0.36729208 -0.17491449 4.7898378
0.44455412 -0.14227872 3.3233838
-0.43303171 -0.10732121 4.9733953
-0.24808933 -0.16741747 5.0332894
0.68430901 -0.54822725 4.4609742
0.6472823 -0.76770401 4.3513594
-0.34357372 -0.36216682 5.0199571
0.81344295 -0.38617492 4.0112829
0.3971431 -0.13637112 2.60602
0.39150402 0.00043719605 2.6609142
0.70914781 -0.77607894 4.2100453
0.2910485 -0.62413281 4.7666783
0.88716197 -0.37868348 4.5081124
0.77621949 -0.58817387 4.3374152
0.52232528 -0.84653795 4.2169266
0.73058778 -0.66713029 4.2187648
-0.57967567 -0.18519515 4.6692643
0.30405986 -0.082774073 2.9089389
0.69599026 -0.47067347 4.1472106
0.34542698 -0.67860401 4.6416745
0.18898547 -0.68055242 4.7078705
0.73343474 -0.69672143 4.2528477
1.0209466 -0.46884701 4.0686202
0.40380874 -0.66995198 4.5757856
0.37109393 -0.78526163 4.6281185
0.6563527 -1.0189109 4.4721169
0.44407222 0.057506617 4.8430719
0.63011247 -0.75015473 4.0981498
1.2784646 -0.36651614 4.1834497
0.46570995 -0.19370411 4.8991385
-0.58168364 -0.79579836 4.8158708
-0.26763529 -0.71233302 4.8103004
0.69329029 -0.82057315 4.087204
0.67717427 -0.66430527 4.50317
0.71900576 -0.52645236 4.4156218
0.67995363 -0.69090211 4.1479344
0.35314864 -0.37334624 3.0642087
0.53941065 -0.57553124 4.6422229
0.32323936 -0.40939033 3.5334828
0.73104203 -0.8881858 4.1521597
0.44999024 -0.52464873 3.5481455
0.45784032 -0.52967411 3.5574884
0.44991753 -0.51051909 3.5469701
0.62001938 0.36043438 3.8824675
-0.29805332 0.050890334 4.7358198
0.66506976 -0.41030002 4.5842829
0.46210486 -0.28236285 3.4467854
0.6384089 0.32570213 3.8483143
0.65662128 -0.71361518 4.3173141
0.70490998 -0.87459558 4.1660132
0.27649438 -0.38867179 2.8882167
0.75532866 -0.59647202 4.2469974
0.2716724 -0.22260141 2.9022794
0.70920438 -0.5376032 4.1792426
0.29473063 -0.58685672 4.7553067
0.34004316 -0.58399904 4.6610518
-0.49430227 0.04683527 4.4467192
-0.59717786 0.11054562 4.4104834
0.72358829 -0.85326093 4.1242795
0.67404771 -0.67696583 4.369041
-0.54341018 -0.80628037 4.7922187
0.81925339 -0.35362265 3.6838808
0.34945506 -0.72982502 4.6077285
-0.55568391 -0.83775365 4.5082903
0.6174233 -0.71072471 4.3493013
-0.34888151 -0.79087913 4.7136135
0.51043117 -0.39071101 4.6921272
0.51321399 -0.3939659 4.6914816
0.28936559 -0.1277252 5.0635767
0.69115961 -0.51895684 4.1577768
0.6697464 -0.58415753 4.4678497
0.81331247 -0.35311389 3.6960437
0.70887065 -0.19385798 3.486671
0.65375429 -0.26396769 3.6092839
-0.20691913 -0.090003125 5.1373105
0.30962187 -0.61472362 4.6913505
0.71425754 -0.84686285 4.1107941
0.37128404 -0.77476847 4.6361747
0.68024474 -0.67285079 4.5274739
0.51529491 -0.31539729 3.6713495
0.43235588 -0.39161173 3.6347008
0.36993986 -0.59989852 4.6704931
0.4440797 -0.36498234 3.6470907
0.33978629 -0.65311086 4.7672729
0.53694683 -0.85400546 4.234684
0.6283769 -0.42302388 3.787868
0.8778969 -0.23256719 3.4753773
0.6174559 -0.33324817 3.6866095
0.42861548 -0.39557192 3.2429895
0.2658298 -0.25679868 3.5018916
-0.4485482 -0.092836447 4.9749594
-0.46618691 -0.076435015 4.9718604
0.83271348 -0.19048147 3.5922427
0.90494573 -0.40684906 3.7353749
0.85385197 -0.30820829 3.607269
0.54448658 -0.57999057 4.6410499
-0.1574616 -0.39739138 4.9845657
-0.66535896 -0.79039568 4.7683306
0.89637351 -0.2203591 3.49422
0.69561565 -0.32730702 3.6760523
0.64401138 -0.4032861 4.605835
0.86982685 -0.23919998 3.4646494
0.80830634 -0.40533325 4.0230956
-0.16734131 -0.63440353 4.9295669
0.62486613 -0.54481602 4.6126456
0.785671 -0.4124167 4.0574841
-0.0099937711 -0.68776208 4.7185121
0.30588043 -0.66691786 4.6175828
0.97965902 -0.43101075 4.3042092
0.55150622 -0.17157637 4.7346873
0.39804155 -0.66445923 4.5777397
0.4386071 -0.52450246 3.5394361
0.71334177 0.31954294 3.9037101
0.42321432 -0.55540746 3.538121
0.41045091 -0.54775453 3.5221229
1.0210838 -0.45188493 4.0503268
-0.35926846 0.084824905 4.7216349
0.33115926 -0.52642953 3.6010966
0.39831063 -0.2090669 3.3355622
1.0438977 -0.47864497 4.0820341
0.59489548 -0.81986225 4.177702
0.57765388 -0.76131594 4.1103783
0.60852689 -0.80602866 4.2558217
0.78438514 0.47296879 3.6472991
0.67485291 0.32058156 3.8541489
0.3837091 -0.135095 3.1148126
0.19975193 -0.33903006 2.7506456
0.32927388 -0.26984727 2.9919181
0.99777943 -0.45149761 4.2844157
0.35198399 -0.12975238 3.0156815
0.11181642 -0.48556828 2.6936083
0.13426661 -0.50417084 2.7330239
0.17081061 -0.48341459 2.6118479
0.20667377 -0.65621638 4.6358199
0.45847517 -0.18419847 4.9081135
1.0933261 0.31699947 3.9193785
-0.35648745 -0.71360928 4.7067595
1.0464692 0.34848931 3.9243252
0.97344404 0.30974704 3.9994864
-0.45467639 -0.63838989 4.594542
0.38591889 -0.34771466 3.6369884
0.44590759 -0.33748814 3.6145816
0.44043428 -0.33232763 3.608197
0.42392197 -0.28118718 3.5841877
1.1143967 0.47757009 3.69047
0.58392012 -0.18280929 3.4252188
0.29764447 -0.69296283 3.2262118
0.98997641 0.34098926 3.9622574
0.62988335 -0.26056182 3.4704216
0.40259609 -0.61992306 4.5563836
0.28861028 -0.64856589 4.6128635
1.1436301 0.31729826 4.090158
0.40770933 0.095139004 4.8700714
0.82236445 -0.20965722 3.506669
1.2543606 0.47920558 3.7930086
0.71727365 -0.29895529 3.6792557
0.29373172 -0.63749087 3.2125981
0.43749148 -0.51261085 3.5666234
0.24446304 -0.63401002 3.1764336
0.40644568 -0.31555632 3.6468725
0.39095488 -0.30376145 3.6291938
0.25745308 -0.69865561 3.2772794
0.61918074 -0.19966888 3.3468843
0.38129771 -0.5368315 3.4907012
0.19050358 -0.68310553 3.3115332
0.27458531 -0.52754366 3.3167925
0.45828602 -0.57839686 3.5889602
0.44678202 -0.59391266 3.5219107
0.43840444 -0.42586133 3.5602624
0.44688842 -0.42935541 3.5665057
0.91719061 0.28625277 3.8803318
0.4678871 -0.3320469 3.5968499
0.18948072 -0.33158803 2.739013
-0.60726506 -0.54939896 4.3760667
-0.32493588 0.056643318 4.7248759
0.41706878 -0.21645741 3.3219416
0.61337602 0.36029744 3.8822138
0.43123731 -0.23309527 3.3383133
0.41691437 -0.22470738 3.3107495
-0.50510722 -0.029800303 4.7644191
-0.520118 -0.020129405 4.7666564
-0.527852 -0.11567037 4.8538418
0.27874511 -0.39142942 2.8964553
0.48337492 -0.0025793195 2.8333864
-0.2255464 -0.051003378 4.7113709
0.151666 -0.54010057 2.5310977
-0.38322374 -0.3482691 4.9342427
0.1130535 -0.44829643 2.511157
0.09390565 -0.43487707 2.4628096
-0.53802752 0.072642282 4.4358959
0.092623405 -0.67360419 4.8604798
0.37792605 -0.77317721 4.6429753
-0.40067533 -0.69973135 4.6868553
-0.36930379 -0.6432904 4.8976989
-0.028426262 -0.66707456 4.725996
0.47511336 0.030938217 4.8553472
0.84998471 0.30968913 4.1847477
1.1093282 -0.43609071 4.3138313
1.0994594 -0.43845376 4.3105917
0.66220844 -0.57254517 4.5605421
-0.48394704 -0.78737336 4.6166353
0.22529162 -0.66627771 4.6033521
0.66766572 -0.55190808 4.4625635
0.65143824 -0.5659458 4.5608926
1.1566974 0.35538709 4.1248841
0.73249096 -0.49817884 4.1976805
0.16661923 -0.47499889 2.6843762
0.82537037 0.24543875 4.1691728
0.32526618 0.063351482 5.066391
-0.56352699 -0.22896291 4.7029271
0.43538964 -0.1395517 4.9507375
0.29442152 -0.63791019 4.6616683
-0.65950722 -0.17336702 4.6765895
-0.55498761 -0.69668555 4.5448112
-0.40198985 -0.47160771 4.8429856
0.67846417 -0.59950542 4.5765343
-1.1293406 -0.30097553 3.6499605
0.74934429 -0.57031852 4.3037286
0.34982157 -0.43826589 2.9441714
-0.45352516 -0.43814144 4.8328824
-1.2958417 -0.22710659 3.555681
-0.80402774 -0.029326154 4.5775847
-0.51217449 0.057407569 4.4436808
0.70381683 -0.83265531 4.4293556
-1.2124498 -0.27526143 3.5946314
1.0576177 -0.3074334 3.7820976
0.13162589 -0.67769092 3.2816386
-0.57892859 -0.79298073 4.7800612
-0.043266281 -0.67565954 4.707387
-0.4731358 -0.80010843 4.6341696
0.6582737 -0.56852961 4.5584679
