# .PCD v0.7 - Point Cloud Data file format
VERSION 0.7
FIELDS x y z
SIZE 4 4 4
TYPE F F F
COUNT 1 1 1
WIDTH 418
HEIGHT 1
VIEWPOINT 0 0 0 1 0 0 0
POINTS 418
DATA ascii
0.79349566 -0.91881329 4.2071142
0.77057755 -0.48961398 4.1545963
0.9508853 0.072062701 4.6143465
-0.16774924 -0.026185028 4.7519121
-0.022240268 -0.71868801 4.9570041
0.28397772 -0.64826638 4.7385793
0.28174475 -0.69345242 4.6465225
1.0027418 -0.50762725 4.4518938
0.79291552 -0.54938799 4.4703069
0.78524196 -0.46827328 4.5057282
0.40937418 -0.63160747 4.7078037
-0.35577127 -0.8079496 4.7926116
0.74500763 -0.44303039 4.6017709
0.72108316 -0.49905923 4.5691967
1.0546094 -0.38973543 4.1165247
0.50921381 -0.64759165 4.5770984
0.65136921 -0.21545908 4.7343025
0.80374843 -0.72878832 4.2635589
0.68883157 -0.727736 4.5730877
0.047405683 -0.69217181 4.806282
0.93615896 0.086929634 4.6362405
1.0370983 -0.44468439 4.104579
0.74763566 -0.72917086 4.3271956
1.0578098 -0.39152652 4.1202998
0.72853833 -0.51372397 4.5672455
0.74500197 -0.44501525 4.6024923
0.78529137 -0.68335116 4.3314972
0.96855336 -0.35459796 4.5077901
0.69356394 -0.75602233 4.0603347
0.74508154 -0.72340131 4.505887
0.7618596 -0.71032143 4.4595976
0.3339414 -0.29747105 5.0163422
-0.23667374 0.07097999 4.7846675
0.70801574 -0.57864803 4.589818
-0.45184889 0.046524663 4.5837574
1.0679216 -0.4702552 4.0521736
0.75964719 -0.80203146 4.1337786
0.74388486 -0.43754202 4.6006513
0.77512956 -0.29291722 3.6951327
1.205707 0.39224899 4.0874925
1.1864905 0.3265194 4.0667238
0.51431245 -0.61259341 4.6114597
0.69895935 -0.8339197 4.2582488
0.70405126 -0.83362752 4.2577653
-0.10937306 -0.10702433 5.189394
0.81600225 -0.64298248 4.2385936
0.81628227 -0.63449252 4.2314343
0.7109139 -0.8745898 4.1381607
0.79100549 -0.68069363 4.3268681
1.2126355 0.36577168 4.1031814
-0.4637247 -0.093570769 4.7475734
1.1409881 0.3557359 4.0186343
0.51089823 -0.58425748 4.5931778
0.78488755 -0.46676731 4.5101128
-0.34608787 -0.72776729 4.6901965
-0.25931323 -0.67418832 4.7414932
-0.33898529 -0.7895534 4.7396293
-0.38945085 -0.8657918 4.6026192
0.94365215 -0.35874188 4.485714
0.27547485 -0.68848431 4.6420259
1.1112837 -0.43394643 4.0521598
0.78871232 -0.47552565 4.5159545
-0.35175547 -0.72144544 4.6849608
0.53572959 0.068677656 4.8841939
-0.10534579 -0.086588554 5.1568689
0.69725925 -0.54156107 4.6026697
0.83170795 -0.39585215 4.0302734
0.35936666 -0.27886665 5.0497336
0.76990157 -0.27972308 3.694731
1.0620928 0.30353522 3.8616037
0.62148118 -0.57192242 4.6406522
-0.45762256 -2.3970233e-05 4.7326837
1.2408507 0.4562265 3.7549469
0.82875168 -0.52668172 4.4328847
-0.1890395 -0.7136355 4.8370447
0.56855261 -0.20758986 4.9117126
-0.090651125 -0.11414509 5.1713805
-0.11778175 -0.077426001 5.1419411
0.86226398 -0.19608946 3.5081582
0.79709452 -0.24678612 3.577858
0.80340666 -0.41720334 3.8275127
-0.43752712 -0.078199103 4.7729793
0.80604357 -0.49462387 4.1924891
0.7032333 -0.6622088 4.5184402
-0.055145271 -0.63269055 4.9371281
0.76515353 -0.47546047 4.1503506
-0.3500278 -0.75839978 4.6939979
0.80793262 -0.56070298 4.2933526
0.6261825 -0.5857783 4.6372027
1.0356714 0.18709233 4.5559421
1.0872741 -0.29604229 3.8382998
0.45907778 -0.69961905 4.5526953
-0.22985463 -0.95663911 4.7910919
0.87736207 -0.44654152 4.0872164
1.1682014 -0.48567426 4.2918844
-0.4376398 -0.90687978 4.8492184
0.61837703 -0.57801157 4.6353455
-0.432522 -0.83136159 4.8416295
0.72613204 -0.65050489 4.3478494
0.033837143 -0.69503969 4.7924581
0.4800218 -0.7104764 4.5629358
0.076034829 -0.67279488 4.7518673
1.35734 -0.38497242 4.1739631
-0.30164856 -0.76174879 4.7388477
0.71773612 -0.82926869 4.0727596
0.74295789 -0.76947528 4.1442838
-0.10368107 -0.74363321 4.9803963
0.76427758 -0.28625697 3.6739335
0.51600438 -0.26610956 3.6214287
0.55311203 -0.28997025 3.6067572
1.0096216 -0.46181196 4.3449078
0.64901316 -0.7039519 4.5506496
0.83670878 -0.71174949 4.2328629
-0.056205712 -0.66970444 4.9657383
0.70694089 -0.61045659 4.5948715
0.58944815 -0.23733898 4.753305
-0.45054683 0.047497645 4.594418
1.0460016 0.34128076 3.8926368
0.64523536 -0.18384233 3.3452661
0.69927961 -0.58631492 4.5981221
0.90829754 -0.16781446 3.496577
0.92398089 0.29897541 4.1227341
1.0313761 0.37527117 3.9424312
0.64208376 -0.17614865 3.3362701
0.73025924 -0.86487985 4.2372136
-1.3601904 -0.42883936 3.3546426
0.80429775 -0.69387525 4.2446079
0.83474886 -0.39866567 4.0382614
-0.38454437 -0.79612231 4.7820158
-0.33053786 -0.80537951 4.7904196
-0.37468222 -0.84720486 4.839221
0.69071281 -0.59233111 4.5896645
0.78080016 -0.53792435 4.3954906
0.75671488 -0.81057829 4.1334772
-0.32148582 -0.73299003 4.6983767
0.61473453 -0.21617039 3.5355525
0.7596609 -0.80506986 4.1354795
-0.47324449 -0.15494832 4.8276052
0.80647933 0.35692725 3.888386
0.24247026 -0.63162422 3.2253067
0.81916571 -0.70897597 4.2639465
0.7366575 0.35911468 3.8789442
0.80295551 -0.69333792 4.239656
0.78585845 -0.4722434 4.5869737
0.70793355 -0.63767189 4.5182099
-0.35519755 -0.7232787 4.6692562
0.71071059 -0.63897651 4.5393176
0.8328225 -0.39784986 4.0327377
0.97748822 -0.36661687 4.5097947
0.6063357 -0.38955724 4.7043233
0.84224987 -0.69908345 4.3482618
0.61367589 -0.81025344 4.2549253
0.78258091 -0.55493385 4.3633385
0.26560751 -0.69754589 4.6945395
0.82373905 -0.57654947 4.2953777
1.1098337 -0.41851431 4.2124391
0.86435884 -0.40592048 4.0250783
0.97814178 0.66067356 3.7207022
0.39145139 0.10424881 2.7113054
0.76474857 -0.81020725 4.1822443
1.1101713 -0.44010839 4.0543761
1.0326183 -0.45873117 4.2704558
0.40780056 -0.14143686 5.0823288
0.81277394 -0.53548265 4.2394438
0.55076665 -0.60854411 4.697691
0.89677441 -0.38962314 4.052834
-0.33938465 -0.87729782 4.6225638
-0.15473816 -0.45620027 4.7937322
0.7505154 -0.76554286 4.0969996
0.8917551 -0.22025566 3.5930429
0.88037235 0.24953565 4.1674037
0.53491896 -0.25138995 3.5556402
0.29921097 -0.6127398 3.198684
0.93355942 0.32956427 3.9452634
0.82242769 0.21548085 3.9193401
-0.42597678 0.038897149 4.5037251
-0.61040485 -0.14784357 4.7492337
0.37719303 -0.61182988 4.7617121
0.80147731 -0.72594249 4.2583485
-0.43161204 -0.13065286 4.8985643
-0.39834201 -0.16404305 4.93398
1.0972905 0.33052403 3.925379
0.61512649 -0.20519039 3.4066515
0.37680387 0.032533366 2.6755388
0.91432363 0.058873944 4.5904336
0.40907273 0.0068023694 5.111578
1.150398 -0.28735122 3.8486826
0.81355232 -0.43812704 4.16366
1.0552765 -0.47274008 4.1228647
-0.26734793 -0.50419462 4.8947854
0.3390862 -0.63519371 4.6350861
0.77545375 -0.84431112 4.0964203
0.69234192 0.34467572 3.8690557
0.42941436 -0.36070013 3.2194161
0.5771026 -0.17859715 3.3854189
0.48092216 -0.42035735 3.5735054
0.39237544 -0.61524338 4.7653918
0.66422349 0.39942032 3.9110951
0.43717265 -0.21879013 3.3618469
0.47909573 -0.2003732 3.4288397
0.79330313 0.19433355 3.9662218
0.77442187 0.32765493 3.8230596
-0.47514087 0.064831384 4.5658169
-0.49457106 -0.15196314 4.8267713
0.33423054 -0.052167151 3.0117557
0.77267087 -0.84540945 4.2112827
0.30229178 -0.057372376 2.9431531
0.3279691 -0.56795305 4.6554813
0.54479498 -0.15911682 4.9567289
1.1152773 0.27074468 3.9670687
0.47557402 -0.35585493 3.6485848
0.44287628 -0.43101129 3.6215553
0.62762207 -0.2995474 3.6510165
0.46260256 -0.18800268 4.80581
0.48115307 -0.21736188 4.8131018
0.22409482 -0.61994147 3.2028532
-0.32861373 -0.13000612 5.0280566
0.60598737 -0.20519005 3.3590982
-0.14059645 -0.18952848 5.0781474
0.72595078 -0.77130145 4.3448682
-0.29889327 -0.96035045 4.7680225
-0.37012535 -0.92051893 4.7557216
-0.16411127 -0.73436832 4.8480058
-0.17152707 -0.73479873 4.8534045
1.1333634 -0.41368857 4.2490745
0.62295586 -0.21295513 3.4167638
0.97005987 -0.38288933 4.4965172
0.62356371 -0.39874962 4.7130013
0.6421814 -0.17715476 3.3335412
0.48375079 -0.42171207 3.5748682
0.75192219 -0.66943336 4.3631582
0.44264975 -0.21082127 3.3194518
0.59536189 -0.84898704 4.2152042
0.29056472 -0.039330345 2.9175355
1.0891002 -0.39256123 4.1194158
0.76270485 -0.47062215 4.1435785
0.80680567 -0.69802779 4.2435822
0.2623376 -0.68315381 4.7066555
0.71476865 -0.71194392 4.0568795
0.49265343 -0.6792022 4.5821276
0.46332011 -0.79560816 4.6340365
0.7426151 -1.0243406 4.4608984
0.55573642 0.045342773 4.8652258
1.0256257 -0.46956852 4.3218493
1.3454438 -0.3622463 4.1539793
0.019435162 -0.6182763 4.8407578
0.56622505 -0.20773859 4.9100151
0.59785545 -0.30479994 4.7322969
-0.16659275 -0.73091763 4.8473639
0.78122908 -0.67114252 4.2563438
0.36085486 -0.40252969 3.549238
0.80108339 -0.88785553 4.1399722
0.73881942 0.38253841 3.8766749
0.48878488 -0.50281113 3.5550554
-0.2062301 0.033130422 4.7870154
0.7520681 -0.41756791 4.582561
0.75878364 0.23136653 3.9896035
0.77553564 -0.8747074 4.1552672
0.82764512 -0.59751928 4.2383604
0.77792311 -0.53794843 4.1738415
0.43235475 -0.5951671 4.6717181
0.79205573 -0.85254824 4.1130557
0.75284201 -0.68064201 4.362761
-0.44220188 -0.82683998 4.8407798
0.86300308 -0.34509334 3.6769397
1.2509259 0.33666483 4.0569849
-0.25173554 -0.80856287 4.7533388
0.47045419 -0.65738225 4.7562876
1.0920581 -0.40159392 3.9839039
0.75462711 -0.8379612 4.0754867
0.55032808 -0.59523773 4.6820445
0.75874251 -0.51910806 4.1535625
0.7525292 -0.58947915 4.463182
0.73401278 -0.82937443 4.2319584
0.85764128 -0.34483013 3.6893764
0.85529053 -0.66476184 4.2683182
-0.095127694 -0.11346483 5.1813722
0.40363407 -0.62662739 4.7029085
1.080869 -0.46402666 4.2778683
0.46381283 -0.78524518 4.6422467
0.76650494 -0.67903316 4.520771
0.558514 -0.30918756 3.6794126
0.46278355 -0.61096895 4.6794729
0.47997028 -0.35443661 3.631865
0.4866038 -0.35896233 3.6577289
0.43764773 -0.66598386 4.7766771
0.67779219 -0.41774094 3.7886667
0.23118831 -0.24001612 2.8950055
-0.20183626 -0.25889906 5.0430937
1.3972901 -0.40216675 4.2747326
0.41648689 -0.54839176 3.6521235
0.37843755 -0.52786696 3.6161189
0.48596761 -0.36175013 3.6413729
0.66141421 -0.32643628 3.6895332
0.58657819 -0.24361424 3.5083861
0.58937269 -0.24379098 3.5052009
0.36887044 -0.39775527 3.6408224
0.43405303 -0.014031053 3.1167066
0.73159033 0.37884921 3.8663373
0.41757408 -0.53594285 3.4413795
0.45224738 -0.38315356 3.2543595
0.75757962 0.34557056 3.8955152
-0.14321117 -0.18284637 5.0696239
-0.43084717 -0.60177147 4.4251227
-0.344147 -0.11567738 5.030591
0.40332407 -0.12643945 3.1388311
-0.36203527 -0.099374615 5.0285993
0.64601338 0.40537074 3.8035324
-0.5395115 -0.15938561 4.7905564
0.87088335 -0.18038875 3.5874741
0.95143521 -0.39843282 3.7234428
0.8935926 -0.29816374 3.5995395
-0.050655123 -0.41792825 5.0214071
0.51538664 -0.72847545 4.5667267
0.93005168 -0.20815276 3.486074
0.7389394 -0.3196789 3.6753955
0.63823897 -0.83287781 4.0495806
-0.06135004 -0.65409559 4.9630303
0.84759557 -0.41018477 4.0506907
0.0862206 -0.70273727 4.7439265
1.0531856 -0.43115196 4.2876368
0.43273884 -0.42748329 3.6198523
0.89563251 -0.40440422 4.0215311
0.55948108 -0.14737663 3.2824609
-0.51420885 -0.56581646 4.4530435
-0.26830128 0.066781715 4.7762995
0.6327979 -0.093004018 3.1332226
0.42496252 -0.19842392 3.3513272
1.1071849 -0.47466129 4.0619192
0.64494091 -0.76160175 4.107583
0.68300253 -0.80839872 4.2506475
0.19990389 -0.32056966 2.7743759
1.0705014 -0.45116606 4.266674
0.16550532 -0.46293008 2.6347353
0.46088281 -0.65085006 4.6833935
0.55935234 -0.19843923 4.9194775
0.41084999 -0.6370554 4.6656404
1.1428826 0.32388625 3.9102695
-0.26023713 -0.73125803 4.7481284
1.0960776 0.35490331 3.9179432
1.0269871 0.3143501 3.99582
0.48668358 -0.33093289 3.6256285
0.46286124 -0.27433264 3.5972407
1.1518823 0.48829889 3.6833038
0.77028596 -0.87335092 4.1421814
0.32286379 -0.68130869 3.2388787
1.0415027 0.3463248 3.9583726
0.6630426 -0.25017023 3.4742291
0.24803656 -0.68638921 3.3593197
0.20327826 -0.33090609 2.8132591
0.49014783 -0.62887841 4.563633
0.37918317 -0.65937132 4.6249533
0.79738039 -0.24839243 3.552115
1.2012153 0.32184526 4.078464
0.91935813 -0.30667782 3.6555884
0.82452184 -0.36130714 3.6908038
0.73370486 -0.34337345 3.6932237
0.85663712 -0.19826603 3.5021801
1.2965294 0.4894377 3.7791297
-0.46206975 -0.95432734 4.847899
0.91787606 0.33238232 4.1781106
0.64604425 -0.18738228 3.3523574
0.41777638 -0.52877903 3.5016637
0.3028802 -0.5175693 3.3331666
0.49964184 -0.57128608 3.5954766
0.47727942 -0.41847706 3.5702724
0.50775713 -0.32502449 3.6069705
0.18903771 -0.31302613 2.763366
0.42770365 -0.44178677 3.6096222
-0.52762097 -0.56381345 4.4324069
0.44310942 -0.20543817 3.3367155
0.45816195 -0.22222024 3.3521228
0.44248703 -0.21350744 3.3254085
-0.42604584 -0.040213045 4.8271298
0.28610539 -0.37465972 2.9154069
0.48459497 0.016837696 2.8491719
-0.13420004 -0.067751914 4.7574897
-0.27890959 -0.36987033 4.9826217
0.10278212 -0.42667073 2.5374787
0.081265725 -0.41263184 2.4903176
-0.46029678 0.057732917 4.4991612
0.16745974 -0.67169666 4.870132
0.47075737 -0.78370893 4.6487513
0.51284611 -0.317031 3.6591814
0.6219359 -0.23775075 3.5738349
-0.069475584 -0.75272006 4.9816508
0.06800855 -0.68232644 4.7526135
0.85852772 -0.17768899 3.5220854
1.1831995 -0.43531322 4.291038
-0.32603562 -0.80635488 4.8392262
-0.39126515 -0.80461043 4.66292
0.74701679 -0.72365904 4.504168
0.31561974 -0.67745078 4.6181521
1.2156264 0.35947558 4.1131582
0.74921244 -0.5757556 4.5537767
0.6339134 0.073671572 4.8147407
0.53797716 -0.15467872 4.9638753
0.38721931 -0.64945692 4.6735983
0.29522127 -0.66609102 4.6495633
-0.30105087 -0.49187127 4.8903294
0.73760945 -0.82815307 4.2333126
-1.0853506 -0.30803376 3.7359717
0.82415837 -0.57233512 4.2957349
0.37454435 0.026940128 5.106781
-1.2566798 -0.23403345 3.6508944
-0.43399045 0.042589035 4.5054636
0.69940251 -0.2582261 3.5589087
0.78660172 -0.83703285 4.4190235
0.32599118 -0.11162943 2.7205384
0.46129739 0.051925436 4.9373527
-1.1711776 -0.28211883 3.6850619
1.1053984 -0.29852402 3.7645371
-0.43775713 0.091039836 4.5518689
0.15954682 -0.66830772 3.30233
0.35625708 -0.45401585 3.4515519
0.48265037 -0.61228102 3.2132609
0.75771904 -0.6736114 4.4677749
0.75675207 -0.56606412 4.5200753
