# .PCD v0.7 - Point Cloud Data file format
VERSION 0.7
FIELDS x y z
SIZE 4 4 4
TYPE F F F
COUNT 1 1 1
WIDTH 276
HEIGHT 1
VIEWPOINT 0 0 0 1 0 0 0
POINTS 276
DATA ascii
0.78614783 -0.74682474 3.8688579
0.39941621 -0.69925803 3.5302241
0.12740301 -1.0988498 4.5320997
-0.28199676 -1.2137512 4.5904007
1.035845 -0.75240111 4.15309
0.74465603 -0.8591522 4.3195152
0.75848818 -0.79513937 4.2827816
0.66360551 -0.54081869 4.4712415
0.66020662 -0.53727156 4.4735537
0.79275197 -0.94434547 4.0923486
1.0083538 -0.68076491 4.1548514
0.65471005 -0.53236979 4.4713058
1.0559986 -0.60851687 3.8320975
0.76770204 -0.80846745 4.2793307
0.83475006 -0.94999713 4.0282421
0.35360757 -1.0119534 4.459177
0.82130498 -0.98978126 4.1544271
0.86084956 -0.49551281 3.3489249
0.82667434 -0.94914955 4.1925187
0.774508 -0.73374861 4.3183937
-0.085215412 -0.56824231 4.9644532
1.1052762 -0.67452598 3.9730148
0.83983421 -0.94624048 4.0236392
0.05969891 -1.0720508 4.6646137
-0.26818162 -1.3048793 4.3624282
0.95637923 -0.62000692 4.2030129
1.4049265 -0.56978065 3.9833884
1.0995773 -0.62102944 3.7616763
0.59058648 -0.55640054 4.6591563
0.86211437 -0.79727876 4.1406779
0.85635519 -0.9217279 3.9687288
-0.066615984 -0.571347 4.9452143
0.81752187 -0.68839818 3.8822448
-0.26193991 -1.2055231 4.4256916
0.6792146 -0.89890057 4.3468165
1.4041828 -0.58803296 3.9736762
-0.0060724295 -1.1800247 4.7028389
0.84033549 0.06714692 3.9527891
0.84083015 -1.1823617 3.8792486
0.86734253 0.086198792 3.6564665
0.83209562 -0.639265 3.7582095
-0.26764089 -1.3078865 4.5637975
0.80501348 -0.0045711966 3.9334073
0.1665239 -0.96747887 3.1126139
-0.27287301 -1.1696002 4.4041891
0.57716596 -1.1212368 4.3427005
1.054251 -0.7017656 3.7990432
0.89402723 -0.95916051 4.0414739
0.38509807 -0.82206595 3.1652255
0.80653238 -0.99088693 4.0334888
0.82383907 -1.0664448 3.8697751
0.40786034 -0.38526797 4.878706
1.0994867 -0.72018611 4.0198498
0.42619035 -0.52412897 4.8354802
0.83806962 -0.79305333 3.9479187
-0.41527772 -0.61238641 4.68501
1.064285 -0.68928057 3.8279495
0.42812696 -0.69160366 3.3553145
1.1399642 -0.63025177 3.9556282
0.83655912 -1.032755 3.8902962
0.98622328 -0.64113921 4.2107549
0.46511275 -0.67326617 3.3080633
0.80141652 -0.94321764 4.062191
0.84350634 -0.92302364 3.9080801
0.19171333 -0.27038839 2.6927869
1.0870737 -0.60524923 3.829952
0.83186191 -0.80330884 4.1183414
-0.33709523 -1.2969995 4.5695972
0.54020393 -0.99991667 4.465271
0.49245054 -0.96735632 4.4074783
0.81228667 -1.086906 3.7615261
1.0959972 -0.68930018 3.9820645
0.54489726 -1.1182276 4.3412595
0.8247602 -0.96301544 4.2177858
0.52942467 -0.56017727 3.4187686
0.45462343 -0.64422947 3.3817463
1.0616543 -0.56497455 3.6491275
0.77087075 -0.90841943 4.2974262
0.73768085 -1.082585 3.9815166
0.4175981 -0.76265955 3.5044823
0.37229058 -0.62919211 3.5312333
0.77527457 -1.1297619 3.9170971
0.56989181 -0.38623634 3.0770791
1.1483933 -0.099731997 3.4245555
0.45147038 -0.59231442 3.3623569
1.0900168 -0.46464968 3.5209742
0.85557514 -0.7672323 4.0750856
0.84030396 -0.94728518 4.0247073
0.47198358 -0.7179935 3.6964462
0.80462927 0.19793296 3.4491944
0.55093014 -1.0020515 4.3493052
0.54030287 -0.47829139 3.2528956
0.86484087 -0.83803141 3.9954185
0.43109989 -0.58308029 3.4116914
0.54293853 -0.47784081 3.249604
0.35141543 -0.67023784 3.3800712
0.40812322 -0.78462672 3.1680694
0.51697332 -0.30271742 4.6650863
0.7594856 -0.70956403 4.325582
0.84693187 -0.6498791 3.7691379
0.6488921 -0.50607324 4.4843593
-0.12056734 -1.1536907 4.551897
0.86422437 0.051407125 3.6485336
0.17177695 -0.95665205 3.1261172
0.37020567 -0.44678283 3.0750911
0.4147771 -0.46347481 3.1067405
0.10327072 -0.9529404 3.0403278
0.18677212 -0.45062703 4.5707293
0.41754329 -0.68935347 3.3542957
0.43243292 -0.6671741 3.3902299
0.21945435 -0.60055244 2.6547284
0.31663644 -0.35444033 2.8961489
0.23510742 -0.6064381 2.6653082
0.26994973 -0.31333676 2.7479465
0.08612255 -0.97503263 2.4145362
0.10284197 -0.28934801 2.5170691
0.10270021 -0.2910412 2.5175242
0.68453085 -1.1557684 4.2245755
0.4250944 -1.0642707 4.3290081
1.1311945 -0.09154883 3.4902215
0.55302083 -0.85149139 3.7750194
1.1065698 -0.11681449 3.5071905
0.46983936 -0.76592994 3.2734325
0.72683895 -1.0898184 3.8634279
0.69520533 -1.0287757 3.8040097
0.52633369 -0.98907489 4.3935919
0.57584047 -0.54730189 4.662837
1.1791255 -0.28056437 3.5921803
-0.31890881 -1.45611 4.5548954
-0.29567918 -1.4630109 4.5540395
0.39634094 -0.67799526 3.5872333
0.52242851 -0.5568729 3.4157667
0.99506128 -0.041285023 3.4230735
0.53314757 -0.56148458 3.4082866
0.44287533 -0.62464201 3.374285
0.39968517 -0.69465101 3.5083511
0.37770796 -0.63309121 3.5300093
-0.27401301 -1.3141909 4.3572035
0.42699179 -0.65713322 3.5571172
0.40852362 -0.71671569 3.5439391
0.36986312 -0.663028 3.4452763
0.7495445 -1.0984002 3.9461699
0.58071852 -0.44311237 3.1741579
0.33133522 -0.6861465 3.4155967
0.4068456 -0.8207956 3.4715295
0.39016849 -0.45143178 3.0955722
0.13853966 -0.56205267 2.5678332
1.1945515 -0.64857489 3.9934165
0.70170176 -1.1503264 3.9301035
0.75426191 -0.89990354 4.3031087
0.83903331 -1.1638581 4.098206
0.69739604 -1.099126 4.2628169
0.84484816 -0.91951573 3.9098282
0.95299745 -0.53968722 3.6406245
0.5014987 -0.82047641 3.3154666
0.45805722 -0.67058545 3.3040013
0.46750984 -0.67333013 3.3091278
0.47773576 -0.57702237 3.3472185
0.1196707 -0.54242396 2.5201836
0.23125277 -0.60205948 2.6627679
0.37313622 -0.18340564 2.6221049
0.090911545 -0.73525316 2.2962952
0.03824234 -0.64871365 2.2889862
1.1113374 -0.13103892 3.4255068
0.24759731 -1.0637993 4.5888486
1.0403439 -0.41053718 3.5010297
0.084208027 -0.52424639 2.4127135
0.40869203 -0.81802934 3.470468
0.83423549 -1.1626132 4.0974231
-0.15510988 -1.1491348 4.5564771
0.18467848 -0.96439648 2.910131
0.83593118 -1.1376989 4.1288548
-0.33217597 -1.2414078 4.5760794
0.55188692 -1.1162802 4.3476038
0.84411216 -1.1367851 4.1273217
-0.22138277 -1.161883 4.4638543
-0.59531301 -1.3692107 4.2601571
1.0971504 -0.67630154 4.0198808
0.45920977 -0.35258299 3.0287108
0.87712568 -0.39032519 3.1877794
0.23957336 -0.89591855 2.9777148
0.72837001 -0.84314167 4.3182836
1.059056 -0.38546726 3.4799306
0.98067653 -0.6361528 4.2114449
0.21182516 -0.94259918 3.0400679
0.23506932 -1.0464751 2.9424851
0.22075789 -0.94669795 3.0346608
0.50171757 -0.98592401 3.1684232
0.40961677 -0.97313184 3.1057606
0.17704004 -0.96564525 3.1201994
0.83349657 -0.751522 4.2777977
0.5473671 -0.29143474 4.6192398
0.15263914 -0.34677309 2.5135722
0.86117953 -0.38392469 3.175127
-0.92257953 -0.55949003 4.8106823
1.1527478 -0.074690923 3.4810755
0.74885547 -0.8040213 3.83322
0.88703156 0.20212385 3.5901825
0.046460699 -1.0770899 4.6700625
0.7770015 -0.85653651 4.1515551
0.86370444 -0.85240495 4.1467514
0.51938128 -0.55650818 3.4156172
0.69638711 -0.95173919 4.3248758
0.49486965 -0.82156414 3.6462512
0.24351065 -0.90276712 2.9735777
0.80430877 0.27970892 3.4023409
0.52274048 -0.52295893 3.3275557
0.83431393 0.24723828 3.4237339
1.1960932 -0.69442308 3.9845231
0.51604623 -0.50584692 3.3192506
0.43675518 -0.73115754 2.9651997
0.24540329 -0.78543645 3.2962799
0.18975702 -0.20673992 2.8379722
0.20162483 -0.98985535 2.9062152
0.19621091 -1.0043339 2.9157681
0.2174748 -1.0444748 2.8882403
0.40612882 -0.56020808 3.052331
0.86903036 -0.65006381 3.7532849
0.83761936 -0.8144809 3.9626069
0.029050691 -1.1844844 4.7020392
0.65766162 -1.0369853 3.840898
0.17786953 -0.96778715 2.899704
1.1816069 -0.64337862 3.9811647
0.83598733 -1.1113819 3.8692002
-0.32540482 -1.2657797 4.404562
0.18445444 -0.93434852 3.0186121
0.45992824 -0.65517449 4.8019099
0.86787504 -0.38443738 3.1807466
0.52876294 -0.82013738 3.6707573
0.97328186 0.14002979 3.687063
0.84224325 -1.0866348 3.8615682
0.65027535 -0.54152381 3.3931174
0.40220404 -0.79295099 3.4875839
0.61473089 -0.54444999 3.3619857
0.39726657 -0.65688312 3.5494277
-0.61559391 -0.64020425 4.7703667
0.37960488 -0.63605583 3.5336475
0.41808236 -0.59652764 3.2909038
0.81110257 -0.74491858 4.3208213
0.40094519 -0.58745569 3.2754209
0.30369729 -0.82941002 3.3892877
0.35856414 -0.6311543 3.4855289
0.35671496 -0.63715035 3.4954524
-0.30718318 -1.2957457 4.5611281
0.34464249 -0.6701687 3.3795352
0.37622982 -0.52470142 3.2897999
0.54468608 -0.2992287 4.6213799
0.79636407 -0.86971474 4.2621555
0.81052226 -1.0084314 4.1982517
-0.38773972 -1.1690909 4.3362947
1.1114634 -0.67713684 3.7596676
0.47152546 -0.83347815 2.9320731
1.0972719 -0.11118628 3.5055311
0.81277853 -0.95471513 4.1657982
-0.28408456 -1.266806 4.4076271
0.83392328 -1.1345311 4.1297827
0.19463591 -1.0710649 2.9456966
-4.7560673 -1.7248265 4.9953623
0.85129857 -1.167516 3.8451679
0.20253479 -0.96838957 3.0124309
0.79073715 -0.71267653 3.8729277
1.1198157 -0.13653961 3.4313271
0.460141 -0.83261174 2.9308174
0.45087746 -0.50322843 4.5878062
0.79172957 -0.86615366 4.2608328
-4.46767 -1.7135199 4.9814935
-0.66136628 -0.62934816 4.7712955
0.49726123 -0.98149699 4.394558
-0.83660656 -1.2989767 4.2578316
0.8959797 -0.2946004 3.2694194
0.75207186 -1.0968156 3.9440944
0.64832491 -1.1316177 4.2321506
0.20526436 -0.933698 3.0328968
0.80022699 -0.85268694 4.2269158
0.73659486 -0.50761676 3.4286432
0.46031114 -0.71570551 3.322293
