# .PCD v0.7 - Point Cloud Data file format
VERSION 0.7
FIELDS x y z
SIZE 4 4 4
TYPE F F F
COUNT 1 1 1
WIDTH 478
HEIGHT 1
VIEWPOINT 0 0 0 1 0 0 0
POINTS 478
DATA ascii
-0.81408137 -0.69225258 4.6770306
-0.15490176 -0.74620634 4.8098531
-0.61501729 -0.4571299 3.7429082
0.48890841 -0.9482528 4.2304444
-0.8221873 -0.68187815 4.6731725
0.74458343 -0.057982698 4.6985126
-0.38665277 -0.066650018 4.6862621
-0.66442281 -0.77444547 4.7176905
0.77173197 -0.63041919 4.5069408
0.40991539 -0.28957731 4.772964
-0.76130277 -0.11555188 4.6980991
-0.57212228 -0.66048765 4.4927769
0.59154987 -0.5546273 4.2573509
-0.93568426 -0.066920184 4.582087
-0.58560538 -0.40332443 3.7594819
-0.63920665 -0.83034259 4.6522794
0.44520199 -0.66209769 4.621532
-0.24451807 -0.7744028 4.7130561
0.87648261 -0.49959612 4.189177
0.89836061 -0.59573573 4.1535769
0.5899384 -0.6334272 4.2066798
0.25654683 -0.73382705 4.5591631
0.41307384 -0.32891142 4.7589402
0.41021499 -0.32463247 4.7606716
0.54297054 -0.72310746 4.4220152
0.3903918 -0.87472826 4.585988
0.172562 -0.69263768 4.6362047
0.52339327 -0.80242366 4.4770284
0.8663705 -0.57003629 4.373982
0.40979522 -0.29407012 4.77314
0.50282717 -0.55057687 4.6259375
0.19712785 -0.82666397 4.5795236
0.54372007 -0.76263523 4.5244942
-0.23352031 -0.75066453 4.7244811
-0.44977176 -0.056768525 4.716186
0.728311 -0.043098833 4.7192712
0.86420906 -0.57916462 4.1932387
0.54908985 -0.93305731 4.2154746
0.51870155 -0.82212049 4.336833
0.87900645 -0.50185668 4.1932044
0.91742682 -0.49919096 4.1939778
0.4850837 -0.61903542 4.585896
-0.45963481 -0.049387388 4.7138786
0.55894166 -0.78001601 4.3488264
0.25626707 -0.65990114 4.5126891
0.24690337 -0.83000571 4.5287461
0.23681217 -0.763381 4.5730271
0.74259269 -0.47823593 4.5677876
0.90086126 -0.56615686 4.1381459
0.49836484 -0.82983631 4.0640945
0.89545959 -0.57905644 4.1203108
0.012717415 -0.72098202 4.6940742
0.74606019 -0.63220006 4.5161748
0.052904639 -0.39399728 4.9942327
0.4321892 -0.094229504 4.800427
0.44111094 -0.91164082 4.2483792
0.26168591 -0.67533839 4.5802073
0.52474964 -0.77199751 4.5095105
0.5018242 -0.54636526 4.6258202
0.25649023 -0.71333849 4.5705829
-0.66455567 -0.017530143 4.6292682
0.74944597 -0.37008068 3.6962559
1.0696172 0.20425564 4.2027984
0.47147137 -0.91842663 4.2556558
0.47658968 -0.918549 4.2558422
-0.39302683 -0.17560355 5.1214881
0.87000722 -0.57545143 4.3399706
0.61529005 -0.71287078 4.289577
0.80048114 0.18775472 4.229743
0.88897002 -0.57235348 4.3400855
0.60471392 -0.73751426 4.2633729
0.60660172 -0.72870779 4.2568693
0.36263943 -0.69146395 4.65202
0.4228079 -0.83575052 4.5640259
0.56540745 -0.77761626 4.3451414
1.0781775 0.1965275 4.2133412
0.44033155 -0.68027592 4.6037202
-0.60952508 -0.74420899 4.5552449
-0.61490482 -0.77832019 4.5595393
-0.52664453 -0.70284534 4.6225543
-0.61418587 -0.8106432 4.6031547
-0.63435733 -0.87386751 4.4948053
0.013466252 -0.76110351 4.5933175
0.43087038 -0.82516873 4.5683331
-0.60230094 -0.61147344 4.3279552
0.35589007 -0.094593056 4.9035821
0.94495881 -0.55994487 4.3655686
0.93750376 -0.54500818 4.129817
0.90035337 -0.56465364 4.1309204
0.26242793 -0.67026144 4.5878568
0.26354203 -0.67236972 4.5826955
0.59666073 -0.63194942 4.4647636
-0.61424464 -0.73885 4.5518112
0.43511638 -0.10069613 4.7996144
0.29848659 -0.040045265 4.9126601
-0.18904261 -0.6128118 4.3489571
0.58257198 -0.79126936 4.2982311
-0.24111283 -0.6208359 4.3970227
0.44731644 -0.64593399 4.6151919
-0.3904134 -0.14455196 5.0733628
0.70093483 -0.46161732 4.0421968
0.4323484 -0.08274252 4.803988
0.66712087 -0.48182726 4.075099
0.96358103 -0.53063154 4.3931365
0.075084731 -0.37947515 5.0317121
0.46128166 -0.89660245 4.2215261
-0.61606723 -0.12553026 4.7665367
0.72030514 -0.24387901 3.545764
0.65942949 -0.34294626 3.7426124
0.42366296 -0.92339599 4.2043037
0.52343315 -0.83202356 4.351409
0.52664095 -0.81503344 4.2836823
0.97194731 0.20313501 3.9824879
0.48452672 -0.9488942 4.2395291
-1.5132029 -0.10949317 3.356286
0.91454768 -0.57491845 4.1195259
0.30896363 -0.32193211 4.9321423
0.46218538 -0.89169598 4.2373977
-0.66849893 -0.014595351 4.6320977
0.46897656 -0.77410358 4.5377455
0.60081559 -0.63335067 4.464798
-0.4729062 -0.75328064 4.723515
0.60115266 -0.56871432 4.2732286
-0.50729758 -0.71193963 4.6362352
0.33261552 -0.1304087 4.8547997
0.80006051 -0.27720815 3.5833325
0.91795582 -0.57670414 4.1212559
0.78187621 -0.25768843 3.5750632
0.70430374 -0.30624697 3.6325076
0.61260563 -0.58658808 4.2260356
0.48805597 -0.93653917 4.4377284
0.5318284 -0.71240783 4.4836884
0.14098263 -0.3680127 5.0622978
0.45485625 -0.76194841 4.5248041
0.52678114 -0.72176862 4.4851813
-0.34744498 -0.68967611 4.8448014
0.580338 -0.81299669 4.2732725
0.11377471 -0.77220249 4.6116877
-0.5446471 -0.78131664 4.6780486
0.57926387 -0.56173438 4.1803684
0.62387615 -0.52595007 4.20295
-0.61663157 -0.77624756 4.5585938
0.78285033 -0.4663181 4.0765886
-0.13857536 -0.85566163 4.8807235
-0.37276134 -0.80986476 4.8800812
0.60368556 0.023745542 4.7751236
0.95281947 -0.39426005 3.9239759
0.50258774 -0.77924192 4.3435431
-0.52625871 -0.98903912 4.6571846
-0.50006855 -0.99759412 4.6683197
-0.43981764 -0.46842137 4.9931669
-0.73534089 -0.92474186 4.6915345
0.067394607 -0.19189818 4.9813061
0.36219642 -0.67714888 4.6351662
-0.72335225 -0.84964806 4.6895404
-0.24532966 -0.75160503 4.70889
0.48033163 -1.1747557 4.4361444
-0.39592254 -0.80776572 4.8795671
0.76177931 -0.46436498 4.0367203
-0.40985394 -0.79803997 4.8741188
-0.60853469 -0.77622801 4.5630021
0.53202814 -0.65566826 4.4509501
0.51485944 -0.90545553 4.0747418
-0.40982538 -0.79818356 4.8743134
0.79144013 -0.33233052 3.6056383
-0.17750375 -0.63061851 4.368185
0.44234875 -0.34648785 3.6910596
0.41928062 -0.303572 3.6386864
-0.28517941 -0.57180893 4.2380433
0.45601004 -0.32972103 3.6273398
9.7792428e-05 -0.70941895 4.6690755
0.43105242 -0.8263182 4.5708752
0.53223079 -0.81336176 4.1490598
0.24637121 -0.65072799 3.2376876
0.17952867 -0.25490004 5.0769191
0.85315967 -0.52884984 4.4012218
0.60311115 -0.6152004 4.2563977
0.45250165 -0.71488905 4.6042624
0.59871453 -0.65985078 4.2896481
0.34480301 -0.34208032 4.7702055
0.80147141 0.2082243 4.2790642
-0.63953608 0.039496962 4.4992037
0.95491731 0.24040593 4.0135937
-0.65999335 -0.02851533 4.6385131
0.83874911 -0.49766839 4.3618631
0.83111227 -0.23290719 3.5712695
0.8143875 0.18714145 4.2675538
0.80066782 0.19648217 4.2231197
0.79962307 0.20329063 4.2165117
0.50274378 -0.95079571 4.236815
0.87376416 0.22025549 3.9755163
0.55905569 0.04823678 2.8398588
0.54426366 0.077084616 2.800252
0.86112809 -0.5918048 4.1741958
0.39823747 -0.74490958 4.3816381
0.48628318 -0.67914355 4.44238
0.50131321 -0.87887472 4.3594651
0.61467713 -0.59357309 4.2311583
-0.75111139 -0.86192435 4.7155042
0.66885108 -0.48531753 4.0832109
-0.84652621 -0.80135947 4.6798267
0.33752725 -0.075636365 4.8976908
-0.76189804 -0.81085175 4.7101622
-0.70182091 -0.86716741 4.732595
-0.66531211 -0.81552619 4.6388993
-0.61378133 -0.829844 4.6534801
-0.66712451 -0.87026757 4.6934814
-0.65397656 -0.96549803 4.4796362
0.54683435 -0.89348441 4.140996
0.21429551 -0.71956033 4.4022875
-0.58701015 -0.75366563 4.5681911
-0.61204618 -0.69397533 4.5338974
0.774863 -0.24819531 3.5628407
0.83725572 -0.2532244 3.5385764
0.89002639 0.21788374 4.0335169
0.28075483 -0.68077618 4.6633005
0.54991388 -0.88836598 4.1437068
-0.59799194 -0.6335603 4.3507028
0.37422043 -0.21176191 3.3712304
0.7397908 0.30655092 3.9659884
-0.92555952 -0.18154538 4.8919215
-0.70862335 -0.17246962 4.7140827
0.72002387 0.2768541 3.9799721
-0.96229947 -0.15205324 4.8846192
-0.91388655 -0.18761024 4.8958135
0.26837218 -0.68602687 4.6694508
0.27579656 -0.69367486 4.6761203
0.58772725 -0.78654116 4.2595215
0.55406696 -0.89445871 4.150444
-0.12657127 -0.73118842 4.8072538
0.54237932 -0.58377188 4.6153769
0.5679369 -0.80480933 4.195786
-0.65813476 -0.9638955 4.4772177
-0.66780907 -0.80738223 4.5070419
0.45856762 -0.73852134 4.5506692
0.040392909 -0.25265783 5.0393748
0.5273537 -0.54335666 4.6194787
0.66774023 -0.48404312 4.0775514
0.35599804 -0.49233633 4.7140574
0.52472156 -0.81843406 4.3886514
-0.51227236 -0.71791756 4.615869
0.52318597 -0.77848864 4.4874873
0.50701547 -0.87596399 4.2326961
0.5362944 -1.014065 4.2086554
0.57688349 -0.70980066 4.2153482
0.75824344 -0.37237367 3.6786649
-0.0097236028 -0.75867575 4.6390204
-0.12131286 -0.73175812 4.8095002
-0.0035867374 -0.76882452 4.6412458
0.28333229 -0.70292687 4.6829252
0.86054921 -0.56574458 4.3657184
0.61008543 -0.67514217 4.324842
0.60986608 -0.67598581 4.3212361
-0.0062430063 -0.7420702 4.6601501
0.60913467 -0.58496648 4.2220659
-0.59772193 -0.23347354 4.832159
0.58848572 -0.26399195 3.5965092
1.0213255 0.22519343 4.0605025
0.55662501 -0.053974785 2.9959159
0.41116661 -0.030784484 2.6769979
0.40785989 -0.032753453 2.6779258
0.42600471 0.066677697 2.6823936
0.54836893 -0.89642745 4.1903105
0.21075287 -0.71461797 4.7016902
0.53696251 -0.026807819 4.8151045
0.39424884 -1.1644057 4.448163
0.50869882 -0.96778446 4.1545515
0.49726978 -0.075522058 4.836082
0.87839007 -0.67170233 4.5408311
0.23468705 -0.76378161 4.5630608
0.46873513 -0.77232105 4.5377493
0.12943709 -0.24868369 5.0789843
0.60985368 -0.63033789 4.2707329
0.75364268 -0.24905866 4.6906199
0.60973376 -0.6728 4.3334641
0.2847656 -0.70504218 4.6863208
-0.57638103 -0.68524557 4.60393
-0.6060285 -0.89161122 4.4815769
0.58233672 -0.54106545 4.2441964
0.29878357 -0.71428525 4.6890364
-0.29219949 -0.58428758 4.2909389
0.59076029 -0.33250362 3.8014719
0.67802757 -0.31107041 3.5977509
0.83664852 -0.54147798 4.3293796
0.84641027 -0.58275265 4.3611112
0.59972572 -0.23139745 3.5792687
0.59214652 -0.67605531 4.2243495
0.56964272 -0.8165819 4.2048678
-0.45044073 -0.036208902 4.7330141
0.57964295 -0.78926289 4.2125025
0.96182197 0.21900357 3.9871123
0.74780113 0.14865926 4.2586088
-0.42594606 -0.48373294 3.9579313
0.83594579 0.23561934 4.0506468
0.82998621 0.21768627 4.0639424
-0.72741991 -0.14754319 4.7099919
-0.74664128 -0.13370788 4.7002344
0.59135365 -0.22674841 3.4006593
-0.69274187 -0.095075943 4.6125793
-0.60396898 0.03369369 4.4120016
-0.83326155 -0.1493645 4.6195464
0.10454626 -0.69678229 4.7274313
0.13278067 -0.69809604 4.7313066
-0.67493695 -0.15570131 4.791172
-0.64935529 -0.19368997 4.8283005
0.85639697 0.19860736 4.0724497
0.56525511 -0.40500322 3.7513335
-0.93062347 -0.051826093 4.5517335
0.58741045 -0.20302956 3.3745286
0.49216995 -0.32341477 3.5129416
0.38014513 -0.12069725 3.1492977
0.34380174 -0.063702054 2.9645586
0.42995867 0.056336172 2.7040079
0.71057385 -0.066666029 4.6693497
0.62826508 -0.52948248 4.202095
0.081760131 -0.70993769 4.5957503
0.53119379 -0.23040567 3.453402
0.63712603 0.33056343 3.923507
0.29289538 -0.19411778 2.9457114
0.36418346 -0.33921736 3.1779995
-0.1304754 -0.69029641 4.2795095
0.39020154 -0.34809059 3.3134146
0.61976081 0.33831525 3.9517157
0.5176599 -0.20910408 3.4184835
0.38166848 -0.52640152 3.5522492
0.43946382 -0.83005124 3.9138649
0.35580736 -0.41748881 3.5126691
0.11879525 -0.70168495 4.7327819
0.47899038 -0.60769093 3.8134212
0.37934184 -0.23575664 3.3747885
0.41337699 -0.22464848 3.4476099
0.46174058 -0.31981435 3.499649
0.68396777 0.11205702 4.0448613
0.32047862 -0.31138143 3.0173762
-0.72935265 -0.16761608 4.710741
0.29024947 -0.188673 2.9446714
0.33688679 -0.042314332 3.0259306
-0.65845507 -0.36776024 3.7520018
0.54960227 -0.93369043 4.2177901
0.2824024 -0.084597766 2.7614312
0.3139675 -0.041053627 2.9536352
0.37819549 -0.1348412 3.0487585
0.11719941 -0.09339413 5.1151948
0.811728 -0.32071665 3.5682909
1.008014 0.16026309 4.0915194
0.39168656 -0.33947337 3.6321609
-0.41568416 -0.24901298 5.0020924
0.53411144 -0.65573806 4.4782696
0.03889915 -0.94048059 4.1164746
0.076555707 -0.96992552 4.1681962
-0.73137039 -1.0613182 4.6464286
0.49163395 -0.86311245 4.348856
-0.52285868 -0.43449655 4.9655986
-0.83681846 -1.0403926 4.5926466
-0.8145135 -1.0547925 4.5869427
-0.5917272 -0.98553884 4.6253424
-0.67123801 -0.97538972 4.5859623
-0.61238605 -0.96251291 4.6251254
0.71239549 -0.47114098 4.0548339
-0.5757041 -0.98291183 4.6306539
0.93493682 -0.53733611 4.3288345
-0.65477121 -1.0666627 4.5683317
0.43610272 0.04474939 2.7100232
0.1116661 -0.72413969 4.7442241
-0.98582995 -0.081336394 4.8743944
-0.42131054 -0.54269326 4.0371108
0.74334669 -0.50590533 4.5549979
-0.7514447 -0.28898248 4.8958869
-0.6085043 -0.26747981 4.863698
-0.19371276 -0.64920533 4.1522579
0.48367363 0.046212271 3.0138762
0.58892393 -0.21049443 3.3754933
0.38133192 -0.45308727 3.5784752
0.56348652 -0.87156302 4.1229568
0.35114282 -0.16525774 3.3013527
-1.2392786 -0.15542534 3.5236483
0.37359694 -0.92217058 4.1989202
0.30717561 -0.020717701 2.9279523
-0.71508557 -0.21484308 4.612258
0.32207432 -0.049708243 2.9427509
0.90996134 -0.50553674 4.1962371
0.42975089 -0.097459063 2.8021917
0.67504054 -0.49971941 4.0967546
0.30415028 -0.063470826 4.8868809
0.31892592 -0.063965812 4.8949232
0.81448793 -0.58754557 4.3835816
0.334097 -0.064762682 4.8889089
0.49760893 -0.82568407 4.0972977
-0.25990409 -0.67659122 4.7598152
0.30350745 -0.31904799 4.9242764
0.26793373 -0.25127298 4.9936857
-0.77180642 -0.83270675 4.7090106
0.35058418 -0.40878883 4.7461314
0.43908209 -0.6787827 4.5993657
-0.45344391 -0.77296317 4.735466
-0.51078045 -0.73597938 4.7284784
0.44698262 -0.88854384 4.2152724
-0.663607 -0.82036036 4.5363259
0.55649084 -0.89966333 4.085896
0.54693735 -0.77419144 4.1555104
0.33744913 -0.35381573 3.07778
0.29322061 -0.28265399 2.9612081
0.26478022 -0.42202997 3.5387332
0.65672213 0.3087962 3.9614372
0.38819858 -0.55355793 3.5638368
0.38255125 -0.53313661 3.5542767
0.58271921 0.29538551 3.9708545
-0.42465004 -0.0062087136 4.7199426
0.51386535 -0.52622849 4.6102414
0.33824944 -0.16528645 3.2846558
0.41902706 -0.29977924 3.4739358
0.64968133 0.15061912 4.0660071
0.60154694 0.2619811 3.9356322
0.27537999 -0.35029349 2.8955193
0.28082135 -0.18582357 2.9223599
0.58387619 -0.62626195 4.2012138
-0.73219699 -0.15871525 4.7129602
-0.59505475 0.025879711 4.4165587
-0.68978649 0.099661253 4.3773465
0.17613472 -0.82191598 4.5825734
0.11861129 -0.25228041 5.0786972
0.56907755 -0.60477585 4.1799197
0.7522642 -0.33008334 3.6583121
0.59676367 -0.30791959 3.6523092
-0.37839788 -0.18280824 5.1149421
0.45025459 -0.35320729 3.6987019
0.3753607 -0.38889536 3.6387467
0.54518199 -0.47735295 3.8149958
0.61179751 -0.60478461 4.399138
-0.41661879 -0.24168214 4.9937544
0.79276311 -0.36684451 3.6629131
0.49156103 -0.51925689 4.6305156
-0.34328893 -0.7887398 4.8724942
0.67082149 0.24612184 3.9962215
0.29764953 -0.29084212 2.9727368
0.86755532 -0.5701443 4.3358545
0.94219643 0.24228095 4.078413
-0.22533034 -0.77978158 4.7188926
1.0822515 0.19770533 4.2159882
0.87314582 0.19937988 3.9867766
-0.71647573 -0.79091626 4.6951709
0.5324617 -0.28193811 3.6068604
0.88077742 -0.49947605 4.2004104
-0.55726743 -0.70309234 4.8196125
0.33211222 -0.093136095 4.8994594
-0.63446063 -0.11910273 4.8440504
0.78172094 0.20528905 4.285677
0.55123711 -0.77811998 4.2103448
0.83331788 -0.53867757 4.2730851
-0.17603223 -0.71992928 4.7755518
0.58271563 -0.63722682 4.4512148
0.50188565 -0.68560135 4.5734706
-0.59498137 -0.74443191 4.5846243
0.49517772 -0.82608962 4.5122781
0.057487234 -0.74904299 4.5732851
0.51717913 -0.6582613 4.4782128
0.34011945 -0.17304024 2.9163885
0.52376819 -0.77516335 4.4877076
0.52345622 -0.77487427 4.3768978
0.2380639 -0.76196676 4.5802236
-1.1384586 2.6255214 -3.2793391
0.17780007 -0.41281843 2.6772428
0.40925691 -0.035211276 2.6909971
0.5024181 -0.68180537 4.5711923
0.40506056 -0.039813135 4.8567076
0.50021183 -0.77922893 4.4436474
0.16721979 -0.065182626 5.0996423
0.39856011 -0.7365433 4.3688841
-0.82130688 1.9958833 -2.0253901
0.27265629 -0.26671982 4.9774194
-1.4023026 -0.061583895 3.3969054
0.12312227 -0.73034626 4.6390643
0.14629351 -0.78442717 4.6248779
0.51340556 -0.91468322 4.2362542
0.61078352 -0.67100501 4.325521
0.82636786 -0.3518773 3.6735539
0.60937113 -0.30818582 3.600606
-0.21904561 -0.74580967 4.6542401
