# .PCD v0.7 - Point Cloud Data file format
VERSION 0.7
FIELDS x y z
SIZE 4 4 4
TYPE F F F
COUNT 1 1 1
WIDTH 338
HEIGHT 1
VIEWPOINT 0 0 0 1 0 0 0
POINTS 338
DATA ascii
-0.36133116 -0.84836507 4.6886697
-0.63068372 -0.57748634 3.9073222
-0.28388637 -0.8398627 4.7734919
0.40066454 -0.76927483 4.534626
-0.51639175 -0.16261972 4.6390915
-0.78889948 -0.872832 4.6604528
-0.37035701 -0.84771103 4.6673365
-0.11177788 -0.81609511 4.6609502
-0.14783831 -0.83251536 4.6178989
-0.10114913 -0.85600454 4.5670595
0.65746742 -0.71295589 4.5079608
0.27787757 -0.37823424 4.7590137
-0.68841881 -0.75841516 4.4393091
-0.76050889 -0.92860657 4.5962486
0.32270157 -0.75066829 4.60991
0.13742711 -0.82419246 4.5399575
0.46861514 -0.7130779 4.4199433
0.28196248 -0.41756111 4.7452106
0.27899662 -0.41330525 4.7468138
0.42915788 -0.81112117 4.4147167
0.049971566 -0.78363454 4.6133881
0.27779031 -0.38272765 4.7591934
0.27523765 -0.40743685 4.7435393
0.47543547 -0.91104341 4.2756515
-0.35887319 -0.84516656 4.6849589
-0.58077705 -0.15325747 4.6663675
0.59600663 -0.12899058 4.7180042
0.75826448 -0.66466832 4.1990948
0.77236074 -0.58723062 4.1995163
0.37834525 -0.64204919 4.617806
-0.59060198 -0.14596908 4.6636405
0.13840564 -0.75034779 4.4933643
0.6204049 -0.56422764 4.5681081
0.79704082 -0.65142119 4.1455345
0.62737149 -0.71823817 4.5169892
-0.087012105 -0.48549974 4.96558
-0.76178885 -0.059355665 4.4307837
0.33623329 -1.0008452 4.2374048
0.37806448 -0.63442457 4.6162982
0.6622417 -0.45743397 3.6973858
0.5043273 -0.71992517 4.2765064
1.0044128 0.2221687 3.9666743
0.13886505 -0.79157263 4.5769095
0.36632699 -1.0073458 4.2459407
-0.5397433 -0.27091756 5.0739017
0.75797111 -0.66066432 4.3459334
0.49751925 -0.82523042 4.2587843
0.2344135 -0.75631982 4.6404009
0.9642961 0.11294804 4.2264547
-0.81103796 -0.20664711 4.5807276
0.31873238 -0.76891851 4.5919485
0.13291673 -0.96200055 4.5293303
0.17555693 -0.80873507 4.5318565
-0.72761881 -0.84236759 4.5003486
-0.7328667 -0.87651879 4.5044861
-0.64795768 -0.80015087 4.5709362
-0.37181827 -0.84552258 4.6203961
-0.73365951 -0.90876299 4.5481582
-0.74877942 -0.97234237 4.4391956
-0.10660265 -0.85359782 4.5641136
0.31203148 -0.91394794 4.5564909
0.21677327 -0.18353127 4.8869028
-0.31090853 -0.8367843 4.641881
-0.10620451 -0.85033506 4.5619102
-0.5937025 -0.14647755 4.6646671
0.83030599 -0.64903921 4.3781323
0.74929374 -0.64714664 4.3591914
0.79681808 -0.64993441 4.1382909
0.4802238 -0.71941459 4.4594607
0.15856002 -0.12948711 4.8934975
0.47443837 -0.8791256 4.2928071
0.32493156 -0.73449653 4.6036301
0.58456689 -0.55303961 4.0508795
0.60031867 -0.54883987 4.041214
0.56535769 -0.56929946 4.0727344
-0.066527434 -0.47071776 5.0039129
0.35735971 -0.98566973 4.2113767
0.57015109 -0.43103462 3.7399361
0.86762536 0.11822433 3.9914041
0.38030764 -1.037721 4.2304268
-1.5866894 -0.21775539 3.2638791
0.17073756 -0.41123626 4.9139576
0.24188653 -0.76090294 4.6262798
0.22891843 -0.7612263 4.616087
-0.79621643 -0.11318963 4.573247
-0.59798253 -0.84993654 4.6741276
-0.62911129 -0.80904859 4.5854216
0.49554536 -0.71509427 4.2134352
-0.51871908 -0.27849123 5.0588574
0.14546765 -0.13572893 4.87885
0.19045424 -0.13464059 4.8711858
0.69864053 -0.34495211 3.5774093
0.61920041 -0.39411259 3.6317027
0.56540215 -0.58956152 4.1290598
0.50559843 -0.67430037 4.2215033
0.41538599 -0.80042177 4.4758563
0.41036507 -0.80982512 4.4771585
0.3991572 -0.84716886 4.2480307
0.76589411 -0.67401457 4.3587832
0.75847453 -0.67581564 4.1936226
-0.23913831 -0.83341712 4.7678056
0.51727057 -0.61360109 4.198781
-0.26952219 -0.94905126 4.8451934
-0.50388134 -0.90536302 4.8348026
0.24617343 -0.77487659 4.6227665
0.59703088 -0.62632143 4.1330795
-0.37002042 -0.84623855 4.6688962
-0.023550536 -0.32039407 5.0607548
0.37001914 -1.2632908 4.4271531
-0.32007223 -0.82518381 4.6375122
-0.69496965 -0.88391918 4.555481
-0.72666377 -0.87436378 4.5082045
-0.70756173 -0.78336674 4.488966
-0.54077858 -0.89402497 4.8274884
0.70760012 -0.41945529 3.6085017
0.33415252 -0.39399049 3.6261172
0.63865608 0.060142446 4.2560759
-0.39201367 -0.66757476 4.1964488
0.37155044 -0.4198266 3.6163471
0.13334824 -0.7478897 3.2038176
0.18531601 -0.77391028 3.1949692
0.0039220951 -0.77814335 3.3287029
0.18103544 -0.74333942 3.2190232
-0.48664865 -0.82330281 4.8258915
-0.70716906 -0.64955479 4.7169185
0.6850211 0.12226333 4.2806873
0.3264018 -0.97470492 4.2722468
-0.76227933 -0.059055477 4.4415522
0.84899497 0.1553912 4.0217066
0.51420772 -0.3073383 3.3815646
0.32470471 -0.77896678 4.5965576
0.74776822 -0.31973535 3.5755994
0.68579894 0.11721142 4.2181215
0.82832396 0.18770671 4.0704627
0.39863741 -1.039463 4.2284698
0.49021852 -0.013590744 2.7927914
0.75608456 -0.67736667 4.179966
0.48157454 -0.87531668 4.2593951
0.50751907 -0.68125814 4.2267208
-0.87464058 -0.96109027 4.6548681
0.28222495 -0.13305008 4.8536057
-0.78430957 -0.89948851 4.6216974
0.19850083 -0.16475005 4.8802214
-0.73516029 -0.92787743 4.598496
-0.78974563 -0.96871388 4.636344
-0.80073893 -0.8822124 4.653234
-0.76693833 -1.0641702 4.4234133
-0.69865471 -0.85187209 4.5546069
-0.70557368 -0.85160035 4.5142312
-0.78594798 -0.88590944 4.4391227
0.16838312 -0.97780532 4.5161805
0.6920532 -0.33554232 3.5648887
0.78354084 0.1323189 4.0389814
0.2993474 -0.30302471 3.3568475
-1.0989469 -0.25287244 4.8137121
0.14426591 -0.77610838 4.6505437
0.022676583 -0.81528127 3.3626003
0.1090534 -0.71568817 3.166579
0.45466918 -0.29050574 3.4096982
-0.0081436783 -0.77528948 3.3089423
0.5485242 0.19773775 3.9574928
0.15147671 -0.78367847 4.6575289
0.48114377 -0.87441427 4.254334
0.4529756 -0.98280752 4.1441765
-0.25560781 -0.82459491 4.7720327
0.41934785 -0.67148197 4.6076112
0.74426174 -0.61560357 4.2926173
0.34352925 -0.82650691 4.5160351
-0.76380116 -1.0419128 4.3489785
0.55404878 -0.53941303 4.0699611
0.62803656 -0.57698965 4.5707903
-0.63318819 -0.81510419 4.5648794
0.40718374 -0.86657131 4.4794278
-0.79684359 -0.7214455 4.4009962
0.67177749 -0.45967638 3.680177
0.68903196 0.11674837 4.2205062
0.50068098 -0.88895273 4.3673792
0.2846671 -0.97702825 4.2299118
0.44909117 -0.74163878 4.3816586
-0.13167889 -0.85130429 4.6088161
-0.25044167 -0.82511365 4.7744951
-0.12554882 -0.86139381 4.6113133
0.80185354 -0.6137464 4.2920542
0.49979395 -0.76271254 4.3202982
0.59444392 -0.69242668 4.5342002
0.49973112 -0.76356399 4.3166881
0.50227994 -0.6727165 4.2173905
0.59766728 -0.58156514 4.0724425
0.50459385 -0.35295933 3.5908744
0.47922128 -0.50216049 3.7549205
0.74656165 0.29041171 3.7727799
0.40905133 -0.087940387 2.9153872
0.38076547 -0.91469914 4.5004272
0.4119294 -0.90186661 4.3412628
0.44565558 -0.98476255 4.1837783
-0.012178299 -0.19839367 5.0931702
0.40072995 -0.11426476 4.8058319
0.3606416 -0.16329971 4.8252521
0.11569309 -0.85433596 4.5430102
0.35065296 -0.86081177 4.527389
0.50139517 -0.71800035 4.2661362
0.49906605 -0.76035964 4.3288937
0.68976313 -0.64020264 4.0881681
0.18010497 -0.22134382 4.8706093
0.17409419 -0.80406028 4.671423
0.6698072 -0.38999394 3.5675056
0.44277105 -0.92955738 4.0831227
0.66321468 -0.46822694 3.6683967
0.51624447 -0.32029319 3.5740471
0.48602495 -0.76395059 4.2191534
-0.58232301 -0.13267733 4.6831126
0.47503066 -0.87728512 4.207027
0.36287051 -0.89834595 4.4765921
0.39197743 -0.46266377 3.6719003
0.36505246 -0.37728906 3.5655463
0.17066489 -0.69984508 3.1511543
0.72864354 0.14959538 4.0538316
0.72230071 0.13163112 4.066906
-0.85711282 -0.24653491 4.6489105
-0.81891495 -0.19391662 4.552906
-0.72309476 -0.064680651 4.3559031
0.27132165 -0.16619037 2.9806836
0.27828902 -0.14778394 2.9237492
-0.17883641 -0.7226603 4.5911756
-0.80795288 -0.25408864 4.7322016
0.67725396 0.11999279 4.2748919
-0.78358698 -0.29178527 4.7704296
0.74850708 0.11280432 4.0765333
0.89304483 0.13898093 4.0618143
0.48705697 -0.49990055 3.7485175
0.47262055 -0.32954088 3.4354908
0.31361035 -0.21227185 3.1351666
0.28906065 -0.16142026 2.9599712
0.38017082 -0.035522763 2.6919568
0.5578289 0.16851026 3.9783328
0.45295721 -0.32012251 3.4454596
-0.011662594 -0.71470314 3.3456314
0.53439939 0.24254087 3.9184117
0.31192809 -0.46006355 3.2099445
0.23549175 -0.28680524 2.9283025
0.32423645 -0.47253338 3.2320235
0.29842737 -0.43087962 3.1636219
-0.23810162 -0.78459877 4.2444959
0.31891501 -0.43929815 3.3000124
0.51581681 0.25018215 3.9458647
0.30212668 -0.6172896 3.5386477
0.29760012 -0.54229915 3.5629647
0.2769503 -0.50867838 3.4978173
0.38931236 -0.69727534 3.8037727
0.40954435 -0.32496852 3.3617525
0.38245529 -0.41007668 3.4889817
0.49335602 0.20059237 3.9088869
0.59315372 0.16648144 3.9067957
-0.7803663 -0.038376953 4.41043
0.2611396 -0.40369931 3.0012779
-0.85889578 -0.26662314 4.6496191
0.23284255 -0.28138614 2.9271433
0.27478102 -0.13448198 3.0099642
0.23163381 -0.1776841 2.7435279
0.02848679 -0.41883588 2.4481635
0.083159566 -0.45625842 2.5414143
0.095641442 -0.70144302 3.1421759
-0.91569585 -1.1629875 4.5320711
-0.93096274 -1.1547297 4.5241871
-0.80973905 -1.1700695 4.5370326
-0.71057665 -1.0834132 4.5716023
0.6911549 -0.53987378 4.0547514
-0.57675785 -0.87308496 4.6877317
-0.58500421 -0.87322909 4.6917691
0.8229624 -0.62198484 4.3374081
0.39093411 -0.17955607 2.6335948
0.46079862 -0.95382887 4.2068372
0.62193263 -0.59190995 4.5554152
-0.88752389 -0.38788173 4.8339386
0.30005479 -0.54393876 3.5646911
0.49686313 -0.31777415 3.3819871
-1.3195038 -0.26095021 3.4424863
0.62104613 -0.58920926 4.5542998
0.24894571 -0.11331289 2.9108009
-0.84015751 -0.31388018 4.5519028
0.26347917 -0.14214417 2.9262593
0.80319577 -0.59062725 4.2038302
0.37728417 -0.18915363 2.7903559
0.051528502 -0.8642 4.5974293
-0.11188529 -0.8605966 4.6437178
0.16549106 -0.15290274 4.8680201
0.19533896 -0.15392198 4.871284
-0.86233211 -1.1672145 4.5321827
0.31765035 -0.76744366 4.5875435
-0.63618213 -0.83296853 4.6774902
-0.78019297 -0.91903293 4.4793682
0.45840389 -0.85153002 4.2685595
0.45871738 -0.72106588 4.4315352
0.44457096 -0.86260116 4.148705
-0.8619085 -0.25774461 4.6517015
-0.71430677 -0.072406732 4.3608394
-0.80799431 0.00045611855 4.3176069
-0.85500884 -0.94331348 4.6278825
1.0217918 0.12623112 4.2174525
-0.026112149 -0.34306049 5.0523987
0.40560743 -1.0041234 4.2262616
-0.52479309 -0.27800107 5.0679784
0.46385002 -0.69561416 4.5501757
0.13931888 -0.79114729 4.5739422
0.70686692 -0.4538627 3.6658511
0.11252294 -0.84894854 4.5417242
-0.84155756 -0.65722442 4.2515454
0.77229905 -0.6680311 4.3590021
0.15782408 -0.39912981 4.9146318
0.9400093 0.12966073 4.0541677
0.83359462 0.15725726 4.0859423
0.96824694 0.11416675 4.2292643
0.72663575 0.1433102 4.1631317
-0.68668056 -0.80035245 4.7665639
0.69380254 -0.3270866 3.5916891
0.44663978 -0.86640161 4.2036777
-0.30381724 -0.81383258 4.7382956
0.46689716 -0.72483921 4.4453588
0.38152704 -0.77373952 4.5642738
0.59339243 -0.5735563 4.5474472
0.40049282 -0.74641818 4.4696732
0.37119064 -0.7664839 4.5638418
0.28369546 -0.26535168 2.9009099
0.18058924 -0.59266257 2.8085222
0.11834272 -0.85246289 4.5602942
0.36084056 -0.12727371 2.6782863
0.38211915 -0.76994258 4.5620117
0.26734525 -0.12838781 4.8419867
0.38604528 -0.86758953 4.4346795
0.28718776 -0.82594138 4.3557029
0.13210241 -0.35627905 4.9575887
-1.4779909 -0.16878484 3.3089414
0.00079418684 -0.82178146 4.6142817
0.39407465 -0.80281258 4.5798998
-0.040963873 -0.17046845 5.0826492
-6.8292098 0.87612844 0.82847273
-0.34155697 -0.84029609 4.6153655
-6.4658523 0.32349703 2.2366636
