# .PCD v0.7 - Point Cloud Data file format
VERSION 0.7
FIELDS x y z
SIZE 4 4 4
TYPE F F F
COUNT 1 1 1
WIDTH 487
HEIGHT 1
VIEWPOINT 0 0 0 1 0 0 0
POINTS 487
DATA ascii
1.8804383 -0.29847723 3.7383006
1.9837224 -0.46578601 3.7258644
1.5915952 -0.38026223 3.7815385
2.0359924 -0.60226554 3.7632737
1.6534188 -0.38049749 3.7915967
1.6197679 -0.52194899 3.7344589
1.8819351 -0.30030587 3.7378983
1.8383147 -0.30158952 3.7391829
1.702435 -0.38313526 3.8081932
1.3676327 -0.3576512 3.7255552
1.9182721 -0.61598504 3.6578712
1.5883278 -0.41028005 3.7786474
1.3774016 -0.40681794 3.7134464
1.7504547 -0.64906418 3.7028682
1.8056792 -0.39448258 3.7609596
1.6094698 -0.46836764 3.7147291
1.5767634 -0.41380373 3.7555103
2.0107472 -0.40154281 3.7474375
2.0223114 -0.20688283 3.4691083
1.8680136 -0.34566069 3.7537744
1.9112318 -0.2818788 3.7265086
1.9840884 -0.12314403 3.5054765
2.0466404 -0.18911678 3.5386479
2.025316 -0.1139157 3.5385847
2.1737707 -0.64026541 3.883251
2.0108986 -0.19298412 3.4711976
2.1358197 -0.20417073 4.0966315
1.978031 -0.48833793 3.7334094
2.0553508 0.20337281 4.4571581
2.361124 0.029959556 3.4401541
2.0551422 -0.46514952 3.7816803
1.9463776 -0.68380582 4.8120637
1.9407049 0.3215414 3.5666664
2.106457 -0.3612245 3.9634769
2.0247111 -0.18217275 3.4517729
2.1238546 -0.37253362 3.9545658
1.8778087 -0.61788726 4.8396106
1.9686542 -0.47606844 3.8147566
1.3170433 -0.28063735 3.5204644
1.7318012 0.50557494 3.7612753
1.983882 -0.41102234 3.734252
1.715037 0.42539972 3.7688699
1.8848661 -0.20640157 3.6595879
2.0281093 -0.21036357 3.515801
2.0051484 -0.59698719 3.7184792
2.0784111 0.26085287 4.3119946
2.1983297 -0.17541714 3.6605246
2.1194296 0.016969427 4.7158828
2.0400045 0.15175119 4.4689713
2.3572476 0.016546696 3.4365823
1.8724549 -0.020411758 3.2903197
2.049073 -0.19063316 3.5320296
1.7353675 0.5017094 3.478246
1.9786557 -0.46460971 3.7200401
2.000526 -0.64776212 3.6507354
2.065999 -0.44738811 3.8816626
2.0002165 -0.44820338 3.7346883
2.0425072 -0.10484866 3.5185201
2.019887 0.21787246 4.4677491
2.3597136 0.012132084 3.4358833
2.0357051 -0.50429267 3.8484354
2.0701849 -0.45754781 3.8792341
1.8974056 -0.46644109 3.733211
1.938372 -0.63990366 3.6412196
2.1641924 -0.15394711 3.6328201
2.0696464 -0.48193547 3.8613904
1.8715601 -0.31893483 3.7555373
1.771576 0.31135437 3.2820127
1.8020862 -0.030129494 3.2254043
2.0155201 -0.65931541 3.7864099
2.0913298 0.16970173 4.7427082
1.8527117 -0.088506967 3.3997386
2.0741174 -0.44972113 3.8281608
1.541311 -0.34286696 3.798631
1.976697 -0.40276602 3.7274156
1.3326367 -0.39374462 3.6259265
1.9657822 -0.26297534 3.740819
1.8467207 -0.49507394 3.7852697
2.0099888 -0.40065295 3.7488844
1.2837726 -0.42703831 3.5644424
2.0846689 -0.34630361 3.9649355
1.8845795 -0.4684287 3.7352057
2.0381529 -0.42352876 3.7674835
1.9205755 0.06691587 3.4365172
1.2784303 -0.51663816 3.594836
1.6161876 -0.46630144 3.7516246
1.8796326 -0.30723134 3.7520528
2.1330719 -0.11002675 3.5656257
1.8557 -0.20513159 3.5742509
1.3646121 -0.26852623 3.5333183
1.3632764 -0.40655357 3.6961219
2.0067203 -0.093351692 3.5145791
2.1604452 -0.57551199 3.8937185
2.0012214 -0.44421506 3.735183
1.9005548 -0.13236135 3.2872095
2.3572903 0.0090375515 3.4332378
2.1762917 -0.6428358 3.8910708
1.7011609 0.30349442 3.1827061
2.188833 -0.61262232 3.9143393
2.0586462 -0.13150269 3.5394475
2.1432772 -0.52909249 3.9487426
1.8131328 -0.10027523 3.3957958
2.0171123 -0.46856359 3.7691228
2.0305235 -0.45703176 3.7549393
1.8653667 -0.48415434 3.7160656
1.9827743 -0.084010012 3.0612545
1.9488264 -0.41913515 3.730727
1.5909188 -0.37966082 3.7855961
1.5613536 -0.34962723 3.7859271
2.0422513 -0.42565155 3.7659378
1.3651451 -0.36586088 3.7721193
2.0021536 -0.11729528 3.4862015
1.3794233 -0.52798778 3.6736832
2.0273294 -0.46978647 3.752094
1.9378815 -0.72878855 4.8658195
1.262464 -0.5172621 3.604327
1.5642568 0.44588122 3.3056774
1.3169507 -0.39909232 3.6565056
1.4745245 0.42288503 3.6482544
2.1655719 -0.053490024 4.6643643
2.0271859 -0.63729399 3.7109318
1.986576 -0.28578869 3.7762158
2.1273434 -0.37547725 4.1812658
1.9339615 0.19373727 3.2338684
1.8712897 -0.13085985 3.298573
2.1635244 -0.1070731 4.6699781
1.57812 -0.47517714 3.7353253
1.8239948 -0.10979615 3.4516621
1.8667346 -0.32185426 3.7586985
1.9326115 -0.34713128 3.7356503
2.1372786 -0.014683846 4.4772577
1.8840749 -0.13235508 3.2950132
1.3856125 -0.18337376 3.4924352
2.1224093 0.0595631 4.7078719
1.5180383 0.50430065 3.5949497
2.020695 0.2256975 4.4594665
1.5721244 -0.52833015 3.7599473
2.0298767 -0.14603867 3.6228662
1.360085 -0.36801928 3.7723958
1.274695 -0.24767712 3.4822192
2.1377311 -0.018306484 4.4788113
1.8261148 -0.40094367 3.7851791
2.1595461 -0.57217062 3.8970923
1.8848804 0.18668348 3.3367314
1.8617922 -0.39614806 3.768625
1.8098809 -0.4223848 3.8594811
2.1806378 -0.60189348 3.9265933
1.8514348 -0.48902538 3.7267447
1.9100468 -0.43675515 3.7304966
2.0513127 -0.15424235 3.6052191
1.9292893 -0.43422157 3.7154706
2.0024459 -0.15988939 3.6669495
1.5230783 -0.21209538 3.4098074
1.9413334 -0.47253343 3.7147286
1.8664014 0.1943406 3.3410609
1.8921522 -0.3814325 3.7624674
1.8204712 -0.10455254 3.3579137
1.882104 -0.3940028 3.7424514
1.846697 -0.44257697 3.7403581
1.5169302 -0.22809176 3.4296234
1.8636171 -0.26380074 3.7370934
1.9192221 -0.74045581 3.8015084
1.6033185 0.51085615 3.4346049
2.1643679 -0.4237434 4.1300311
2.0654635 -0.39396861 4.2779431
1.9143587 -0.016276604 3.1709085
2.1047049 -0.14919496 3.5896304
1.7292795 -0.39301732 3.7973666
1.86019 -0.41119248 3.7404368
1.9232767 -0.0089028506 3.1748395
1.9000373 -0.62301612 3.6744676
1.711478 -0.38414392 3.8153288
1.8089256 -0.46547771 3.7291083
1.8856677 -0.33110797 3.7328017
1.8083763 -0.46684608 3.7328596
2.0506439 -0.71048683 3.7317352
1.7344983 -0.58442169 3.772239
2.1514461 -0.37522414 4.1503363
1.8371581 -0.27543449 3.7434018
1.5228698 -0.22193787 3.4054744
2.0250943 0.46717909 4.0029778
1.8670648 -0.50101584 3.7145264
1.5835475 0.47884601 3.4344351
1.8308758 -0.28781676 3.7067904
1.7656536 -0.40368891 3.8010163
2.2405322 -0.13927235 3.5704911
2.1648288 -0.17099003 3.6429541
1.9637575 -0.58437043 3.693898
1.5795722 -0.51765645 3.7432692
1.9732478 -0.62591553 3.8412321
2.2325163 -0.09032622 3.5803449
1.7356976 -0.037166134 3.2474623
1.3746547 -0.36313558 3.729363
1.4663221 -0.21270178 3.4377375
1.5074555 -0.17701221 3.4178133
2.0036974 -0.53114522 4.4545741
1.9635159 -0.62492514 3.8179059
1.6211575 -0.38476846 3.8090417
1.5688561 -0.4169465 3.7620242
1.7943488 -0.44083819 3.7454321
2.0160427 -0.61837 3.7687268
1.8425418 0.19685225 3.2950823
1.5974423 -0.35188529 3.8015683
2.0420048 -0.1027145 3.497833
1.5792307 -0.51408869 3.7261031
2.0651455 -0.14956011 3.5912817
1.3459148 -0.35023919 3.7278047
1.2650355 -0.3476041 3.6749151
1.8636045 -0.2613233 3.7575943
1.8632892 -0.44158751 3.726001
2.0336316 -0.62254679 3.7673273
1.5678912 -0.10277593 3.321991
2.1370928 -0.32884374 4.008759
1.9729786 -0.28706855 3.7935097
1.9585803 -0.67807114 3.6406958
1.8663536 -0.67760932 3.6936748
1.4945543 -0.18771549 3.4221835
1.700621 0.27416334 3.3728151
1.6063514 -0.47617927 3.740026
1.9330039 -0.023138441 3.1526854
1.5891451 -0.71729481 3.7476668
1.9141583 -0.43763563 3.7364922
1.8310732 -0.59659594 3.7313411
1.5955839 -0.41276675 3.7691085
1.9920523 -0.44509336 3.7160716
1.6983893 -0.11995777 3.4226294
1.2213773 -0.35044509 3.6908062
1.8511202 -0.17660771 3.5773494
1.886205 -0.67877561 4.6612663
1.8879482 -0.012780624 3.3070648
2.1894619 -0.14541143 3.6322358
2.2183208 -0.12834737 3.6093094
2.2155707 -0.20710784 3.847486
1.8552245 0.19390027 3.298743
1.9625397 -0.25826612 3.7293916
2.187295 0.55376035 3.7363431
2.0851703 -0.13163984 3.6018529
1.9260665 -0.4787724 3.7265403
2.022387 -0.40549421 3.7507834
1.9364853 -0.62328762 3.6384945
2.0018432 -0.32989499 3.777652
2.1860945 -0.42562112 3.9916501
1.8401597 -0.18966061 3.49947
2.2734945 -0.18339632 3.8678095
2.1868701 -0.61668187 3.9060354
2.0815876 -0.48364452 3.8400362
1.877635 -0.49586561 3.6748269
1.9465392 -0.52058125 3.7029672
2.0628459 -0.30607873 3.9274771
2.1529379 -0.55089706 3.9016559
2.1516089 -0.52525765 3.9334102
1.7757804 -0.65523922 3.6870494
1.5946648 -0.20451576 5.2136207
2.0573211 -0.50369412 3.8350255
1.8516231 -0.099675909 3.3631804
1.9103498 -0.30879128 3.7871389
2.0263474 -0.093143888 3.5175993
1.3064477 -0.36376178 3.7122002
1.2811998 -0.54882205 3.6561444
1.0774387 -0.58634758 3.6550872
1.9966668 -0.43960679 3.716855
2.0766096 0.1472321 4.4553442
1.911016 -0.34762934 3.7528937
2.1866922 0.56186306 3.7374372
1.7192068 -0.85815144 4.8705297
1.998161 -0.66278613 3.6559551
1.7419407 -0.15927555 5.1358094
1.5809474 -0.35149971 3.8290219
2.1836596 -0.43110248 3.9847949
2.0579314 -0.16964076 3.4546523
1.3071156 -0.36544988 3.5924587
1.8878931 0.18477464 3.2880034
1.7644898 -0.08456476 3.4737129
1.3780773 -0.4604145 3.6873682
1.372162 -0.46553475 3.7021108
2.0208907 0.22361939 4.4545565
1.8237348 -0.43119597 3.7768285
1.3498281 -0.35820904 3.723609
1.2354831 -0.35544819 3.5218713
2.2102861 -0.12746406 3.6433904
1.2869365 -0.34644225 3.6625266
1.2384462 -0.42026255 3.6293979
1.9273956 -0.65249169 4.5744815
1.8286574 -0.10453267 3.436986
1.9448231 -0.51581073 3.7009768
2.0536523 -0.70741409 3.7223909
1.9846826 -0.45407739 3.8997586
2.1937094 -0.13274825 3.6334071
1.7368666 -0.094959997 3.3046105
1.9756292 -0.41128615 3.7881978
1.8546463 -0.58800715 3.7059298
2.149332 -0.43385977 3.9871035
1.5369835 -0.18740231 3.3324285
2.0502706 -0.50146151 3.8296647
1.5763482 -0.16793984 3.3246462
1.7796654 -0.14793229 3.4995811
1.7423445 -0.58000052 3.7659383
1.7934377 -0.56983262 3.7305956
1.9697675 -0.48609212 3.7477493
1.8511212 -0.20800471 3.5776012
2.0132942 -0.53121561 4.434659
2.1540458 9.7274133e-05 4.4927831
1.8711742 -0.038652275 3.2884479
2.241987 0.0076849014 3.406492
1.8645092 -0.5617767 3.6999671
1.8750021 -0.56215006 3.6889362
1.4954275 -0.20943581 3.404351
2.0938115 -0.1471616 3.5570862
1.7224749 0.095124587 3.4550028
1.851782 -0.22255531 3.5454862
2.1147981 -0.44703463 3.9695523
1.8817075 -0.16973212 3.5511711
1.8513724 -0.18844672 3.5623195
1.98247 -0.67139 3.7188165
1.6088274 -0.47468874 3.7374372
2.1158478 -0.45031381 4.2060881
1.8100083 -0.28650615 3.7673156
1.8134434 -0.35832667 3.7948666
1.5913786 -0.71681857 3.7471294
1.875697 -0.37499854 3.7343447
2.1833684 -0.57309479 3.9216824
2.1453981 -0.37013417 3.9678974
1.3207531 -0.27808702 3.5177076
1.4578451 -0.27336764 3.4234612
2.1112635 -0.33054692 4.0067563
2.1701279 -0.42933229 4.0009842
1.2854347 -0.35085228 3.55057
1.4737728 -0.34515998 3.4534628
1.4384043 -0.28832579 3.4915109
1.7067279 -0.36829531 3.8145435
1.5691999 -0.44809827 3.7421613
1.6734629 -0.42350006 3.818413
1.6644489 -0.40372509 3.8037918
1.3869067 -0.52729607 3.6609762
1.3808715 -0.51451975 3.6602182
1.6666189 -0.35895252 3.8353
1.390505 -0.47938702 3.6942291
1.6748289 -0.52744776 3.7306654
1.6658461 -0.34629509 3.8238134
1.9217604 -0.22198504 3.7050161
2.0069053 -0.68626863 3.8010416
1.8717669 -0.40689439 3.7143636
1.9455969 -0.22492 3.6585205
1.8353518 -0.19002278 3.5752676
1.9361802 -0.69618559 3.7078903
1.8576195 -0.49023166 3.7014196
1.928067 -0.54416686 3.6998241
2.0368309 -0.62335068 3.7262912
1.9878471 -0.63206971 3.7535782
1.7783034 -0.2066258 3.5236995
1.2095945 -0.3697983 3.6550152
1.2723917 -0.35864171 3.6878595
1.2790604 -0.35835692 3.6847198
1.2226552 -0.44889024 3.6382062
1.8161732 0.21306613 3.443696
1.2373983 -0.47230321 3.7424464
1.2334659 -0.37049645 3.7733581
2.002459 -0.5441913 4.433969
1.223423 -0.45973209 3.7062583
2.0355661 -0.45270878 3.7391214
2.0729444 -0.26040652 3.5643625
1.9900455 -0.47505042 3.7439895
1.6087136 -0.47246453 3.7420106
1.797334 -0.33990887 3.8009965
1.4784657 -0.24062453 3.4272401
1.5371552 0.42070985 3.589088
1.8538307 -0.082161076 3.3874547
1.4604924 0.44266567 3.638155
1.7325765 -0.40348148 3.7345603
1.3297898 -0.28212127 3.5724509
1.8237593 -0.47953168 3.7762797
2.0375772 -0.21224441 3.5185401
2.0789468 -0.024381889 4.2944622
1.8300608 -0.16600026 3.5207505
1.6496558 -0.38605368 3.7950847
1.8611089 -0.49442601 3.6936822
2.053184 -0.15422715 3.6007419
1.7337918 -0.33990163 3.6877975
2.0445244 0.24395062 4.337522
1.3935081 -0.41721937 3.7211878
2.0461967 0.25723752 4.3688755
1.7004205 -0.45456424 3.8044705
2.0307889 -0.69854259 3.7055948
2.1112406 0.0024074554 4.7173147
2.1588292 -0.017472502 4.4495296
1.3523302 -0.40995938 3.7043779
1.2819985 -0.32598782 3.5348532
1.2589734 -0.34745282 3.6833982
1.2912378 -0.33074096 3.5224402
1.1714469 -0.48795658 3.6170154
1.8812356 -0.39078927 3.7649391
1.4052417 -0.40833613 3.6764915
1.1965011 -0.49185988 3.6345854
1.3900139 -0.5189867 3.6598814
2.0287187 -0.43989319 3.832772
1.9075963 -0.67042905 4.6220183
2.0520303 -0.67063618 4.6450305
1.9079807 -0.1200623 3.3165553
1.9348515 -0.71864009 4.7893538
1.7523763 -0.7567414 4.9319315
1.6463181 -0.88484722 4.9689903
1.9199066 -0.16644108 4.9643402
2.0238326 -0.43593913 3.7556438
1.8997592 -0.3822678 3.7319098
1.6124752 -0.70998597 3.7284226
1.9941175 -0.48785561 3.7301924
1.9529942 -0.41404185 3.7279925
2.1283472 -0.3764334 4.1984925
1.3292078 -0.38228777 3.5631118
1.9094279 -0.00037414778 3.2030449
1.2636027 -0.38095236 3.6129041
1.6468798 -0.38688448 3.7937922
1.4304963 -0.24845165 3.417563
2.1332979 -0.40810823 4.1997066
1.6035845 -0.52744359 3.7384996
2.0908875 -0.28788599 4.2067885
2.020925 0.15738006 4.4921064
1.4137193 -0.52813047 3.643019
1.2691361 -0.39415187 3.6251116
1.5637523 -0.35477006 3.8065429
1.630955 -0.34741989 3.8463914
1.1425053 -0.34546891 3.7120595
1.2726353 0.52486438 3.773731
1.2573768 -0.5519709 3.675046
2.0450637 0.24768972 4.3396549
2.014389 0.24548909 4.4499969
2.0239429 0.23617435 4.4332337
2.0780234 0.20500362 4.3374195
2.0449495 0.22714311 4.4027147
1.9026179 -0.75998116 4.5705762
1.5665007 -0.41858527 3.7621009
1.7078695 -0.34674469 3.805068
1.3843306 -0.45583153 3.6742036
2.1220315 -0.011652177 4.517241
1.8701071 -0.26368949 3.7536004
2.0419633 -0.67579693 3.7577724
1.7395574 -0.58055818 3.7699242
1.8914262 -0.4933829 3.6578391
2.1171207 -0.27644917 3.9031579
1.940208 -0.68001038 3.6929944
1.2176347 -0.3064971 3.6340051
2.0146854 -0.43250659 3.7608447
1.9171821 -0.52556753 3.7349844
2.1763554 -0.17572182 3.6979246
2.0023766 -0.018005457 3.3369656
2.1037574 -0.34239203 3.9180336
1.7233951 0.43224412 3.7802773
2.050432 -0.31187475 3.8371015
2.1252568 -0.43273798 3.966243
1.5671812 -0.38280612 3.7701373
1.5490774 -0.13257454 3.3037467
1.2528986 -2.0265136 8.8572474
1.5544667 -1.8751174 8.5994835
2.0674045 -0.31226426 3.8992019
1.5913558 -1.8666947 8.6968632
2.0356278 -0.16851704 4.6973395
2.1727405 -0.48153058 3.9830968
2.0887687 -0.34982666 3.9563591
2.0260007 0.26077712 4.398344
2.1393232 -0.43593538 3.9557445
2.136004 -0.32956249 4.0103016
1.5131922 -0.16740654 3.4219372
1.304631 -0.44873533 3.5130434
2.0417759 -0.68827707 3.6819396
1.9563563 -0.59930116 3.6942751
-0.20587823 -2.3273764 8.8120098
2.042403 -0.24055274 3.8115585
2.1303153 0.061364129 4.6878848
-0.016668452 -2.3341742 8.9056559
1.9070758 -0.66053748 3.6528416
-0.080677003 -2.2614317 8.596674
-0.031301294 -2.2401474 8.5175209
1.8381299 -0.15683597 4.9786549
2.1699452 0.018705551 4.6024718
1.9250436 -0.59692436 3.6941423
1.7988617 -1.9220505 8.8485451
1.0052681 -2.3722727 9.9902973
2.1264253 -0.67189896 3.642298
1.26766 -0.4688414 3.5537081
2.1064219 0.30682731 4.1128469
2.1334195 -0.33723769 3.9488306
1.2530689 -2.1042998 8.847311
1.1167495 -1.5911702 7.8992372
1.833995 -0.43372676 3.799334
2.1992636 -0.14420967 4.5020456
1.6977946 -1.8014067 8.5238857
2.1454427 -0.10455417 3.5771277
