# .PCD v0.7 - Point Cloud Data file format
VERSION 0.7
FIELDS x y z
SIZE 4 4 4
TYPE F F F
COUNT 1 1 1
WIDTH 440
HEIGHT 1
VIEWPOINT 0 0 0 1 0 0 0
POINTS 440
DATA ascii
2.220186 -0.30868173 3.66699
2.0577402 -0.4267444 3.7007544
1.83591 -0.26875627 3.7891197
1.8845465 -0.23849486 3.7907732
1.6116259 -0.27095604 3.7702372
2.2952816 -0.43568242 3.6984496
2.1456201 -0.28609875 3.6709228
1.8735256 -0.40819407 3.7419236
2.0593536 -0.16293132 3.7012112
2.0960479 -0.18157901 3.7165043
1.9491223 -0.25674766 3.7956729
1.7816421 -0.28473029 3.7856414
2.1795101 -0.39812902 3.6431489
1.8360864 -0.29905728 3.7877331
2.1343374 -0.44752038 3.6354771
2.0432229 -0.25786179 3.7311516
1.9370354 -0.21768863 3.8172288
2.2420309 -0.24060421 3.6815219
2.1258206 -0.13517289 3.6751795
2.1382604 0.019672688 3.4401729
1.9667515 -0.29000178 3.7757189
2.4232728 -0.28859502 3.8411534
2.3216708 -0.33589697 3.776057
2.2215931 -0.17288898 3.7094746
2.3243399 -0.27946624 3.7575002
2.419786 -0.28130352 3.8500903
2.1675045 -0.048055653 3.4037161
2.3277979 0.02026747 3.5365148
2.4753873 0.21395154 3.3042881
2.2995009 -0.29649156 3.709146
2.4274266 -0.24045551 3.9291868
2.355005 -0.098689444 3.8131144
2.2221806 -0.31613761 3.757406
2.4874592 0.25266126 4.4294415
2.2788785 0.04500483 3.4928586
1.8551825 0.62533683 3.7183948
2.2147379 -0.25394729 3.6736155
2.3075483 -0.13652663 3.8249583
2.2470365 -0.49088117 3.5954051
2.2251506 -0.29207534 3.7196691
2.1952035 0.045586292 3.4420609
2.269691 -0.49612412 3.6239252
2.3300924 -0.28211105 3.8021955
2.1836872 -0.49114317 3.5968902
2.3659198 -0.17681521 3.879812
2.3296204 -0.30726784 3.7854514
2.2873151 -0.46204889 3.6744757
1.7849503 -0.23692814 3.8138003
2.2054753 -0.24698897 3.6679308
2.1031067 -0.53842407 3.6711497
2.1004643 -0.35132843 3.7506816
2.3447344 -0.16567342 3.8806663
2.125335 -0.32288399 3.6939187
2.2750928 -0.25803244 3.6969967
2.320987 0.02223287 3.5374477
2.0353599 -0.073682234 3.5330806
2.4359314 -0.38731477 3.8037984
2.2361064 -0.28469157 3.6724093
1.8414035 0.63646841 3.7318709
2.1584537 -0.54090977 3.6677098
2.2720566 0.089632981 3.4096048
2.4720001 -0.41958585 3.8201044
2.2745399 -0.49428242 3.6208296
2.2180181 0.022205325 3.460546
2.0349431 -0.50602204 3.6948881
1.9494035 0.015901929 3.3620858
2.1141605 -0.2915577 3.6789701
1.971918 0.01021197 3.413707
2.2606332 -0.30514848 3.70367
2.105288 -0.34179351 3.6789744
1.8358741 -0.26803383 3.7932136
1.6113074 -0.28251809 3.8197808
2.2238297 -0.52798861 3.6214216
2.1518109 0.026677329 3.4178257
2.0795112 -0.35809037 3.7171538
2.5070488 0.17037521 4.5456562
2.4729557 -0.45068398 3.798722
2.2084963 -0.12732579 3.7107604
2.2981021 -0.28414097 3.8781643
2.1867409 -0.33213016 3.7880821
2.4398594 -0.027112033 3.6982887
2.2158978 -0.3265554 3.6635675
2.5129244 0.1173011 4.5531039
1.8269827 -0.36685488 3.7488329
1.9709044 0.010658062 3.4153764
1.8344976 -0.23076405 3.8289797
2.0930922 -0.17855734 3.7159331
2.4420424 0.19577989 4.3655334
1.8580351 0.60790175 3.7369134
2.2261345 -0.25006577 3.7188959
2.3259408 0.023480274 3.5470769
1.6066924 -0.28525904 3.821017
1.9488046 0.013393098 3.3273141
2.4432197 0.19232391 4.3670864
2.3294926 0.022238443 3.544987
2.4352067 -0.38393867 3.8071797
2.0995555 -0.2522912 3.7287421
2.0941601 -0.34776798 3.692102
2.1453068 -0.28863138 3.6838267
2.1888635 -0.0062159281 3.5967929
1.9539894 0.31160384 3.290174
1.9792947 0.098507538 3.2418301
1.9505644 0.010607498 3.3236434
2.2784901 0.043856017 3.4944782
2.2279167 -0.04440571 3.4331243
2.2732446 0.012388866 3.4947317
1.9985057 0.099919766 3.1204109
2.2781401 0.044426017 3.5027938
2.0069439 0.10851607 3.1224737
1.9593171 -0.25628036 3.8011093
2.0500274 -0.32947731 3.7013142
2.0232999 -0.078898907 3.5272017
2.0503163 -0.3307077 3.7051415
2.0982935 -0.26644576 3.6921408
2.4021599 -0.0013435435 3.6575527
2.0808156 -0.12553693 3.7016857
2.0443175 -0.24737801 3.7653685
2.3180728 -0.54279417 3.6679728
2.3743827 -0.23398295 3.9154503
2.0001404 -0.45421761 3.7604628
2.3167083 -0.2963365 3.757791
2.0555847 -0.1369293 3.7048047
2.1049607 -0.29473913 3.7762773
2.1088521 -0.35837975 3.6776493
2.0428274 -0.16003183 3.7211072
2.0122581 -0.26979822 3.7779496
1.8352481 -0.4083769 3.7576253
2.3895662 0.086278722 3.4685941
1.6128427 -0.28085765 3.7759533
2.2788203 -0.45379281 3.7078366
1.8414297 -0.23888682 3.8069518
2.2639825 -0.28288645 3.6843343
1.6263262 -0.30680487 3.7567887
2.3364713 -0.52443784 3.626678
2.4012585 -0.13973503 3.9139206
2.3618364 0.17343713 3.2858648
2.1542337 -0.11158428 3.7179089
2.2006924 -0.52612102 3.5905933
2.2082462 -0.52654439 3.5938869
1.8554919 -0.36417159 3.7484555
2.1983483 -0.46584627 3.6085484
2.0144422 0.094449826 3.0993655
1.8418412 -0.3011297 3.7771306
2.3930442 0.087205693 3.465544
1.9736617 0.087859929 3.2298615
2.177242 -0.50068134 3.5943468
1.6135582 -0.30711904 3.8312442
1.9958293 0.10717133 3.2589335
2.3856156 0.048352532 3.5007198
2.2469316 -0.51705229 3.5958395
2.4342952 -0.017808048 3.7377682
1.935809 0.30763194 3.2505558
2.173377 -0.10537614 3.6681857
2.1044638 -0.29678109 3.67906
2.2544847 -0.24293271 3.6828542
2.2620299 -0.14559036 3.8197167
2.0052512 -0.064082049 3.4618464
2.337805 -0.3086068 3.7623703
2.1964324 0.054160636 3.4401617
2.1116397 -0.35402951 3.6365685
2.323895 -0.27641326 3.751899
2.3481567 -0.18329649 3.8540006
2.3117609 -0.13038188 3.8465393
2.2978194 -0.32240683 3.7274351
2.4268031 -0.3634209 3.8122258
2.2803137 -0.26277065 3.7069855
2.4704657 -0.4567422 3.8232276
2.1389191 -0.15883991 3.735755
2.1775494 -0.023803655 3.429677
2.1695032 -0.28794459 3.6728647
2.1970944 -0.53255737 3.6116922
2.1386468 -0.19901715 3.7030857
2.3234253 0.025884282 3.5282767
2.2475662 -0.50579292 3.6013982
2.2075591 -0.020044783 3.3783827
1.9670253 0.30200902 3.2344382
2.4501529 -0.023301249 3.6905205
2.1742239 -0.28862935 3.6670408
2.3835545 0.050002597 3.5356467
2.275244 0.048090328 3.5390141
2.1420856 -0.42595786 3.6492031
2.1843405 -0.36428058 3.6508999
2.3189974 -0.53986269 3.6581564
2.2497084 -0.28801915 3.8375149
2.3663211 0.042234521 3.5289347
1.8584685 0.007203354 3.2858317
2.2160492 -0.25243962 3.728153
2.3077261 -0.33061129 3.7582681
1.9141576 -0.26179373 3.794333
1.9142063 -0.25748247 3.79334
1.9484493 -0.29298007 3.7749114
1.9928693 0.026411762 3.3655725
2.009629 -0.31090009 3.7603993
2.2129631 -0.32938278 3.6915936
2.3270013 -0.32826427 3.7804651
2.0318389 -0.076915078 3.5372753
1.9795618 0.07852836 3.2443652
2.3159785 -0.27048492 3.7357275
2.3561003 0.1756458 3.2930541
2.1116652 -0.41966772 3.6655552
2.1200502 -0.41932815 3.6528471
2.2828424 -0.056255508 3.6477051
2.1541135 -0.2154118 3.6886001
2.2574251 0.011869053 3.472086
1.845953 0.20160289 3.4307775
2.0476274 -0.13693719 3.7169576
2.0281167 -0.090485767 3.5083675
2.2116694 0.029288948 3.4628222
2.028801 -0.092908762 3.5059946
2.2184961 -0.26703939 3.6753845
2.3879304 -0.26161858 3.8827748
2.0522003 -0.036615044 3.5047147
2.0269198 -0.058283489 3.5216303
2.2442317 -0.51299894 3.6662729
1.8572695 -0.36252591 3.745425
2.2963645 -0.43591228 3.6939027
2.0377831 -0.51832843 3.6713259
2.2454095 -0.52693069 3.621258
1.8731031 -0.60415906 3.7651229
2.1044757 -0.23139749 3.6919317
2.4628425 -0.38069201 3.8271482
2.3759103 -0.14466897 3.9166028
2.445116 -0.23572336 3.9033165
1.8321745 -0.41282073 3.742651
2.0190973 -0.27396968 3.7756255
1.9525012 -0.24118896 3.8007214
2.2830043 -0.47561002 3.6499012
1.9278014 -0.29975852 3.8120627
1.860884 -0.42733544 3.7691028
2.3354137 -0.52101839 3.6539724
1.9157252 -0.23574111 3.8280106
1.6447202 -0.37687802 3.7374995
1.6365823 -0.38036299 3.744339
1.6372166 -0.39596817 3.7419605
1.911352 -0.22387914 3.8164814
2.3040257 0.020758923 3.4951916
2.1246657 -0.075627774 3.650419
2.0448143 -0.027826978 3.4792907
2.0715103 -0.15548728 3.711236
2.1550453 -0.46428627 3.6249852
2.0137205 -0.061129346 3.5372658
2.1290724 -0.076170094 3.6563494
2.0884683 -0.31870592 3.6882944
2.0913033 -0.34589803 3.6807325
2.0747776 -0.1543688 3.7037737
2.1854107 -0.40607321 3.639406
2.1512334 -0.44092494 3.6225989
2.1714327 -0.39448625 3.6535776
2.292417 -0.45838207 3.6625397
2.2504323 -0.47158188 3.6983597
1.9512304 -0.087179184 3.4971929
1.9531984 -0.081854559 3.4952109
1.9202932 0.32933027 3.3995259
2.1810133 -0.27980229 3.6762755
2.1072414 0.11951624 3.2716103
2.1965797 -0.52825034 3.5964804
2.1429877 -0.47248727 3.6316907
2.2435381 0.012178515 3.5391481
2.3276062 -0.32550776 3.7762165
2.1149023 -0.31848368 3.6924255
2.1097097 -0.3485854 3.6335666
2.1292427 -0.27195248 3.6908467
2.0975018 -0.29726541 3.6825802
2.1396227 -0.22605895 3.6908355
2.0330338 -0.46071464 3.720048
2.0773902 -0.13839656 3.6823468
2.2528982 -0.10254852 3.4862607
2.0058155 -0.10434187 3.5284739
2.0478263 -0.29255873 3.7217841
2.2306902 -0.31616384 3.6839609
2.0854697 -0.11513331 3.7054846
2.0777137 -0.15842569 3.6952829
2.0307374 -0.25413999 3.7793672
2.0424232 -0.28771934 3.72523
2.2821352 -0.52568495 3.6123648
2.4152217 -0.25311664 3.860579
2.3409009 -0.20045561 3.8070393
2.0567112 -0.23202129 3.7498291
2.5058465 -0.43852541 3.9207926
1.859221 -0.41191494 3.7439883
2.4724293 -0.42199084 3.8138175
1.8576633 -0.36009994 3.7498784
1.8641372 -0.40312725 3.7634892
1.8655355 -0.35518855 3.7638481
1.8469435 -0.41841123 3.7387571
2.4330709 -0.3799901 3.8145089
2.4265766 -0.36625433 3.8196018
1.9853659 0.038380388 3.3461032
2.0605559 -0.20063852 3.722451
2.215075 -0.32672468 3.6830802
2.1386316 -0.27781582 3.6653094
1.9684325 -0.27703363 3.7184725
2.0744855 -0.33917826 3.7454772
2.2042291 -0.061467294 3.4460888
2.1744041 -0.26485583 3.6594484
2.0985804 -0.35364392 3.6580167
1.6368051 -0.33259392 3.7661295
2.020545 0.10498934 3.1085727
2.2926228 -0.53471428 3.6454511
2.2661819 -0.44390255 3.6677716
2.3322132 -0.27432886 3.7865736
2.4586463 0.1942123 4.3345027
2.0551515 0.00011256733 3.4722335
2.1543016 -0.25260764 3.6957569
2.1804454 -0.44052237 3.6445923
1.9693172 0.30560055 3.2591205
2.2792878 -0.27204496 3.76337
2.0308537 0.0037549408 3.2678256
2.3890853 -0.51059365 4.7290812
2.2606597 -0.27268511 3.6882644
2.1412325 -0.32008734 3.6751852
2.298161 -0.31994712 3.7220664
2.1085103 -0.41997522 3.6740596
2.1805503 -0.058945406 3.446368
2.1675751 -0.061041277 3.3920088
2.1479652 -0.20868711 3.6801167
2.3244519 -0.28881991 3.7444026
2.0351872 -0.018837815 3.5183589
2.0059912 -0.080666557 3.6130707
1.8895853 -0.59578109 3.7427657
2.2339284 -0.32907069 3.6700385
2.1838834 -0.2610203 3.6730499
2.1856847 -0.52292007 3.5977247
2.1517498 -0.50952214 3.6082473
2.1383281 -0.47378442 3.6308098
2.1663656 -0.44789812 3.6215315
2.1905353 -0.51439452 3.5943325
1.6453042 -0.37869453 3.7168291
2.4408095 -0.20895031 4.1047173
1.8591305 -0.41540188 3.7489412
1.6398171 -0.3910374 3.7106144
1.9789593 -0.054924291 3.4422994
2.0036387 -0.063707009 3.4637451
1.9664546 0.081685029 3.2735837
2.3088312 0.35294253 4.3958535
2.3059218 -0.32190704 3.7253847
2.1954939 -0.27050474 3.6755781
2.274049 -0.25745967 3.6951475
1.8813348 -0.22807866 3.8449376
1.6376871 -0.30720711 3.7432437
1.9729855 0.078710251 3.2630069
2.2838104 0.43731949 4.3530331
2.2914383 0.42838702 4.3351145
2.3078322 0.4204219 4.3016176
2.0066121 -0.056506816 3.4615128
1.9637573 -0.26528624 3.8073509
1.8129798 -0.31079608 3.7755892
2.4871993 -0.36169267 3.9356456
2.399646 -0.18086644 3.890604
1.9988447 -0.46442172 3.7507477
1.9491997 -0.22017539 3.79057
1.8144463 -0.41127357 3.7566772
2.0085726 -0.34226772 3.7754207
1.9306694 -0.31756219 3.8356369
1.6246873 -0.37439984 3.7226777
1.8477594 0.56554687 3.7670662
3.0651028 0.59097087 4.3854122
3.0657165 0.59154952 4.3937612
2.4336832 0.19898534 4.4074879
2.2138059 0.031805355 3.4512837
2.5503528 0.15152258 4.3835554
2.2763743 -0.48737776 3.6398547
2.2050855 -0.24625221 3.6742492
2.2831995 -0.47481656 3.6500452
2.0965526 -0.29470846 3.709826
2.1207478 -0.11942513 3.6845646
2.0409207 -0.06666097 3.5185676
2.256644 0.1805986 3.2714703
2.279902 0.0049992739 3.5135672
2.039259 -0.45567051 3.7037375
2.0649533 -0.01612144 3.4711125
2.3096333 -0.50812584 3.6941178
2.0190067 -0.099166162 3.5144875
2.4061387 -0.24197547 3.9535248
2.0640233 -0.22608241 3.7344232
2.1218464 -0.35076386 3.6173306
2.0519657 -0.40531623 3.712182
2.3567317 -0.095658407 3.8120863
2.4858305 -0.39451629 3.9699855
2.0286908 -0.27280089 3.7571094
1.9654099 -0.27146003 3.7937603
1.975405 -0.28121591 3.7769504
2.370136 -0.15658155 3.9067252
1.8399651 -0.30058777 3.7783487
1.6489336 -0.38341665 3.7260675
1.9130994 -0.22196603 3.8182652
1.9361322 -0.2240414 3.904346
1.6278516 -0.29980278 3.7516243
2.0584793 -0.024257135 3.4841044
1.6161447 -0.28257576 3.7860875
1.8262347 -0.39922035 3.7312779
2.0239081 -0.43681785 3.7251201
1.9601198 0.30795559 3.2679522
2.2176657 -0.24943337 3.6737564
2.2521856 -0.27012825 3.6949096
2.0306871 -0.0043644956 3.4994333
2.1387842 -0.21108368 3.6990716
2.3660774 0.00084275281 3.5967362
2.1756635 -0.36331719 3.6689594
2.1401448 -0.34908289 3.6822357
2.2793121 -0.31213975 3.7026858
2.2368276 -0.24219473 3.6754189
2.3547528 -0.16188473 3.8310204
2.2772801 -0.14267476 3.7713182
2.3647225 0.04143402 3.5535343
2.3173332 -0.33070028 3.7533746
2.459182 -0.42869562 3.8051536
2.3957283 -0.24634479 3.8772399
2.2618761 -0.28274825 3.6842926
2.3009727 -0.31882539 3.7200789
2.1614478 -0.050645508 3.3975296
2.181386 0.055595394 3.4326341
1.9409192 -0.25943935 3.794235
1.8104256 -0.27483451 3.7823298
1.6154027 -0.27215654 3.764081
2.5232077 0.086589858 4.4233804
2.3169003 -0.12872633 3.7999356
2.5956638 -1.6808563 8.8897495
2.5270567 0.18185893 4.3363252
1.8474656 -0.41598174 3.733176
2.3121157 -0.13741221 3.8180966
2.4481978 -0.42443934 3.7921755
2.2842402 0.451231 4.2997146
2.432662 -0.14205796 3.9207594
2.4005547 -0.14050066 3.9156528
1.8162508 -0.30850074 3.7752712
2.2979348 -0.52441794 3.6199279
2.4618962 0.28114244 4.5717244
2.1577976 -0.51480663 3.6144984
2.3855383 0.077885866 3.4872341
2.4913073 0.23928851 4.4818969
2.4401436 -0.02241132 3.7163548
2.4105542 -0.25378144 3.8625979
2.388382 -0.15158322 3.8558764
2.2408452 -1.3151433 7.9590502
2.099623 -0.21380952 3.7198482
2.0825686 -0.29134408 3.7649944
2.5235445 0.076205157 4.3826451
2.9433908 -1.4207282 8.4760408
2.3058195 0.061415583 3.4813576
