# .PCD v0.7 - Point Cloud Data file format
VERSION 0.7
FIELDS x y z
SIZE 4 4 4
TYPE F F F
COUNT 1 1 1
WIDTH 268
HEIGHT 1
VIEWPOINT 0 0 0 1 0 0 0
POINTS 268
DATA ascii
1.3890202 -0.61328667 3.7651541
1.0161796 -0.46569866 3.7069705
1.064088 -0.45082906 3.7346776
1.0712376 -0.47618702 3.7349346
1.0355842 -0.60934728 3.6614308
1.2605203 -0.40364197 3.7571294
0.82595688 -0.40594074 3.5884426
0.83139789 -0.45585176 3.5766654
0.7271893 -0.57698727 3.4934378
1.5424982 -0.36027056 3.5486572
1.3484269 -0.42003763 3.7559788
1.508141 -0.2719779 3.5772898
1.1279508 -0.5236879 3.7505009
1.4039567 -0.48434663 3.823446
1.4418037 -0.6167838 3.8959033
1.4785181 -0.64751381 4.0199757
1.4392596 -0.62564594 3.83813
1.6233292 -0.32765517 3.7471082
1.3925129 -0.58645338 3.8445387
1.9057755 -0.18156056 3.6370819
1.5613166 -0.25198087 3.5983536
1.5517402 -0.28344202 3.5406461
1.4393241 -0.6251834 3.8396161
1.6063232 -0.2746692 4.0004139
1.0258334 -0.22288081 3.2779877
1.4865015 -0.45344511 3.9855478
1.4653869 -0.54769707 4.0306792
1.3462672 -0.6223278 3.8446844
1.6086375 -0.2891852 3.6904063
1.2577267 0.31006783 3.7860563
1.2880652 0.38552642 3.7861536
1.3948947 -0.55941999 3.7767
1.2578735 0.3090615 3.7832615
1.6234907 -0.28317279 3.6829841
1.3915946 -0.74609691 3.756089
1.2886132 -0.17440328 4.7795043
1.3093395 -0.024692006 4.5293102
1.2535548 0.31048378 3.7911081
0.36179885 -0.15658435 2.8959241
0.81860477 -0.30140069 3.3491087
1.2686744 -0.029903676 4.8189292
1.5509956 -0.34957716 3.6175973
1.2472519 -0.02778933 4.8281803
1.3726557 -0.79378778 3.8291492
1.4218222 -0.61096698 3.9392223
1.4689605 -0.55050641 4.0710621
1.4045084 -0.5987727 3.7795947
1.5618887 -0.26367623 3.6082718
1.4229275 -0.52409351 3.8016293
1.3457894 -0.77633744 3.6598742
1.4041854 -0.77960861 3.7789707
1.352704 -0.76248473 3.8916948
1.4272681 -0.21672978 3.4390635
1.5129213 0.05805688 3.3634331
1.4536402 -0.42966524 3.9255264
1.3315578 -0.21205546 3.4187422
1.4219487 -0.21472462 3.4396925
1.4491236 -0.5548014 3.9537454
1.445372 -0.61377615 3.8905261
1.900268 -0.19823132 3.6285949
0.73069978 -0.44440919 3.4524834
1.4803928 -0.15812594 3.3534422
1.5200422 -0.81753755 3.9494548
0.78557676 -0.45821813 3.4055738
1.4293391 -0.51557827 4.0305758
1.4455198 -0.55591685 4.2235036
1.3703176 -0.19494905 4.5658689
1.0354059 -0.55413198 3.6802819
0.81442785 -0.35154438 3.3982456
0.84565318 -0.4305332 3.6302133
0.8234188 -0.45301771 3.5559766
0.84690958 -0.47105291 3.58687
1.2787038 -0.8177107 3.7036533
0.68932194 -0.45709026 3.5040925
1.4260014 -0.48834527 4.0013947
1.4327139 -0.59681267 4.0591626
1.3607445 -0.55767202 3.8123088
1.5666791 -0.29292628 3.6313009
1.3841412 -0.21980554 3.4234042
1.4068551 -0.6221447 3.8161182
1.277898 -0.61191595 3.7194214
1.0971404 -0.17930792 3.1754405
1.3617673 -0.56164056 3.7623904
1.3225523 -0.4532997 3.799628
0.99102879 -0.43060455 3.704114
1.4379532 -0.58387363 3.8233151
0.7897712 -0.16445707 3.0789804
0.6181066 -0.5768376 3.4162104
1.2340466 -0.62061775 3.7391455
1.665614 -0.27270591 3.9767585
1.3370318 -0.25065887 4.7396479
1.4008359 -0.74656022 3.7521775
1.6418192 -0.33198714 3.7607415
0.49776828 -0.75031418 3.1852591
1.358639 0.1105226 3.2593994
1.3469932 -0.69433868 3.7114823
1.2720522 -0.28408629 3.2837296
1.3825598 -0.6291033 3.7575603
1.3053738 -0.40173239 3.7424247
1.4637815 -0.25799081 3.3461432
1.325303 -0.30326667 4.7409525
1.0032136 -0.55641741 3.6528587
1.3759345 -0.23182724 3.4792414
1.3101434 -0.65604627 3.7363291
1.0056539 -0.42951202 3.7471445
1.3731688 -0.2048922 4.5554876
1.4282434 -0.54916894 3.9999847
1.3002875 -0.13275151 4.7754893
1.5231682 -0.23469026 3.5484998
1.3608381 -0.29392469 4.7211394
1.073468 -0.23404607 3.2199197
1.6175812 -0.32419798 3.7560713
0.80304986 -0.41565171 3.6301496
1.3725746 -0.20856342 4.5568705
1.1980486 -0.23216261 3.1872213
1.3221452 -0.77335876 3.8475142
1.4862677 -0.74957973 3.9737635
1.4234233 -0.46399093 3.8080373
1.3623657 -0.55845523 3.7634115
1.30349 -0.35582867 3.7502317
1.3712215 -0.58166277 3.8120937
1.2592338 -0.56822336 3.7396691
1.0761358 -0.27926829 3.3443735
1.2291689 -0.49963015 3.7786007
1.1180819 -0.48963436 3.774585
1.1225742 -0.69029868 3.7275581
1.0897934 -0.29253593 3.3384469
1.4953313 0.13422681 4.2219858
1.4234352 0.21137561 4.2836285
1.541687 0.19912226 4.1868906
1.2779416 -0.41246268 3.7129023
1.1704379 -0.51754797 3.7758217
1.2901738 -0.55477917 3.7609155
1.3067836 -0.43492639 3.7651343
1.3530122 -0.37007704 3.7359672
1.6291193 -0.35081306 3.7589645
1.5147785 0.18258792 4.2238026
1.3955746 -0.23911487 3.3514192
0.99574602 -0.59867954 3.6581359
1.5504191 -0.26461247 3.6240644
1.3198974 -0.77129877 3.8616688
1.034825 -0.55317026 3.6819289
1.7240096 -0.28134543 3.7246387
0.83057529 -0.41255641 3.5938079
1.3275604 -0.68965721 4.3067441
1.3275852 -0.4451327 3.7554226
1.6697105 -0.29269141 3.6695285
1.0349433 -0.47539535 3.7416773
0.9951812 -0.49787116 3.6792645
1.208715 -0.5580318 3.7290351
1.3833343 -0.76973891 3.8058238
1.4873184 0.070028625 3.3552611
0.95996696 -0.21519198 3.2063084
1.4371493 -0.82573539 3.755275
1.0011829 -0.59484166 3.6419115
0.80596489 -0.39511481 3.5845971
1.4527942 -0.85284132 3.7495177
1.2415417 -0.51583052 3.7695491
1.3996729 -0.77671176 3.8094575
1.3322667 -0.41384566 3.7546136
1.1755272 -0.18106897 3.2799592
1.2904283 -0.47986948 3.7851756
1.4679638 -0.5075922 4.0890393
1.3853518 -0.43627217 3.8378429
1.4885615 -0.75400448 3.9694948
1.5060362 0.27850759 4.0895743
1.3566678 -0.29660985 3.5210962
1.3591897 -0.81728154 3.6629434
1.2564034 -0.80256635 3.6859913
1.0632507 -0.25440636 3.348129
1.3955482 -0.58055919 3.8636258
1.3838791 -0.59276408 3.7953453
1.0281876 -0.56209105 3.6656737
1.2437829 -0.56473482 3.8119521
1.5824605 -0.15958193 3.2324479
1.2648878 -0.5390327 3.8014488
1.3246102 -0.57431346 3.7563794
1.0187992 -0.49822399 3.6942346
1.4029592 -0.59408587 3.7596309
1.4307965 -0.82844198 3.7572556
1.3768172 -0.22796845 3.4722738
1.4897904 -0.78718781 3.9631829
1.49471 -0.14436474 3.3667552
1.434217 -0.21396735 3.4321265
1.3933718 -0.8194164 3.6833763
1.4976888 0.064988211 3.3623333
1.4404148 -0.53304422 4.0059667
1.4262788 -0.47175959 3.9909782
1.4818788 -0.7275846 3.9775069
1.4748486 -0.70256174 4.0090013
1.1766044 -0.765598 3.6541595
1.4324851 -0.58732575 3.8341444
0.77154297 -0.40176606 3.5571215
1.1425095 -0.72961652 4.4693861
1.4850198 -0.60534352 4.0540366
1.5035993 -0.61570686 4.0735183
1.5860248 -0.32913277 3.5478737
0.80832112 -0.40170795 3.4431539
0.83186382 -0.50843287 3.5485919
1.3630099 -0.72812372 3.7240012
1.3066026 0.049545582 4.5144968
0.80971712 -0.40355185 3.5812545
1.6783206 -0.31531197 3.775697
1.4414514 -0.69380146 3.870683
0.72421795 -0.44512171 3.454392
0.85823703 -0.35361537 3.3627162
0.8064037 -0.35149175 3.3730724
1.3524393 -0.65589583 3.7266662
1.4701924 -0.61285275 4.0653248
1.4212343 -0.44509554 4.3200192
1.082327 -0.57825255 3.6981699
1.0816815 -0.4817476 3.7475944
1.0832621 -0.47762066 3.7473812
1.1121004 -0.52123201 3.7411616
1.1928782 -0.68490118 3.7063661
1.1662618 -0.5558694 3.7530553
1.3661722 -0.63137203 3.7805464
1.2842766 -0.29065579 4.4572902
1.4806832 -0.1668597 3.3423724
1.2834245 -0.69001335 3.6914496
1.3103917 -0.013147358 3.465342
1.2617276 -0.406654 3.7571237
1.44402 -0.50502098 4.0793362
1.0079547 -0.61516261 3.6678715
1.2896343 -0.27213046 3.5252085
1.3747159 -0.36422855 3.7495978
1.2741456 -0.61642081 3.7027755
1.2869854 -0.42406422 3.7555194
1.359349 -0.77841371 3.7821257
1.1895916 -0.79371059 4.445075
1.4357299 -0.60906118 3.7940485
1.2098795 -0.45980918 3.7893178
1.2552509 -0.4704535 3.7483535
1.5410182 -0.36881042 3.5999424
1.065798 -0.48110634 3.7367814
1.2791464 -0.62101007 3.6961751
1.3615347 0.079883918 4.4425673
1.3939676 -0.75602812 3.7663054
1.4360503 -0.61457127 3.9258308
1.4014481 -0.21074019 4.5353103
0.81009817 -0.45471501 3.560365
1.3204331 -0.6897881 3.7236736
0.9976899 -0.32652584 4.9450402
1.4457425 -0.6255765 3.8830106
1.200008 -0.61175019 3.7363491
1.0183034 -0.61218482 3.6601117
1.2177348 0.11914621 4.5894403
1.294603 0.044108838 4.529151
0.99269474 -0.49910399 3.6785319
1.3299788 -0.47656024 3.7778995
0.82816947 -0.41530493 3.6039677
1.415663 -0.55458814 3.789916
1.4412034 -0.47406545 3.9008262
1.4226027 -0.60077977 3.8029139
1.4942622 -0.79188198 3.9603169
1.3341137 0.08622472 4.4648538
1.4907442 -0.51900071 4.1087685
1.466362 -0.50814682 4.0901384
1.0839249 -0.23741458 3.3547425
0.65719146 -0.16950171 2.9648266
1.3140725 -0.1319609 4.7589192
-2.3496773 -2.2087331 7.9840846
1.309701 -0.79175532 3.6603088
1.4964 -0.36571422 3.6388164
1.495005 -0.66454738 4.0610895
1.7097343 -0.28848702 3.7380302
1.4716549 -0.61868471 4.0309715
1.2856661 -0.48838022 3.7719688
