# .PCD v0.7 - Point Cloud Data file format
VERSION 0.7
FIELDS x y z
SIZE 4 4 4
TYPE F F F
COUNT 1 1 1
WIDTH 540
HEIGHT 1
VIEWPOINT 0 0 0 1 0 0 0
POINTS 540
DATA ascii
1.8574492 -0.52308553 3.7345924
1.4656458 -0.42238539 3.7575557
1.7437532 -0.4367027 3.7532837
1.9008423 -0.66204327 3.7741659
1.4921951 -0.56449252 3.7108006
1.5735472 -0.43010557 3.793637
1.2484684 -0.38996848 3.6828048
1.2573061 -0.43933445 3.6707919
1.9746143 -0.75590068 4.117744
1.6200176 -0.69641054 3.6885674
1.6799802 -0.44504547 3.7553227
1.153217 -0.57500523 3.6140559
1.5624338 -0.3903206 3.8143737
1.9284071 -0.26272982 3.4863517
1.1391603 -0.37984782 3.4685466
1.8904989 -0.17797293 3.5206311
1.590417 -0.46517515 3.7763073
1.9892935 0.27559003 4.0742774
1.7124002 -0.75333613 4.8188009
2.2270241 -0.048916101 3.4657326
1.9250737 -0.17133793 3.5579817
1.8687203 -0.39106545 3.7864602
1.9174129 -0.24840571 3.4876716
2.0065205 -0.43881935 4.1131964
2.0455647 -0.21304202 3.6618097
2.0564265 -0.20296584 3.649575
2.2775326 -0.039525963 3.4906125
1.9237127 -0.52606499 3.7963731
1.7172 -0.75317264 4.809835
1.9798993 -0.34432608 3.9261029
1.9159747 -0.4928911 3.7885191
1.9807278 -0.43852428 3.9760242
1.8343124 -0.5338735 3.8216724
1.7791471 -0.28883973 3.733098
1.3738852 -1.0031223 4.9505286
1.6419185 0.45719671 3.7638113
1.8590387 -0.46848458 3.7438471
1.9257071 -0.37389356 3.9224916
1.8742436 -0.65494579 3.726965
1.940767 -0.20611076 3.4685814
1.9254712 -0.058857571 4.7403116
1.7099996 -0.63365293 3.6921453
2.2734551 -0.052723508 3.4865029
1.6187441 0.378901 3.7772143
1.6341304 0.45109662 3.764909
1.8969799 0.08378835 4.7812071
1.2025794 -0.36987045 3.520932
1.1859424 -0.45370981 3.5089993
1.8735315 -0.70462662 3.658263
1.9265246 -0.51003057 3.8971939
1.948238 -0.16223755 3.5389674
1.8558909 0.14906366 4.4877872
2.0128007 -0.49511299 3.9986644
1.9305017 -0.52032059 3.8949718
1.8127995 -0.6941247 3.6435411
2.0574884 -0.21769495 3.662544
1.7490118 -0.37217912 3.7568352
1.8762007 -0.71850163 3.7945209
1.3930464 -0.16159694 3.2286298
1.9011917 0.094539143 4.7670755
1.7702858 -0.13667795 3.4045119
1.7638685 -0.4747242 3.7919154
1.9391671 -0.5120129 3.8445628
2.2724054 -0.057049561 3.483763
1.41558 -0.38319433 3.7708423
1.8528069 -0.45985657 3.7365499
1.168209 -0.24055171 3.3531144
1.1315457 -0.4446578 3.5715539
1.4035282 -0.24788482 3.3939362
1.8462907 -0.31991881 3.7512195
2.0491676 -0.70317566 3.8884218
1.8841625 -0.45937297 3.7608464
1.1762674 -0.45383435 3.5139482
1.2016746 -0.4237214 3.5352218
1.7828283 -0.37031928 3.7719417
1.9418539 -0.41085479 3.9833922
1.9096779 -0.48361039 3.7814367
2.0229788 -0.70961249 3.9103086
1.8407718 0.015374527 3.4495254
2.004122 -0.44131941 4.1686077
1.1647713 -0.54352105 3.5423136
1.9610071 -0.078231521 4.5142598
1.8339767 -0.50979871 3.7201977
1.8497865 -0.3855013 3.8054893
1.4893334 -0.5089677 3.7284906
1.757812 -0.36077064 3.754251
1.5860052 0.50319624 3.5272062
1.2656976 -0.29836181 3.4924927
1.1908098 -0.38301373 3.5152946
1.2447628 -0.43827552 3.6523185
1.1791573 -0.42368031 3.6155665
1.263284 -0.56456405 3.6202602
1.6776036 0.20550311 3.1634033
2.0144362 -0.64203525 3.9152906
1.6269783 0.470047 3.7741575
1.1776066 -0.43543503 3.4492736
1.8259677 -0.18101166 3.2958429
1.665004 -0.50135726 3.8287625
1.8705916 -0.39097005 3.786329
1.9060698 -0.17425729 3.5033009
1.6537687 0.26389003 3.1815662
1.1361916 -0.45688349 3.5997369
1.8924677 -0.71354282 3.6895092
1.9614314 -0.18978985 3.5607769
1.7307665 -0.1467745 3.3969746
1.1354156 -0.4203378 3.5887728
2.0721095 -0.15346481 3.9163148
1.7376804 -0.15799284 3.4520233
1.7397619 -0.53649539 3.714309
1.4600667 -0.1923406 3.2613223
1.8241301 -0.47511846 3.7371759
2.195523 -0.053957906 3.4834757
1.9829365 -0.39188445 4.1474371
1.9984866 -0.3963317 3.931417
1.1665803 -0.42631131 3.5417676
1.193153 -0.36361811 3.5214074
1.2416182 -0.39866039 3.7288413
1.2244135 -0.32025424 3.5125475
2.0710776 -0.13104632 3.9267871
1.1668717 -0.42584538 3.6264961
1.9103887 -0.17262018 3.5030861
1.7026068 -0.54945576 3.7432785
1.7104276 -0.19000702 3.1723952
1.8851316 -0.5441938 4.4161363
1.83575 -0.61635625 3.681597
1.8699121 -0.52230698 3.7583032
2.0475843 -0.66854632 3.9236262
1.1480279 -0.54361498 3.5503781
1.2023888 -0.42843267 3.6089737
1.3363447 0.41723475 3.6388412
1.9246516 -0.20597628 3.4751823
1.973104 -0.13047723 4.6918397
1.8824078 -0.65448445 3.7211301
1.8952467 -0.69601715 3.7206988
1.8385736 -0.7281509 3.7143471
1.7899886 -0.54462749 3.8409724
2.1021354 -0.28437853 3.8425975
1.8150706 -0.61055499 3.6925268
1.8767254 0.14410768 3.2508686
1.8141911 -0.059533868 3.3145669
1.5677916 0.40434396 3.3938119
1.8514874 -0.539837 3.7288117
1.7269511 -0.33627591 3.7377458
1.9684638 -0.18399949 4.6963882
1.7363442 -0.15743792 3.4534092
1.7800511 -0.57585901 3.7243295
1.7438182 -0.37493962 3.7595201
1.9627448 -0.08818005 4.5036402
1.8291428 0.13352807 3.2778428
1.9308145 -0.016322242 4.7332783
1.9974654 -0.17137647 4.6691461
1.8544788 -0.61486459 3.7373116
1.9879773 -0.20353346 3.5451546
1.8577244 0.15695383 4.479733
1.2534405 0.57806295 3.3245311
1.9249645 -0.20420033 3.6411519
1.236472 -0.40061441 3.7286446
1.1030389 -0.40753931 3.6384673
1.9629171 -0.091837525 4.5051684
2.0797081 -0.23788899 3.6543846
2.0452476 -0.21168134 3.6705608
1.5010145 -0.19012678 3.2075014
1.6979609 -0.45263985 3.7811096
1.4854052 -0.20916982 3.3089008
1.8727518 -0.56646204 4.10957
2.0133796 -0.63870311 3.9186277
1.8245403 -0.47184694 3.7379982
1.4834561 -0.14926022 3.3123343
1.5901053 0.51261824 3.467432
1.4872586 -0.24104647 5.1011767
1.8186437 0.13775256 3.348979
1.7366409 -0.8274014 4.3777661
2.0306363 -0.66963184 3.9493561
1.7247728 -0.54093045 3.7236643
1.7848525 -0.49114102 3.7333109
1.9475138 -0.21304509 3.6252928
1.8932786 -0.21748142 3.6824708
1.4364082 -0.24686475 3.3840635
1.8159562 -0.52796012 3.7197285
1.7668424 -0.43219075 3.7631202
2.0134041 -0.17995511 3.6105678
1.7576842 -0.44744194 3.7434969
1.720705 -0.49450421 3.7375669
1.7448841 -0.3165378 3.7386682
1.7758288 -0.79584026 3.7999287
2.0078843 -0.44345695 4.1642766
1.8874192 -0.50772738 3.7531276
2.0037742 -0.49356344 4.153482
1.9398268 0.40603399 4.0472054
2.0034435 -0.21005537 3.6070297
1.4728819 0.46001989 3.5610893
1.8544035 -0.064118281 3.1830621
1.207332 -0.21399786 3.3866503
1.69159 -0.42838657 3.7812176
1.9599698 -0.48143718 4.2614174
1.7003939 -0.43215078 3.7474701
1.1669953 -0.24132161 3.355876
1.6864831 -0.24821076 3.5102093
1.7724143 -0.67611414 3.6736214
1.5818884 -0.43157196 3.8015099
1.7413629 -0.46155661 3.7310774
1.6006505 -0.63205773 3.7573366
1.8189771 -0.63932353 3.6843641
1.9272714 -0.53051966 3.847656
1.3930817 -0.23139386 3.3178563
1.8317357 -0.63880849 3.6990228
1.9910593 -0.44482005 4.173377
1.7175386 -0.32716408 3.7424781
1.7210865 -0.49344561 3.8116744
1.9017831 0.31995311 4.2218175
1.9969474 0.31772161 4.1016898
1.9113338 0.40383035 4.0292974
1.7409211 -0.5533911 3.7126496
1.7139808 -0.33881474 3.7052653
1.6362902 -0.45312265 3.7916174
1.9696574 -0.50190514 4.2739301
2.0210693 -0.42114985 4.0667453
2.1394794 -0.20534973 3.6072893
1.8356779 -0.64034379 3.6991069
1.9198736 -0.64880031 4.227921
2.0118952 -0.67777538 4.1159039
1.3473039 -0.25778827 3.4147644
1.4890087 -0.50801545 3.730212
1.8592765 -0.70737731 3.6763749
1.8464447 -0.72634882 3.7253668
1.2719197 -0.49619424 3.6558688
1.1440326 -0.35384956 3.4939029
1.2549106 -0.39578199 3.6871159
2.2119973 -0.044883348 3.4526215
1.3774581 -0.24551493 3.4069722
1.4215443 -0.21127918 3.3912563
1.4914187 -0.48908377 3.7362216
1.475037 -0.45682418 3.7804966
1.6682234 -0.49070069 3.7381268
1.4708434 -0.39452645 3.7784722
2.0888743 -0.15931389 3.9004431
1.9279457 -0.72870195 3.7172556
1.2560292 -0.49409825 3.6582468
1.4528801 -0.5548833 3.6991022
1.268764 -0.42297581 3.6700594
1.1448144 -0.54451746 3.5528224
1.5096241 0.43792322 3.4215865
1.9626805 -0.20875324 3.61268
1.2269465 -0.38170776 3.6832893
1.2100812 -0.43533817 3.4419179
1.9451762 -0.75400764 3.7085736
1.7036045 -0.4433822 3.7698927
1.9203014 -0.76681572 3.7300124
1.7385092 -0.49400878 3.724715
1.4929667 -0.13835418 3.3022268
1.9316823 0.38847363 4.0134964
1.7346478 -0.22230621 3.4993334
1.8252007 -0.73125422 3.6390827
1.8314552 -0.73307335 3.6441479
1.8448987 -0.16666326 3.3245764
1.9030937 -0.098140649 4.3337903
1.4801613 -0.51828897 3.7159274
1.7209175 -0.48996484 3.8114257
1.8276162 -0.67211646 3.6604791
1.8742777 -0.071501516 3.1664095
1.7359478 -0.4624171 3.7962091
1.7883892 -0.49226415 3.7396243
1.6998609 -0.64763278 3.7247438
1.4694151 -0.45486495 3.7449927
1.3500079 -0.20985958 3.2629292
1.6134372 -0.16210932 3.4134724
1.1061879 -0.37637487 3.6356709
1.1898725 0.47116792 3.708189
1.9225508 -0.73204941 3.7206161
1.7352227 -0.15378304 3.4463663
1.7497782 -0.22688799 3.5798728
1.8058505 -0.70232993 3.6387067
1.9129863 -0.27060249 3.5582726
1.6706167 -0.74378395 4.6545038
1.2369021 -0.42366359 3.7385511
1.0891167 -0.43867663 3.4312222
1.8934686 -0.25928092 3.5115075
1.7804439 -0.13479805 3.3944321
2.1144242 -0.19402328 3.6442149
1.8520836 -0.73435396 3.6721742
2.0878637 -0.27562302 3.8799582
1.7927122 0.14665201 3.3086922
1.5131654 -0.27332297 4.9918041
1.7459654 -0.49203247 3.7176816
2.0993996 0.48711482 3.7791088
1.9824011 -0.19179851 3.6252303
1.7994856 -0.53372192 3.7300744
1.896148 -0.46473858 3.763731
1.3676749 -0.18370488 3.2650206
1.8118138 -0.67741239 3.6409323
1.8763436 -0.38871288 3.7899432
1.7451265 -0.23849449 3.501137
2.1446905 -0.25454867 3.905591
1.9442321 -0.54636019 3.8564887
1.8202657 -0.57602686 3.7076852
1.9387707 -0.51192468 3.845356
1.9249756 -0.36930278 3.944844
1.9132469 -0.55192578 3.8115585
2.0072436 -0.61723781 3.9229469
2.0041704 -0.59197068 3.9548781
1.6463599 -0.70341003 3.6748981
1.2699786 0.37062973 3.6386602
1.3510761 -0.26509896 5.1872025
1.268002 0.38896036 3.6537302
1.6655337 -0.56252742 3.8777857
1.7719413 -0.14732845 3.3678205
1.1289827 -0.43754289 3.4669907
1.0417763 -0.38033059 3.4886563
1.8572055 -0.63214839 4.4526424
1.1884835 -0.39341357 3.6641166
1.1609261 -0.57656652 3.6031034
0.95852417 -0.58428276 3.5811436
1.8721507 -0.49734265 3.7271597
1.9106466 0.076336198 4.4791884
1.7239879 -0.70038629 4.5633631
1.7907325 -0.65598035 3.6582332
1.6938814 -0.78166103 4.8394151
1.8152026 -0.73770303 3.6580031
2.0990241 0.49522081 3.7802775
2.0444524 -0.20648178 3.653192
1.4791046 -0.91885525 4.8456278
1.3841288 -0.99616313 4.9324183
1.3591338 -0.31940562 5.1612225
2.0118463 -0.49251413 3.9952817
1.2530283 -0.23707698 3.3252094
1.8975632 -0.58939534 3.8701782
1.9665908 -0.22678797 3.4756315
1.1994964 -0.39360765 3.5448692
1.8258054 0.13634127 3.300669
1.6761887 -0.1300873 3.4706419
1.2581326 -0.4925788 3.6440063
1.2507601 -0.49764073 3.658098
1.0726434 -0.6287688 3.3848612
1.6951246 -0.48266178 3.7720964
1.6616296 0.29426679 3.2249618
1.940881 -0.59267598 3.8271358
1.1553383 -0.51748228 3.53986
1.8496037 -0.53607112 3.7367532
1.7902176 -0.68138766 4.4570937
1.7060487 -0.73187608 4.6042457
1.1257659 -0.44604424 3.574846
1.068109 -0.52513319 3.5477912
1.1035198 -0.51797175 3.5326211
1.2245955 -0.34326687 3.4548104
1.2364111 -0.48731697 3.6057413
1.7424697 -0.15218274 3.4392779
1.8031896 0.15423107 3.4008472
1.8189188 -0.57116562 3.7056315
1.7632061 -0.23748815 3.558279
1.8437419 -0.51363361 3.9080861
2.0876558 -0.19772424 3.6660218
1.6629897 -0.13720256 3.299639
1.7258754 -0.63968873 3.7016065
1.8311487 -0.46725744 3.7764871
1.457954 -0.22177805 3.3085849
1.4985834 -0.20383677 3.3045485
1.5727454 -0.46495685 3.7706366
1.6091833 -0.62788004 3.7518096
1.6635182 -0.6193524 3.7211823
1.8408535 -0.54308295 3.7548587
1.926109 -0.56449527 3.8696504
1.8659307 -0.18755934 4.4284692
1.8226558 -0.59865499 4.4421406
1.3776932 -0.27896494 3.3673368
1.7275052 -0.6810208 4.5646753
1.9786683 -0.074291892 4.520793
1.1981565 -0.50806212 3.6833093
1.8003104 -0.086207628 3.2960536
1.2674561 -0.51887542 3.6440046
2.0325065 -0.33656144 4.0481148
1.7372465 -0.61380798 3.6969433
1.7589586 -0.53029466 3.7014751
1.7486362 -0.61446804 3.6868558
1.8033787 -0.42070624 3.7458479
1.76364 -0.50964242 3.6898859
1.4094632 -0.24301289 3.3762825
1.6430818 0.051386252 3.4512801
1.7067542 -0.3262313 3.7521653
1.7513956 -0.27241635 3.5474472
1.707111 -0.33317906 3.751883
1.6594344 -0.33340618 3.7658486
1.6879961 -0.3374241 3.7637744
1.686186 -0.40966877 3.790354
1.4551462 -0.75819021 3.7178178
1.4519224 -0.56201673 3.7006116
1.6427642 -0.45831779 3.7907946
1.4675328 -0.57322687 3.723217
1.4441018 -0.48874843 3.7152989
1.2665788 -0.55942398 3.6173973
1.5364913 -0.40483105 3.8179357
1.5471175 -0.57217932 3.7116902
1.5372202 -0.39200789 3.8066313
1.7265428 -0.51228708 3.7181478
1.9302018 -0.29455382 3.790092
1.4314785 -0.24222907 3.4075727
1.88156 -0.33946607 3.7444987
1.8072013 -0.2767196 3.7124147
1.8652894 -0.74526542 3.8079157
1.5996695 -0.28260291 3.8618593
2.0241985 -0.49535558 4.0324678
1.7493289 -0.45954457 3.714416
1.7281089 -0.34837741 3.7512898
1.8348571 -0.28003201 3.6681111
1.9043889 -0.278191 3.6165974
1.8025986 -0.7511124 3.7088542
1.6676033 -0.20566097 3.5177071
1.8097454 -0.27820939 3.7192111
1.7330844 -0.54206598 3.698952
1.724887 -0.51121002 3.7208042
1.4907891 -0.20357279 3.3072076
1.5344201 -0.45212579 3.7852526
1.0968087 -0.39477664 3.5986876
1.1569022 -0.38660309 3.6370106
1.1638247 -0.38655013 3.634464
1.2775978 -0.38496584 3.6766312
1.2561934 -0.44085535 3.6410935
1.1081514 -0.47411495 3.5817928
1.2687393 -0.51606101 3.623734
1.1128372 -0.4994297 3.6865249
1.1134703 -0.49695683 3.6785638
1.2259413 -0.48139417 3.5902991
1.1102504 -0.39794773 3.7186236
1.8114182 -0.6111691 4.4403071
1.1025692 -0.48584187 3.6494725
1.1311452 -0.45250645 3.5120907
1.8331521 -0.69830537 4.444046
1.6598878 -0.22958378 5.000567
1.8618014 -0.53282893 3.7530439
2.0006323 -0.50830203 3.9751818
2.0046391 -0.62024271 3.9297786
1.6703435 -0.39068982 3.7953665
1.3893578 -0.27377334 3.3971131
1.7067535 -0.39759687 3.7456017
1.6977725 -0.60712284 3.6919372
1.7727184 -0.13022749 3.3924751
1.3800769 0.40695032 3.6167102
1.8455256 -0.54053348 3.7473972
1.939092 -0.26933524 3.5368245
1.9201961 -0.093175039 4.3163557
1.7341563 -0.21471466 3.5218453
1.792642 -0.45359892 3.7533798
2.2746496 -0.040677086 3.4912276
1.8938524 -0.5327279 4.398571
1.9497666 -0.21304925 3.6209948
1.0616332 -0.46035731 3.5680487
1.8630167 -0.53805578 4.4369683
1.6169379 -0.38665956 3.6771157
1.5515556 -0.45956016 3.7883403
1.8927714 0.17576808 4.3606148
1.2722553 -0.45048022 3.6797266
1.8922331 0.18857691 4.3922067
1.8799639 -0.66411811 3.7365453
1.0261121 -0.44235677 3.4518328
1.9378573 -0.51248264 3.8810594
1.9864986 -0.091491431 4.4778361
1.2330142 -0.44133744 3.6595416
1.1810614 -0.35242802 3.4859548
1.1911505 -0.35739535 3.4743111
1.0574794 -0.51079249 3.5556278
1.7712986 -0.24254842 3.4719715
1.2881733 -0.44151542 3.6363609
1.7914169 -0.60864884 3.7101803
1.0807368 -0.515935 3.5752313
1.025887 -0.52866435 3.4861217
1.0380951 -0.33947158 3.5061369
1.4227113 -0.44237497 3.7175903
1.8050022 -0.64536196 3.6926317
1.0583581 -0.49158248 3.6701055
1.8220291 0.13863911 3.3253231
1.8200567 0.13739368 3.3308268
1.6665834 -0.72134638 4.6622314
1.6956533 -0.73581755 4.6173906
1.7063277 -0.7872178 4.7856536
1.7681576 -0.14560822 3.3586035
1.3969321 -0.94380951 4.9369783
1.6980149 -0.23713346 4.9676027
1.8959632 -0.49527633 3.7682049
1.9153726 -0.54937756 3.8066618
1.7766385 -0.43630242 3.7347112
1.4780428 -0.75198507 3.7011166
1.8287176 -0.47016472 3.7348945
1.4152769 -0.26773122 3.4328139
1.9638298 -0.44569921 4.2193317
1.2233759 -0.41095698 3.5172722
2.5918393 0.21014085 4.8087587
1.667944 -0.54473358 3.7478907
1.5193505 -0.43140739 3.7744315
1.3421406 -0.27951804 3.3832023
1.9674029 -0.47756213 4.2204566
1.4755175 -0.56937468 3.7133386
1.1577183 -0.42115206 3.5736499
1.5004805 -0.39199805 3.8260894
1.8932701 0.17945477 4.3628464
1.8504697 0.14872169 4.4918246
1.4408448 -0.45940545 3.7354054
1.5806643 -0.39392963 3.7915819
1.7499132 -0.31690028 3.7556739
1.8085415 -0.73492676 3.6946254
1.9991411 -0.3948361 3.9935851
1.4866872 -0.57528919 3.7571502
1.7961172 -0.20912582 3.5392435
1.7071172 -0.509969 3.7393327
1.8814192 -0.46074316 3.7521245
1.9650887 -0.40712845 3.9383845
1.7333126 -0.14851642 3.3677895
1.8977957 -0.52865976 3.7633824
1.9787327 -0.49887916 3.9868035
0.95066631 -1.9755174 8.5294676
1.8992912 -0.38938707 3.7760804
1.946542 -0.41443264 3.9751463
1.8697059 0.19256134 4.4198732
1.6274672 0.37835225 3.7756693
1.993522 -0.50251299 3.9775093
1.989669 -0.39679411 4.0332885
1.4272751 -0.20196809 3.3960152
1.4443997 -0.45769241 3.7361102
-1.0811754 -2.3509948 8.789382
1.9102806 -0.74717975 3.6922548
1.8276886 -0.65496451 3.698602
1.2479144 -0.31610429 3.5165882
1.9404937 -0.01459098 4.7140808
-0.65802634 -2.3740926 8.6912889
1.7798213 -0.71361339 3.6520805
1.9038844 -0.26991433 3.5844862
-0.69199836 -2.2948897 8.3791485
-0.63512415 -2.2746298 8.3049116
2.1225111 -0.16446446 3.6334927
1.6157458 -0.22439019 4.9749522
1.9856887 -0.057739802 4.631732
1.9955527 -0.50822949 3.9758873
1.7966243 -0.65131366 3.6958027
1.1704301 -2.0355163 8.7979212
1.050402 -0.46058404 3.6796622
1.976408 0.23891968 4.1431742
1.3088351 -1.9109823 8.3840723
0.62004989 -2.195369 8.7465887
1.4150708 -0.26232252 3.4146118
1.0607781 -2.0108812 8.4885864
0.58705658 -1.6651247 7.7987065
1.1028221 -1.9067482 8.4677372
