# .PCD v0.7 - Point Cloud Data file format
VERSION 0.7
FIELDS x y z
SIZE 4 4 4
TYPE F F F
COUNT 1 1 1
WIDTH 462
HEIGHT 1
VIEWPOINT 0 0 0 1 0 0 0
POINTS 462
DATA ascii
0.82858497 -0.59212697 3.7765789
0.3300676 -0.9103772 3.0347662
0.62485147 -0.57745683 3.5831487
0.77729833 -0.63165754 3.7071872
1.1599987 -0.7209658 3.8919084
1.2615852 -0.026780615 4.290997
1.3732646 -0.57461447 4.0686359
1.1299354 -0.62856066 4.2515402
1.0585186 -0.37394944 4.4497108
1.3423183 -0.50460923 4.0743117
1.1529366 -0.56223083 4.2852635
1.1487625 -0.94299221 3.860734
1.3211204 -0.44034904 3.7470791
1.1467514 -0.65059066 3.917526
1.2452248 -0.28491807 3.2783275
1.1758575 -0.8414306 4.1649899
1.1070964 -0.50752622 3.6688907
0.8368839 -0.52293867 4.7932234
1.3274695 -0.51277477 3.6718736
1.1883689 -0.78137004 4.1527948
0.99790901 -0.41293153 3.4043772
1.3848689 -0.50696802 3.8832242
1.1678971 -0.78322595 3.9846303
0.17210986 -1.19208 4.5435085
0.9960525 -0.15741459 4.6179581
1.1965564 -0.38748738 3.5626042
1.689926 -0.37724954 3.8254433
1.1702561 -0.79385048 3.9340024
1.3301692 -0.45960259 4.1322722
0.87930381 -0.35027379 3.3283334
1.2035627 -0.62952173 4.0918078
1.1720731 -0.79306543 3.9336278
1.3504542 -0.50510627 3.6619799
1.1696092 -0.72329926 4.129478
1.1624391 -0.71211863 4.2406201
1.025317 -0.35239753 4.7338991
1.1339294 -0.48361126 3.7041202
0.52392304 -0.98038018 4.7835174
1.0578638 0.15252529 3.8862329
0.45702714 -0.82655686 3.0451014
0.49968207 -0.94201344 4.7918696
1.0923803 0.22575937 3.8939672
1.0277021 -0.093607254 4.564405
0.11752938 -1.1561023 4.7931943
0.21237703 -1.1884984 4.7408018
0.18692911 -1.1069971 4.7652674
-0.19159925 -0.57761765 5.0425072
1.1399779 -0.82932144 4.0018077
1.3630866 -0.47531602 3.6666801
0.8967061 -0.35872576 4.8533187
0.9964031 -0.85573435 3.7494557
1.6855161 -0.389312 3.8189058
1.3421451 -0.48374176 3.8870173
1.0529593 0.15308693 3.8905604
0.89630651 -0.80581766 4.5026469
1.0838374 0.2212476 3.8915725
0.87957299 -0.21429661 4.8942909
1.3333631 -0.52061474 3.7430575
0.64397758 -0.29085165 3.1677723
0.64064384 -0.55421942 3.3513517
0.99043858 -0.31231841 3.1974311
1.132062 -0.77423382 3.8456488
0.64301533 -0.49514824 3.4309199
0.61812246 -0.5739035 3.4058964
1.3292142 -0.46448579 4.1326518
1.1376886 -0.78110445 4.029954
1.1663829 -0.72739559 4.1697798
1.1807431 -0.78553474 4.1567965
1.6870947 -0.39416575 3.8188198
0.76364553 0.23685162 3.6884112
1.1665303 -0.69093263 3.8976014
1.1404024 -0.79191065 4.0283728
1.1444879 0.014833383 3.3228531
1.6859149 -0.37531608 3.8289189
1.3946699 -0.51384544 3.8878081
0.95219684 -0.96101856 4.3578773
0.72166407 -0.43502057 3.4452822
1.0519922 -0.6083042 3.8482659
1.2906458 -0.30079979 3.3816164
1.0680095 -0.92637044 3.9664211
1.0950358 -0.97344136 3.8968313
0.68349189 -0.27029842 3.0987935
1.2487773 -0.3751753 3.5519452
1.2210958 0.0040711802 4.308085
1.3623893 -0.1048443 3.5011752
0.96161002 -0.32041067 3.2490952
1.1337862 -1.0146251 3.837368
1.1824386 -0.60203844 4.0281968
1.1581235 -0.36358586 3.5166914
0.89053828 -0.2042184 4.8837457
1.2435606 -0.37283626 3.551784
1.0349779 -0.7126106 3.8765063
1.1686305 -0.7842074 3.9856055
1.6848549 -0.39328745 3.8155768
1.1393256 -0.71380275 3.8589978
1.154966 -0.68972576 3.8885992
0.62545633 -0.46360692 3.458293
0.69661599 -0.35760507 3.2751114
0.546606 -0.55606878 3.4449012
0.56746686 -0.6739434 3.2283008
0.16260868 -0.47319928 4.9827886
0.40819895 -0.26196933 2.9746423
0.93851113 -0.13824371 4.6637435
0.5406183 -1.0099984 4.7853823
0.9798221 -0.9495461 3.7389653
1.0569593 0.20148905 3.5914011
1.2403841 -0.041896272 3.3570178
0.33847737 -0.86019611 3.2375739
0.49139765 -0.34195465 3.1376469
0.54225481 -0.35508811 3.1601853
1.0878088 -0.95442194 3.7840776
1.2461042 -0.28598297 3.3630056
1.1516029 -0.5756247 3.8834174
1.2199962 -0.99397373 4.0482683
1.158859 -0.71995229 3.8929737
0.6074273 -0.57228333 3.4069469
0.27072415 -0.51751405 2.7587566
1.5767384 -0.33642837 3.7244852
1.1361105 -0.68885159 4.1247587
1.0427625 -0.75626916 3.8174036
1.170271 -0.74913919 3.9190569
1.1868248 -0.99577773 4.0584035
1.0673311 -0.56427181 3.825026
1.0186731 -0.9713921 4.3334494
1.2766631 0.042579703 3.4084101
1.3797917 -0.50270772 3.880542
1.1494343 -0.73430258 4.1120224
1.0106627 -0.37909508 4.654984
0.83743697 -0.8082903 4.5119491
1.1073821 0.27590212 3.5527132
1.0401075 -0.69059873 3.8083942
0.78097099 -0.71252871 3.7225296
0.80281782 -0.69182509 3.7145355
1.0629152 -0.59874368 3.8501523
1.4070134 -0.46254566 3.8197746
0.64361382 -0.46762109 3.4082608
1.1754586 -0.94913799 4.0677309
1.1380491 0.28737915 3.6587188
1.1760111 -0.7925474 3.8963287
0.7140255 -0.43221226 3.4436567
0.72332847 -0.43645793 3.4343002
0.63217878 -0.50563985 3.4201705
0.62053603 -0.57355613 3.5615644
1.0554297 -0.75156063 3.8188283
0.57702506 -0.54572022 3.5049977
0.60512549 -0.62948203 3.5547142
1.3239406 -0.41580424 3.7209682
1.1439599 -0.81559968 4.0063567
1.1886258 -0.92796069 4.0662832
1.148811 -0.75997996 3.8715475
1.0770607 0.24099053 3.8993249
1.1697974 0.29151532 3.6011486
0.6360454 -0.55292451 3.349246
0.65805912 -0.45705041 3.3857505
1.3275783 -0.42441255 3.4671919
0.92654246 -0.72060114 3.8721321
1.3064289 -0.31417704 3.3986175
1.1485221 -0.65085411 3.9180951
1.1376995 -0.89960402 3.8358953
1.1901683 -0.99705738 4.0625572
1.4112266 -0.2492764 3.253408
1.3238355 -0.43823037 3.6892188
0.67642432 -0.51470268 3.369179
1.163667 -0.72692001 4.0627179
0.41238523 -0.67790574 3.378799
0.50480509 -0.39380035 3.1338525
0.5292356 -0.56626594 3.4680786
1.1964751 -0.97107774 4.0925045
0.14756212 -1.1253701 4.7642303
0.61901587 -0.60018647 3.3152609
1.1297684 -0.77084923 4.1505227
1.0952419 -0.88337404 3.7833371
0.41316268 -0.26496482 2.9706938
-0.098474726 -0.6979847 2.7306733
0.96016383 -0.95847785 4.3626695
1.204124 -0.96975809 4.0893631
1.4024299 -0.49957907 3.9243677
0.56361544 -0.24448188 3.0726075
1.085127 -0.90140879 3.981549
0.35990548 -0.84673208 3.1450243
0.36783615 -0.85049844 3.1380424
0.9585579 -0.12677599 4.6125617
1.1924006 -0.38862145 3.5819213
1.1422943 -0.78803563 3.905719
0.98766416 -0.24850437 3.1371536
1.0601557 -0.64579916 3.8448298
1.3706976 -0.15852778 3.2555919
1.3841362 -0.16728425 3.2611346
0.82306963 -0.87375891 4.4798269
1.1151799 -0.68212336 4.2935042
1.3141425 0.086348772 3.3727961
0.78268445 -0.60237032 3.7443962
1.1260383 -0.69306326 4.1205554
1.2682601 0.015198394 3.3316135
1.2455312 0.035709165 3.3251219
0.44812682 -1.0115108 4.8358073
1.0609456 0.35342923 3.5069983
0.93317688 0.43166038 3.3936548
1.2096894 -0.68424577 4.0985942
0.71099174 -0.43202367 3.4441059
1.3043679 0.078269526 3.3871934
1.0870264 -0.78693688 4.3083539
1.1741083 -0.75212955 3.9192166
0.59565955 -0.53594226 3.6350582
1.3225448 -0.43786019 4.1457639
0.56136012 -0.54574424 3.5104465
1.3281292 -0.43745044 3.690747
0.55614454 -0.51351631 3.4895315
1.2615834 -0.2984975 3.4201927
0.68283677 -0.27102399 3.0962496
0.37692425 -0.80928612 3.0728002
0.6205703 -0.6949324 3.5336666
0.4334619 -0.67968345 3.3861809
0.25352669 -0.12022624 2.9359996
0.98474419 -0.77295262 3.8020833
1.1586704 -0.79127347 3.8948929
0.74362475 -0.34845892 3.3343902
0.9592877 -0.88991886 3.8435113
0.68648678 -0.26926282 3.0989773
1.3620719 -0.15320066 3.2559576
0.30064884 -0.87833416 3.0147195
1.387822 -0.26318881 3.6335895
1.3988066 -0.24528947 3.2441347
0.59986365 -0.55469418 3.506901
0.44130176 -0.8310023 3.0431023
0.67629707 -0.43253386 3.4001145
0.6462549 -0.27966091 3.0928931
0.87182331 -0.92474693 4.3577228
0.85407156 0.24840032 3.6631291
0.77359837 -0.30656189 3.1250501
1.3459467 -0.47224215 3.6669402
0.9461661 -0.43697876 4.8189974
0.81547099 -0.72295713 3.8032293
0.48908871 -0.33613133 3.1584296
0.46608531 -0.30713296 3.1138117
0.3387447 -1.0375235 4.7022991
0.13471259 -1.28824 4.5418177
0.18199106 -1.2833 4.5280442
1.3448132 -0.4713603 3.6658008
0.17300905 -1.2246784 4.4596543
0.34183982 -0.83863473 3.1326976
0.32840046 -0.84072822 3.1292458
1.3200158 0.065452993 3.3363094
1.0698617 -0.78286576 4.0700974
0.40746707 -0.27189308 2.9720049
1.4504379 -0.15965684 3.606034
1.0285136 -0.78740191 3.9248776
0.1334542 -0.46937728 4.9939189
0.099326618 -0.50222611 5.0425134
1.3923249 -0.52889049 3.9025362
1.0679572 -0.55948377 3.8247943
1.2973089 -0.41634148 3.4646533
1.0451421 -0.5683744 3.8259318
0.97620034 -0.94896924 4.2842264
0.93692869 -0.38302004 3.4079976
0.93115729 -0.48870125 4.816473
1.1907569 -0.38785344 3.5827711
1.0579515 -0.8133015 3.8102374
0.7703293 -0.56728566 3.7802649
1.3064107 -0.010197459 3.341325
1.0855788 -0.66091937 3.8235731
1.0145462 -0.38893181 4.6448393
1.3097261 -0.42071128 3.4669089
1.0778228 0.21791606 3.9069667
1.129895 -0.96687061 4.2216349
0.95977652 -0.47651571 4.8143578
0.96995085 -0.48124021 4.8029838
0.91657996 0.44654149 3.3899138
0.96937758 -0.12766168 4.6075678
0.82452959 -0.42488393 3.4075656
0.9237811 0.42974496 3.3568866
0.69723111 -0.3574 3.2796569
0.50842881 -0.48761362 3.0817077
1.0135095 -0.39258999 4.6459727
1.044436 -0.93401957 3.9175358
1.0075722 -0.38680145 3.3526158
1.186975 -0.92456937 4.0693045
0.97540462 -0.84780562 4.3529906
1.1109918 -0.72015971 3.8489151
1.1888875 -0.42869219 3.639261
1.014663 -0.32773805 3.3607385
1.1658216 0.29728112 3.6057174
0.33104143 -0.46184981 5.0109124
1.3596666 -0.10657102 3.5078716
0.90756971 -0.43045244 3.421562
1.1470219 -0.92846465 3.8282547
1.1236036 -0.52809161 3.8295746
1.1178728 -0.5309248 3.82724
1.2821248 -0.3991659 3.4583049
1.0641859 -0.72550136 4.121305
1.0264192 -0.96138442 4.3223333
0.98395014 -0.92397004 4.3208756
1.1488153 -0.63242304 3.8806064
1.6881863 -0.37721419 3.8266606
0.98964983 -0.35986239 3.3197231
1.1410967 0.15585332 3.4966292
0.83374745 -0.41047955 3.3958263
0.76461822 -0.73302871 3.6846879
1.4042519 -0.2441667 3.2519555
0.80203712 -0.69087011 3.7161021
0.81473684 -0.61677283 3.7901275
0.79391539 -0.74872553 3.7047963
1.3402989 -0.46459588 3.6695652
1.0454627 -0.97624338 3.9341636
0.7576474 -0.59525955 3.725137
0.62494469 -0.67218482 3.5427639
0.63413125 -0.63568765 3.5692797
1.1686007 -0.041710176 3.2038088
0.62567019 -0.4950209 3.355511
0.62392354 -0.53466612 3.6015098
0.98578548 -0.33062762 3.2578571
0.97763592 -0.84594369 4.3543963
1.1128705 -0.80338722 3.8026168
0.98981243 -0.41532457 4.5312662
0.91810673 -0.37857413 3.4054675
0.80518651 -0.67290759 3.7243338
0.80606365 -0.85933965 4.5022125
0.7611652 -0.67787319 3.7397559
0.7791068 -0.63918036 3.762434
0.95333034 -0.68184048 3.803158
0.86326391 -0.66120881 3.7889335
0.78285331 -0.66421819 3.7915616
0.79722989 -0.61486518 3.7778997
0.76684475 -0.63299465 3.7091277
0.96530694 -0.7085709 3.7903316
1.1116993 -0.9334085 3.8863816
0.78660601 -0.57720995 3.7649078
0.82658237 -0.3363297 3.2473307
0.56363308 -0.71409148 2.978766
0.58069724 -0.72027194 2.9849217
0.91456735 0.40300396 3.3387201
0.93951064 0.39775929 3.3513856
0.57279128 -0.71712995 2.9849663
0.59232605 -0.7213949 2.9901423
0.75197953 -0.9023335 4.5114965
0.73789549 -0.43617368 3.448905
0.61911398 -0.63063055 3.5658944
0.77284932 -0.72913998 3.6696997
0.63834029 -0.56359661 3.5881858
0.94553888 -0.91308272 4.4404211
0.63288683 -0.94690955 4.5478835
0.54880077 -0.65613145 3.4229574
1.0970329 0.24060665 3.5268853
0.71305537 -0.35157466 3.2738948
0.72826183 -0.35885647 3.2634947
0.51943225 -0.83874017 3.0615473
0.71215874 -0.94986117 4.5087686
0.67814416 -0.30877423 3.1718662
0.60226411 -0.51538414 3.5891085
0.78953701 0.29347712 3.6583185
0.44656989 -0.78370643 3.0181539
0.88460362 0.38944292 3.3566365
0.66841501 -0.55890191 3.3542657
1.1740767 -1.0189241 3.8473618
1.1858188 -0.57426375 4.2773533
1.1087294 -0.56934112 3.8996501
1.0147438 -0.76679832 3.7829907
1.1896554 -0.9290244 4.0653009
0.78764415 -0.63531613 3.7276757
0.39154521 -0.91604 3.0443921
0.98739976 0.31570396 3.3743491
0.51147181 -0.71727699 3.466701
0.54940605 -0.69065416 3.2433164
0.50594491 -0.35673338 3.3065357
0.58058017 -0.97950739 4.616396
0.58347863 -0.55979794 3.6399789
1.3314232 -0.30561391 3.4941142
0.43055809 -0.23185191 2.921355
0.554928 -0.63878453 3.3253183
0.0009923412 -1.3031528 4.854764
1.117366 -0.64020294 4.0339828
1.1008159 -0.82080334 3.8094444
1.1422453 -0.64390641 4.0868154
0.17543821 -0.099347912 2.847244
0.56338644 -0.97753304 4.6186199
0.59472823 -0.69590509 3.5295894
0.49643439 -0.2251725 2.9625633
0.24903537 -0.13182275 2.8313794
0.7454043 0.24255392 3.6923258
0.49899301 -0.20906535 2.9217317
0.53756911 -0.95944959 4.5620756
0.78576428 0.21545906 3.6343973
0.38750988 -0.19757985 2.8493567
0.50395554 -1.3412662 4.5584488
0.39769599 -0.25939912 2.970835
0.49455857 -0.2446239 2.9336281
-0.15264221 -1.1649828 4.8129487
0.28414744 -0.302113 2.8136184
0.20337889 -1.2830118 4.5205245
0.36926469 -0.8900848 2.9388084
0.32962677 0.5726673 2.8531916
0.34136406 0.56261122 2.8583827
0.36522365 -0.80904937 2.9449682
0.17057681 -0.46131739 5.0387583
0.21161774 -0.47275725 4.9830089
0.57242852 -0.51899981 3.5562332
0.17241263 -1.1786823 4.7457623
0.97276866 0.29181173 3.6509304
1.1234107 -0.78795779 3.8508303
0.53986853 -0.55639613 3.4457159
-0.022611167 -1.2988997 4.8466029
1.1369444 -0.82896429 3.9700875
1.1074518 -0.79359078 3.8637578
1.3459539 -0.45664796 3.7609487
0.80122024 -0.6979776 3.6976421
0.76998103 -0.66296428 3.6877487
1.0701462 -0.78625637 4.3105664
1.0190676 -0.7655437 3.7825582
1.1236815 -1.0188979 3.8436303
1.0140625 -0.38230601 3.3535354
1.1435784 -0.79324943 3.8641863
0.52805823 -0.48139474 4.9816384
1.0390409 -0.10116105 4.5420198
0.57704026 -0.52373153 3.4469297
1.1707805 -0.74822021 3.917125
0.95683223 -0.13463397 4.6153526
0.7644394 -0.63403898 3.7079601
1.4078645 -0.50047541 3.9223416
1.0707442 -0.7882784 3.7988424
0.9575901 -0.20150645 4.823936
1.1787895 -0.6545769 3.9191999
1.1675186 -0.70153177 4.2253828
1.1773208 -0.84124488 4.1628475
1.1428715 -0.69306409 4.1184883
1.0613948 0.15090705 3.8922539
1.169863 -0.78857094 4.1294765
1.1944984 -0.96799886 4.0937452
1.1576177 -1.0092034 3.8120763
0.34696552 -0.87388742 3.1203182
0.43549135 -0.93678045 2.9899642
1.4838128 -0.30308887 3.6478035
0.65755188 -0.60872364 3.3276131
-0.033062708 -0.7367366 2.7415273
0.87872303 -0.3674055 3.391458
-0.1547244 -1.4107921 4.888567
0.4528102 -0.93735045 2.9939559
0.90103811 -0.35364681 3.2780831
0.3406032 -0.83727551 3.1349626
1.0730492 -0.72911185 3.8258231
0.47528341 -0.4378123 5.0462346
1.1633337 -0.68547016 4.1897283
0.46307293 -0.77502412 3.0371246
0.34087554 -0.86200887 3.2315729
0.92312056 -0.37065828 3.412842
1.3084227 0.092784449 3.3696079
1.3049741 0.087499768 3.3664992
0.29180226 -0.80419439 2.931103
1.3972968 -0.21841279 3.2210605
-3.0192451 -2.0012543 6.909061
0.76770461 -0.6330598 3.7100694
-0.036070209 -0.66121477 2.6496558
-3.1990631 -2.0247262 6.9991827
-0.39543608 -0.54968244 5.113668
-3.7516093 -2.1266997 7.2938561
1.0843084 0.33297616 3.5334942
-2.4573841 -1.8999164 6.5798583
1.2621682 0.086660661 3.3048322
0.6950708 -0.45102423 3.4484763
1.2751518 -0.5336163 3.7546215
1.186615 -0.84262246 4.1599541
-3.2334681 -2.1366298 7.06077
0.59000498 -0.608944 3.3851571
