# .PCD v0.7 - Point Cloud Data file format
VERSION 0.7
FIELDS x y z
SIZE 4 4 4
TYPE F F F
COUNT 1 1 1
WIDTH 485
HEIGHT 1
VIEWPOINT 0 0 0 1 0 0 0
POINTS 485
DATA ascii
2.470696 0.21661688 3.4862268
2.5572238 0.11981418 3.443028
2.4566174 -0.028034419 3.540427
2.3711443 0.31947234 3.2626209
2.4489732 0.1637309 3.5272374
2.6826239 0.45425269 3.3649726
2.4244065 0.36664701 3.2140503
2.4208074 0.21979554 3.5192006
2.3980789 0.098347843 3.6601992
2.3285329 0.4121446 3.2253366
2.3749151 0.24616969 3.5494485
2.4186091 0.24111106 3.5059743
2.3859601 0.22595914 3.5306826
2.3470399 0.12224898 3.6633656
2.5368822 0.020823153 3.4397511
2.5326724 -0.05476075 3.423346
2.5073385 -0.038539588 3.4516752
2.5005493 -0.01310347 3.4503717
2.4848938 0.17746684 3.5272009
2.4082723 0.13494587 3.5679271
2.5632772 0.1924734 3.4456584
2.4265158 0.1087595 3.544194
2.3130059 0.38470054 3.252851
2.3414121 0.11833531 3.6633132
2.3511376 0.42954654 3.2268972
2.8511832 0.057316691 3.4748702
2.5165172 0.44395047 3.2695622
2.6397736 0.15633635 3.4512887
2.5397377 0.1720161 3.4492438
2.6445713 0.32784411 3.5494113
2.3868115 0.32137817 3.238898
2.5127144 0.61938739 2.9910376
2.5673654 0.1433333 3.4412785
2.3574195 0.4235343 3.2319465
2.5160329 0.61598468 2.9891756
2.637356 -0.054336131 3.3911583
2.5274403 0.44403508 3.2628508
2.7020955 0.026447518 3.5424576
2.1488237 0.34976396 3.2299838
2.6023269 0.35948521 3.5073347
2.1454327 0.34968928 3.2345889
2.6712296 0.18717988 3.4798849
2.2015314 0.10436248 3.7419863
2.5275292 0.17570248 3.4472721
2.5630488 0.1933683 3.4472733
2.6031029 0.18577713 3.447979
2.3231928 0.42149487 3.2478461
2.8203094 0.11474611 3.4899971
2.8671823 0.094620317 3.4924765
2.1576276 0.33205423 3.2921653
2.6054869 0.1379364 3.4613624
2.6043165 0.14970718 3.4420207
2.5140667 0.15231305 3.4653656
2.6063595 0.18482059 3.4444902
2.5788288 0.13112587 3.4541364
2.1571977 0.33246791 3.2940779
2.425627 0.22105448 3.5319843
2.2817991 0.41133398 3.2252495
2.5205209 0.44741017 3.2766712
2.8199472 0.11827924 3.4932745
2.5170991 0.61607718 2.9990001
2.2685075 0.27426842 3.3806434
2.5531125 0.47801584 3.1592188
2.5495999 0.47689304 3.2182248
2.2846565 0.30958164 3.3957305
2.3931937 0.30718353 3.4636505
2.3910112 0.30173123 3.4670894
2.6065061 -0.061142106 3.3963149
2.5292823 0.51293272 3.1808803
2.6325903 -0.069505744 3.4429457
2.3459997 0.42066446 3.2147968
2.4285228 0.40630835 3.2814786
2.7609346 0.359424 3.5959792
2.5112584 0.2955682 3.503269
2.3678138 1.0409375 3.6159258
2.4878633 0.12350763 3.5873079
2.5454895 -0.084955581 3.3992474
2.8344142 0.083778583 3.4814789
2.2249565 0.27523792 3.3266158
2.1562011 0.33041489 3.2961488
2.6226802 -0.09891437 3.4372263
2.3398015 0.4287844 3.239759
2.5081279 0.44717228 3.2634161
2.6121941 -0.072020844 3.3791342
2.3636475 0.354716 3.1707888
2.5132599 -0.014079144 3.4606197
2.5421801 0.47327426 3.2470775
2.4534473 -0.036828324 3.551425
2.5652471 0.10154954 3.469259
2.6985404 0.14215571 3.5078356
2.6004081 -0.093271941 3.3862414
2.6568696 0.1889216 3.4686196
2.4902289 -0.013100798 3.4870956
2.4781649 0.20316809 3.4833357
2.3740046 0.25027966 3.548758
2.7712791 0.23482588 3.5767021
2.8225873 0.27625111 3.5729373
2.6529148 -0.027872115 3.4093354
2.4781847 0.43666276 3.2611184
2.34565 0.078035139 3.6881921
2.3117614 0.14761603 3.6957982
2.4501841 0.080356732 3.5101781
2.3983603 0.23740287 3.5350382
2.448596 0.18959172 3.5217917
2.4572737 0.054984454 3.5062082
2.3983014 0.23824172 3.526859
2.6611204 -0.0073266048 3.4167979
2.5542791 0.10189913 3.4476101
2.5176637 0.13943492 3.4654949
2.5205455 -0.060975645 3.4457834
2.4800346 0.078629054 3.506381
2.4467425 0.081669837 3.4899094
2.4575696 0.050370473 3.4557178
2.4745078 0.13654302 3.4984093
2.5979803 -0.058963172 3.3690844
2.6808691 0.13304274 3.4785523
2.4501474 0.10346474 3.5037911
2.4712 0.18314049 3.4927795
2.418021 0.40554062 3.2839742
2.4778953 0.17078811 3.4881725
2.5067286 -0.056565445 3.4397717
2.4608147 0.12778239 3.5128202
2.4640939 0.1911792 3.5026357
2.5211353 -0.060577791 3.4731607
2.3885934 0.25128916 3.5054913
2.4704654 0.095063113 3.4916947
2.4136183 0.1052488 3.5638428
2.7853746 0.24651352 3.5454855
2.4199176 0.16557288 3.5791025
2.8195808 0.12256363 3.5007162
2.8118427 0.13490207 3.5073996
2.563359 0.10344696 3.4604931
2.3962409 0.32336554 3.2361021
2.2182169 0.29844758 3.3496494
2.6356046 0.0010063609 3.431109
2.2556374 0.35033396 3.3148618
2.5911074 0.16703564 3.445946
2.6285558 0.0032558667 3.4216499
2.6496241 0.13523901 3.4645839
2.4905386 -0.012990764 3.4961658
2.6725595 0.17452091 3.4740667
2.5226943 -0.011128246 3.441704
2.5603263 -0.10383981 3.3999541
2.5164256 -0.06346143 3.4467931
2.5611084 -0.094945475 3.3946624
2.5115349 0.44834879 3.2761526
2.0129502 0.27225992 3.2102721
2.5074413 1.0834615 3.7181401
2.4941874 -0.02237403 3.4670911
2.4641035 0.13460074 3.5042195
2.4598279 0.14923434 3.494839
2.4601409 0.1786007 3.5221448
2.4691556 0.21024351 3.4815125
2.4460704 0.16734396 3.5069366
2.1010427 0.36650515 3.1729581
2.3966539 0.25560963 3.5080392
2.6524231 0.16960526 3.4322367
2.1937823 0.27460164 3.3563256
2.3620462 0.35497141 3.1710548
2.3615091 0.31347156 3.2404537
2.6492977 0.18937609 3.4720786
2.0778444 0.3994818 3.1345918
2.5126407 0.1596282 3.4593837
2.5277951 0.15175156 3.4589932
2.5373313 0.17896542 3.4320166
2.1533654 0.33297846 3.2928112
2.3942175 0.32671517 3.2635438
2.4554267 0.13198048 3.5103769
2.2635946 0.24812399 3.3929622
2.2573197 0.32344234 3.3296282
2.4454937 -0.04549988 3.6222768
2.4785938 0.43569359 3.2560749
2.3666217 0.11915328 3.6688828
2.9062262 0.16970956 3.5913177
2.3458455 0.078692205 3.6532593
2.5288515 0.1586087 3.4460073
2.3615201 0.064836904 3.7095199
2.1959932 0.24929313 3.3807082
2.3167415 0.39423493 3.2464259
2.6466255 -0.042147331 3.4030087
2.4715619 0.095491186 3.4832637
2.4630857 0.096345931 3.5108738
2.4441121 -0.090952285 3.5421383
2.5292397 0.17718105 3.4532306
2.4977477 0.14855491 3.4459803
2.3916311 0.32409215 3.2502723
2.6529233 -0.027042938 3.4093652
2.5151966 -0.060210593 3.4730256
2.4907215 -0.013201172 3.4921687
2.4228981 0.28023449 3.4903226
2.4491086 -0.05986347 3.551276
2.4037755 0.096410565 3.6493289
2.25246 0.32311291 3.343065
2.5238488 0.46722311 3.2472701
2.3649266 0.11175804 3.6559219
2.3387806 0.087909542 3.6773701
2.3134356 0.15011811 3.6967106
2.4156761 0.10545074 3.5698695
2.1320138 0.36340764 3.2299502
2.4479041 -0.031099837 3.5337293
2.5805595 -0.025541233 3.4238207
2.6708052 0.44424176 3.4018643
2.6181021 -0.11730006 3.4906914
2.5352366 0.46305972 3.2451484
2.4211662 0.16744773 3.5828464
2.5156586 0.45200881 3.2403965
2.1556864 0.33372229 3.2961588
2.2667193 0.25042939 3.3702731
2.4522891 0.17074004 3.502033
2.5027719 0.13000862 3.4678509
2.2150412 0.29712936 3.3442938
2.4618192 0.10142221 3.4917564
2.5243478 0.15150078 3.4549153
2.5411656 0.1770765 3.4480941
2.5381215 -0.020435894 3.4252038
2.484462 0.12242731 3.4829903
2.5129724 0.50486761 3.1870356
2.5245149 -0.061939366 3.4444482
2.5169203 0.044229269 3.4761178
2.5022871 0.063854761 3.4890907
2.6237254 0.13556702 3.4535847
2.6035933 0.17373858 3.4419105
2.638624 0.16771767 3.4555039
2.3213077 0.15650526 3.6817875
2.3475692 0.086045213 3.6877522
2.5149767 -0.063297078 3.4522107
2.0760336 0.31751275 3.3239164
2.3432617 0.31468248 3.2185934
2.6425791 0.35745826 3.5245106
2.3784983 0.3156465 3.2632592
2.6958277 0.31563473 3.5379319
2.1171143 0.36142942 3.1908586
2.5633245 0.096904375 3.4342644
2.5695658 0.097953528 3.443028
2.535337 0.45901501 3.2743423
2.5629313 0.098977298 3.4327748
2.4834247 0.13277467 3.4726334
2.4581676 0.0055258647 3.5613639
2.4700429 0.13816021 3.4964454
2.5062199 0.15963854 3.4519618
2.5048699 0.1541052 3.447633
2.5242758 0.49725518 3.2158225
2.634711 0.40301135 3.4508898
2.642812 0.39091316 3.4845626
2.6896923 -0.04872223 3.3753641
2.6437452 -0.039846882 3.3939888
2.1521311 0.26537031 3.4010139
2.4681976 0.012888249 3.5066352
2.5739827 0.0015572775 3.4224277
2.229641 0.28723323 3.3253765
2.5962062 0.16871831 3.4499178
2.4909046 -0.036181275 3.3937321
2.4634094 -0.029895199 3.5457504
2.1913176 0.24975131 3.4141643
2.5790381 0.48160666 3.2613869
2.5110006 0.46482897 3.2587223
2.4523182 -0.060338657 3.561084
2.448019 -0.051105428 3.5555027
2.4938581 0.44507051 3.2652075
2.4976933 0.44646111 3.2705383
2.5286565 0.46641573 3.2947888
2.520638 0.45855138 3.2901201
2.4762239 0.09231241 3.4901898
2.4646976 0.10341974 3.4925177
2.5150411 0.44490078 3.2601497
2.5117273 0.44591776 3.2683437
2.277355 0.27008551 3.3571281
2.4274006 0.24425566 3.5666811
2.4499366 0.19285813 3.5146127
2.2220452 0.28681803 3.333487
2.3977799 0.27766064 3.5255129
2.3710866 0.24785645 3.5727053
2.8418624 0.081387617 3.4800241
2.4146018 0.14479862 3.6061258
2.4900222 0.081179582 3.5063505
2.1241713 0.3506608 3.1995559
2.4349792 -0.074984923 3.5949626
2.5091712 0.46169361 3.2474258
2.5323653 0.5193193 3.1742947
2.2241104 0.2767843 3.3345847
2.4286616 0.061743882 3.657526
2.654835 -0.04671602 3.424475
2.4513307 0.183284 3.5617311
2.415729 0.24308638 3.5137947
2.2557778 0.33023089 3.2943125
2.102798 0.31866628 3.2309692
2.1189327 0.36032966 3.1906602
2.4163558 0.2110472 3.5491722
2.5416458 0.37827981 3.4324667
2.8791096 0.062637642 3.4793396
2.0980411 0.32760677 3.249337
2.8171544 0.27608457 3.551146
2.0986433 0.36743751 3.1663342
2.7835083 0.37125453 3.6253471
2.2829378 0.29584688 3.4010484
2.4913201 0.44274569 3.258749
2.6043756 0.54072201 3.1773696
2.5450628 0.013895803 3.4364684
2.5140607 -0.05883709 3.479986
2.5096734 -0.03540311 3.4709175
2.5121913 0.45905843 3.25859
2.4870234 0.43976033 3.275136
2.5279374 0.03299848 3.4648387
2.5291626 0.45905948 3.2701409
2.2587032 0.32670873 3.3379207
2.5061553 0.43787616 3.2665184
2.5085416 0.42728046 3.1965795
2.2856698 0.27674064 3.4105456
2.5186439 0.44526574 3.2829087
2.5152013 0.44181132 3.3007553
2.1173949 0.35682663 3.1960697
2.0234897 0.27056083 3.3043652
2.5397842 0.019124523 3.4401734
2.1500266 0.35118863 3.2239802
2.5354042 0.52256048 3.1849022
2.2864928 0.3106806 3.3852985
2.5228014 -0.014227086 3.4338717
2.32376 0.41528529 3.2796395
2.658082 0.18543863 3.4702153
2.027065 0.26571199 3.2856064
2.3913453 0.22307433 3.5554683
2.6628087 0.18947242 3.4843612
2.0808966 0.29998052 3.2642732
2.3674803 0.11944851 3.6548491
2.377563 0.11429965 3.6754596
2.663254 0.41652027 3.4439106
2.3734581 0.11354404 3.6477001
2.5181742 0.13000491 3.4767821
2.4936078 0.11743091 3.4705789
2.4746222 0.076344244 3.4940538
2.4284792 0.17639254 3.554702
2.3182595 0.10720364 3.6650476
2.1549757 0.33285397 3.2996187
2.3737798 0.11329202 3.6463685
2.305481 0.12084842 3.6722126
2.2133458 0.30053592 3.3571134
2.6750653 0.44117555 3.3496652
2.5540922 0.34820059 3.5023222
2.3977993 0.082331978 3.680747
2.8580921 0.085855737 3.5219111
2.7749326 0.24382688 3.5160882
2.922822 0.10136802 3.5535228
2.9248526 0.10205495 3.5612659
2.786329 0.2486628 3.5375955
2.1940031 0.25440121 3.3734043
2.3329439 0.329189 3.2151179
2.7997732 0.26904452 3.5335293
2.4238958 0.093548484 3.6210399
2.7718379 0.2365927 3.5746729
3.3030026 1.2688311 3.7337914
2.5344718 0.16916205 3.4360788
2.4528987 0.15043983 3.5066872
2.4610498 0.20775719 3.5076411
2.4571052 0.18689962 3.5174296
2.5657983 0.19561723 3.4492478
2.4725044 0.22265323 3.4896829
2.4286125 0.26516959 3.4815674
2.420759 0.35980645 3.2303319
2.4303901 -0.05505738 3.6088767
2.5264735 0.18478769 3.4493721
2.6011224 0.13404737 3.4331939
2.452332 0.1360539 3.5229993
2.4246552 0.10797199 3.5349276
2.4122889 0.34565803 3.3013308
2.4449823 0.16414914 3.5238128
2.4747784 0.082448736 3.5017965
2.4953887 0.12046202 3.4764905
2.4740088 0.0795656 3.5285299
2.3810899 0.35612082 3.1797245
2.5688469 0.1272347 3.4331882
2.5167744 0.13645202 3.4690499
2.3019419 0.39567575 3.2659371
2.4398527 -0.047168028 3.5725281
2.3407953 0.33941078 3.2477067
2.5030968 0.1501929 3.4850049
2.2573326 0.35495093 3.3187056
2.4342246 -0.060837734 3.5671325
2.5082259 0.17601717 3.4516706
2.2367036 0.32292938 3.3466206
2.4458401 0.10809332 3.4946356
2.6054337 0.14569089 3.4388402
2.4534674 0.15024954 3.496206
2.4472892 0.13098645 3.5168297
2.4695163 0.18756904 3.4899774
2.4472179 0.13174574 3.5159476
2.6511161 0.13672034 3.4616356
2.4683897 0.21086696 3.4814944
2.454041 0.17264609 3.5134892
2.4207666 0.330944 3.5129349
2.4029899 0.31080714 3.4741738
2.1143572 0.31229272 3.0660129
2.4707639 0.085506037 3.4831924
2.4616332 -0.029799398 3.5438268
2.4755042 0.097466193 3.4944062
2.4594975 0.092993118 3.4882731
2.4700377 0.17144984 3.4924681
2.6081769 0.17271115 3.4513996
2.4757445 0.17785859 3.5321054
2.5766134 0.19391841 3.4444089
2.4602258 0.1810219 3.5216205
2.444488 0.19637854 3.503973
2.4516997 0.19076452 3.5217297
2.3901436 0.22307391 3.5405552
2.4583352 0.19006966 3.5418715
2.4365869 0.15873483 3.6530848
2.6510015 0.13543701 3.4565265
2.3890326 0.21726982 3.5506625
2.4000762 0.23531732 3.5157409
2.3976214 0.23565003 3.5167747
2.4139192 0.14581874 3.6003585
2.4320779 0.18632229 3.5611429
2.43525 0.18932682 3.5493443
2.4008162 0.30537885 3.4978085
2.2491286 0.070107259 3.6705492
2.2498417 0.060657952 3.6910849
2.3472319 0.10006368 3.6625917
2.6460059 0.1920708 3.4722769
2.3681307 0.11117542 3.6554015
2.4117014 0.19459909 3.584837
2.3396683 0.11630736 3.6603334
2.1997867 0.10391313 3.7387977
2.3659842 0.11996633 3.6437325
2.3385572 0.08178664 3.6842277
2.3390703 0.14424181 3.6690829
2.6420276 0.44036618 3.3894689
2.5536804 0.36480543 3.4688714
2.3169737 0.15041064 3.7285275
2.4777284 0.47145021 3.1440001
2.6983945 0.02941215 3.488394
2.9238784 0.097708672 3.5893414
2.8333468 0.1129392 3.5163741
2.8520589 0.1293187 3.5553992
2.6738539 0.38101977 3.5210733
2.1501057 0.2709429 3.412684
2.4104409 0.37259626 3.2066579
2.5532119 0.47613156 3.1695132
2.5107059 0.44386774 3.2816942
2.498925 0.42599985 3.2504485
2.1042979 0.33174902 3.2309332
2.443115 0.086184271 3.5241237
2.4769058 0.41873527 3.205385
2.5387969 0.17172016 3.4430251
2.4209776 0.22955826 3.5209568
2.453496 0.18249486 3.5101318
2.3399396 0.11749607 3.6652625
2.4167542 0.18857683 3.589536
2.4035807 0.20077997 3.5988019
2.328275 0.16580832 3.6811275
2.3883588 0.10447093 3.6728585
2.3699172 0.16285643 3.679908
2.4521909 0.16968927 3.5053902
2.3997145 0.30599663 3.4888422
1.9990144 0.34415686 3.140564
2.328182 0.093805775 3.6945863
2.2653024 0.092434578 3.7637668
2.396296 0.31059036 3.4760556
2.4462368 0.19126375 3.493624
2.4205976 0.1691602 3.5887163
2.4067674 0.20244801 3.6166844
2.4098294 0.098661236 3.658231
2.4711921 0.093906708 3.4788179
2.5622885 0.14078066 3.4328136
2.6011391 0.17394045 3.4427664
2.8372712 0.080422036 3.4759276
2.8533723 0.2561222 3.5954256
6.8910542 1.5746745 7.850914
2.2321534 0.30148521 3.3047769
2.3540828 1.1388401 3.3202889
2.6506064 0.41823867 3.4520903
5.5050044 1.3417491 5.2499571
2.1621056 0.33728862 3.3068466
2.8294377 0.25012892 3.542686
2.5109756 0.44058496 3.2881749
5.0574355 1.7042931 4.3353472
4.6243396 1.54141 3.9496503
4.7921796 1.6324217 4.0801458
2.5094233 0.26191583 3.4868026
2.552932 0.47410747 3.1607215
4.6319656 1.6754081 3.8264775
2.4939604 0.44186503 3.2061284
5.1626301 1.2617056 4.8940811
2.7957611 0.26545653 3.5311651
2.6688907 -0.075294606 3.377722
2.3976574 0.32355794 3.2953432
2.7319202 0.33700791 3.5476985
