# .PCD v0.7 - Point Cloud Data file format
VERSION 0.7
FIELDS x y z
SIZE 4 4 4
TYPE F F F
COUNT 1 1 1
WIDTH 378
HEIGHT 1
VIEWPOINT 0 0 0 1 0 0 0
POINTS 378
DATA ascii
2.4916379 0.14917983 3.4968925
2.4053142 0.2581706 3.2707098
2.3711228 0.05648708 3.6597562
2.4660475 0.096991599 3.5365434
2.4624243 0.30330354 3.2246346
2.4072881 0.032887686 3.6668582
2.3949311 0.1824792 3.5567527
2.4399774 0.17581986 3.5149047
2.4057729 0.16194582 3.5382202
2.3572769 0.059021149 3.6683357
2.5507867 -0.048999466 3.4510424
2.5438526 -0.12418578 3.4337592
2.5182059 -0.10707523 3.461272
2.4988768 0.10926109 3.4984503
2.5025179 0.10910735 3.5379901
2.8028674 0.25258008 3.5946407
2.4405446 0.042945467 3.5521104
2.4517717 0.19948681 3.4898379
2.3505414 0.32600945 3.2593937
2.3514869 0.055363614 3.6680338
2.3745134 0.02799624 3.6447742
2.440105 0.28940275 3.2574353
2.3915842 0.36931172 3.2353275
2.5557001 0.3759639 3.2843161
2.5599871 0.10183372 3.4621003
2.6677535 0.25201121 3.5676427
2.1228075 0.34667084 3.128938
2.7084916 0.12114367 3.5479443
2.3973968 0.36298436 3.2405508
2.5735016 0.55008638 3.0057893
2.6495988 -0.12818518 3.4055347
2.6285834 0.28584549 3.5243163
2.182394 0.29867402 3.2345078
2.6907637 0.11085657 3.4978075
2.5480378 0.10607801 3.4597068
2.6239028 0.11275712 3.4633515
2.362534 0.36235031 3.255132
2.83599 0.031750135 3.512814
2.8817952 0.0095292283 3.5168583
2.623651 0.06475205 3.4763508
2.3540196 0.33304232 3.2334995
2.6243498 0.063290946 3.4565203
2.5744104 0.030311394 3.4549749
2.4451051 0.15526199 3.5409646
2.5567267 0.37990773 3.2947431
2.5595806 0.37918407 3.2916036
2.8356607 0.035269577 3.5161095
2.4770832 -0.011797142 3.5245347
2.5152721 0.060281981 3.4741549
2.1217091 0.34796593 3.1253097
2.1423903 0.26590466 3.2152183
2.445087 0.28108388 3.224225
2.4118309 0.20435283 3.5228086
2.4629571 0.066234313 3.530334
2.3682957 0.06216028 3.6698987
2.4622276 0.068141811 3.5201225
2.7190928 -0.15877081 3.4318821
2.5979359 0.40924084 3.1757612
2.294795 0.25604594 3.3857064
2.5261128 -0.17026041 3.4423783
2.5403843 0.37578449 3.2789109
2.565527 0.38659567 3.2836454
2.5748734 0.44501391 3.1968491
2.4657328 0.34220016 3.2925513
2.1899507 0.27844527 3.2962394
2.3959324 0.37135828 3.2380269
2.2546885 0.22063968 3.3282764
2.379745 0.36895436 3.247746
2.6241515 -0.14463021 3.3924026
2.4028826 0.29444814 3.1790063
2.6905606 0.055725951 3.5122495
2.5815651 0.030138986 3.4823766
2.5009089 -0.081181102 3.4962692
2.4986072 0.13543408 3.494154
2.8422816 0.19232269 3.597342
2.6656151 -0.10258973 3.4245393
2.352984 0.014716404 3.6926627
2.3318117 0.027654972 3.6842716
2.3219526 0.085679993 3.6996634
2.2886429 0.2652739 3.3300924
2.5279503 -0.098689303 3.4431186
2.6744351 -0.082492098 3.4325037
2.4940708 0.010755555 3.5160456
2.4894788 0.020931769 3.5165918
2.5104277 0.095787704 3.4980962
2.4769633 0.035741225 3.508189
2.4914269 0.068920672 3.5084331
2.4654355 0.036922805 3.5125747
2.4904065 0.11566302 3.503135
2.5172489 -0.12495993 3.4491799
2.4782383 0.08208584 3.5040047
2.483295 0.12393231 3.5127943
2.4531312 -0.11896063 3.5623574
2.4561501 -0.13089314 3.5760348
2.4104829 0.18733357 3.5133922
2.4858053 0.027718104 3.5011699
2.4242871 0.18202701 3.5393007
2.5922728 0.045729633 3.4686093
2.4201415 0.21421941 3.5314391
2.4261177 0.076275609 3.6247818
2.4267671 0.039857868 3.5712254
2.4351532 0.099715859 3.5872948
2.5652392 0.5628916 3.0001571
2.1848319 0.22485541 3.3759654
2.8277712 0.052124619 3.5300803
2.2484095 0.24330953 3.3517208
2.4621615 0.33615217 3.3068697
2.2893903 0.2937474 3.3188686
2.484231 0.096355334 3.5403202
2.6136076 0.088584453 3.5799553
2.3801184 0.24800187 3.2071071
2.4780536 0.062458273 3.5055499
2.5331504 0.088628203 3.4724803
2.5309722 0.069408081 3.4744966
2.5347281 -0.17186992 3.4532654
2.5749857 0.93844485 3.7096744
2.2540419 0.22025929 3.3310561
2.1242206 0.33259326 3.1601455
2.0476248 0.22744355 3.2044795
2.5579853 1.0116301 3.7384107
3.3467345 1.1381863 3.8451695
2.4807334 0.067399159 3.513829
2.318418 0.35482633 3.2281635
2.4774709 0.082283914 3.5044367
2.4358461 0.26585668 3.3364494
2.676121 0.060102556 3.4817097
2.4780495 0.11138742 3.5320182
2.4899967 0.14291964 3.4920621
2.6904914 0.060384322 3.5433176
2.4714255 0.1087668 3.4834669
2.4698625 0.083962388 3.5145726
2.4640813 0.10089321 3.5161836
2.1411669 0.31795081 3.171418
2.4186246 0.19126873 3.5162833
2.4522007 0.15672132 3.5267098
2.4391084 -0.024524787 3.5610898
2.4907103 0.20749414 3.5037923
2.4594848 -0.065134466 3.5500834
2.5815554 -0.17952666 3.4499562
2.424149 0.24043407 3.4980402
2.6024771 -0.19485064 3.4904602
2.4012854 0.29477274 3.1792147
2.3962715 0.25278428 3.2481389
2.6692631 0.11409375 3.4892042
2.1209292 0.35223791 3.1325278
2.5320015 0.090589166 3.4710941
2.5447221 0.083525769 3.4604659
2.454319 -0.11830973 3.5639908
2.5585477 0.10902136 3.4448628
2.4531484 0.020460226 3.5245335
2.4286344 0.26436678 3.2725694
2.4717212 0.065120317 3.5196304
2.4399595 -0.12195136 3.6249645
2.6222081 0.11289302 3.4619563
2.4496779 -0.11262827 3.629353
2.6293726 0.51315415 3.1431694
2.2543821 0.22761305 3.3276689
2.3764782 0.055008836 3.6745546
2.3465075 0.021304483 3.6865265
2.1825752 0.2307176 3.3662069
2.5676229 0.56377977 3.0055573
2.5703816 0.54774106 3.0039706
2.3545351 0.015643643 3.6577699
2.5486474 0.088952869 3.4583271
2.2644079 0.069687158 3.7368097
2.3674312 0.00065140164 3.7144432
2.5701911 0.56787455 3.0124216
2.3334203 0.029437792 3.6863201
2.2228625 0.19495103 3.3814447
2.4912777 -0.15860344 3.5142071
3.3789372 1.1767961 3.8047926
3.3821063 1.1784288 3.8123891
2.3549378 0.3354184 3.2532063
2.2992165 0.20678942 3.380012
2.3849683 0.25638562 3.2501171
2.4872391 0.028164182 3.4927907
2.4777665 0.029176099 3.5200696
2.5495849 0.10743088 3.4657395
2.549226 0.11460049 3.4697292
2.5307112 0.10871265 3.4559348
2.5171514 0.080300577 3.4570336
2.4264405 0.26196831 3.2591851
2.4957891 -0.15848343 3.5121877
2.4943504 0.14888136 3.5364614
2.4553459 -0.12657039 3.5584023
2.4133017 0.030784678 3.6561916
2.3768268 0.25912923 3.2394049
2.5648987 0.39906308 3.2625418
2.7688684 0.27268463 3.5829327
2.4460778 0.29177028 3.2162538
2.3488228 0.038126212 3.6769903
2.3469756 0.024974406 3.6816862
2.3237002 0.088097326 3.7006624
2.4286013 0.039919347 3.577327
2.574461 0.55407548 3.0077541
2.4439695 -0.10892853 3.5830526
2.4236891 0.19069967 3.5261219
2.4560866 -0.097642161 3.5411024
2.4574294 -0.098229587 3.5627251
2.7360282 0.3884941 3.4182878
2.5929365 -0.097141631 3.4363167
2.6238024 -0.19101977 3.503659
2.4484251 0.29020393 3.2402735
2.4363408 0.10150295 3.5911012
2.5563085 0.38428575 3.255218
2.1895831 0.28177217 3.296262
2.4901578 0.14434166 3.4915361
2.4714997 0.098506555 3.5205493
2.5118389 -0.088034041 3.4587755
2.5205133 0.061373703 3.4788969
2.245384 0.24217753 3.3462369
2.4774537 0.034456786 3.5009682
2.5616808 0.10683424 3.4610541
2.4947505 0.06912645 3.5147169
2.5151241 0.089724965 3.4821362
2.501323 0.054497831 3.4932632
2.5305164 -0.025015939 3.4868584
2.5898554 0.054108281 3.4563305
2.5850959 0.070024259 3.4529994
2.5781248 0.11795193 3.4557316
2.5575516 0.087434165 3.4657128
2.4187689 0.035614513 3.6601028
2.4081428 0.017203994 3.6958067
2.4404132 0.28984815 3.1898868
2.3789392 0.25498492 3.2256207
2.9229388 0.032790672 3.5689771
2.7905898 0.17388929 3.5827992
2.3146541 0.035942528 3.6827903
2.8228958 0.2942577 3.6220317
2.8746953 0.53589648 3.7204001
2.5805249 0.027964972 3.4458079
2.4669082 -0.061734412 3.5694568
2.5258739 0.090946019 3.4634364
2.5476532 0.089901187 3.4606459
2.2628489 0.2457082 3.3270886
2.2799022 0.28631139 3.3341508
2.664988 0.32833031 3.469553
2.1385484 0.26934987 3.2256496
2.8453774 0.16221108 3.5598693
2.1790175 0.21281047 3.4002421
2.5296862 0.058973428 3.4654851
2.3723776 0.25789827 3.2234902
2.4669044 0.0098708346 3.5200865
2.3892922 0.48957062 3.0298908
2.4711623 -0.097228341 3.5537088
2.6882577 -0.14809063 3.4010367
2.3009377 0.27567276 3.3226898
2.5514627 0.3937234 3.2759645
2.3166926 0.25373831 3.4132216
2.6558821 -0.093023889 3.4499955
2.5915959 0.40903682 3.2904351
2.4914889 0.024724782 3.499856
2.480387 0.036317442 3.5018566
2.3059037 0.21227236 3.3611419
2.2523291 0.23165014 3.3356018
2.4200637 0.21310677 3.5339997
2.3903008 0.18414928 3.5798643
2.4270217 0.073010176 3.6076705
2.4278984 0.078984447 3.6138968
2.3075807 0.059555862 3.6976025
2.4389102 -0.14139408 3.6013787
2.4345984 -0.013518088 3.577198
2.4362955 -0.0050246818 3.6649821
2.4368927 0.17785935 3.52263
2.1385927 0.26961854 3.2289877
2.4193761 0.2159508 3.5416598
2.6556568 -0.16706461 3.4488633
2.4347527 0.14554206 3.557694
2.700716 0.11475561 3.5011606
2.5716836 0.30793345 3.4474061
2.5095775 0.34942371 3.2823944
2.4123783 0.14319262 3.5879388
2.356405 0.051240746 3.6699531
2.8927817 -0.022848645 3.5038698
2.8796351 -0.023104588 3.4856098
2.0739899 0.24040809 3.2821722
2.3647356 0.095716462 3.6962764
2.1335433 0.2786155 3.2472494
2.289294 0.23908393 3.3589931
2.8376784 0.19257367 3.5753613
2.1390648 0.31904253 3.1647177
2.8054955 0.28855607 3.649164
2.6539404 -0.16411933 3.4175012
2.5587704 -0.056259204 3.4480026
2.5524688 0.39133754 3.2733359
2.5388398 0.37839758 3.3010383
2.5404215 -0.048300277 3.4639471
2.5452018 0.37038359 3.2808261
2.5531068 0.37363613 3.3154154
2.5535922 -0.050829489 3.4515572
2.5812593 0.4543258 3.2011914
2.3157578 0.25219142 3.3900278
2.3060231 0.22795491 3.4046223
2.5509021 0.38952619 3.2679219
2.5766685 0.39970461 3.2008934
2.3616173 0.35586733 3.2868626
2.4292414 0.065747447 3.6322739
2.6779284 0.10978245 3.4876344
2.4100797 0.15862478 3.5631616
2.3807034 0.25291833 3.2280602
2.622968 -0.17842342 3.4631753
2.4507709 0.28559428 3.2548947
2.3778815 0.055377685 3.6605666
2.3869357 0.049618308 3.6814907
2.6943469 0.34060478 3.4637825
2.3838584 0.049269229 3.6535904
2.3122919 0.23180605 3.475003
2.5355499 0.060609773 3.4884002
2.4890347 0.0088137938 3.5035019
2.3217332 0.22138712 3.442903
2.4451072 0.11033679 3.5633397
2.3278139 0.045264885 3.6687887
2.3842189 0.049013741 3.6522696
2.3153906 0.059409656 3.6756003
2.5537069 0.27414212 3.5052683
2.4055176 0.016736396 3.6872251
2.9370844 0.013826711 3.5878356
2.7909055 0.16901605 3.5903249
2.1902184 0.28149018 3.2966986
2.6987653 0.27847746 3.5855215
2.9060018 0.12215837 3.6319733
2.789793 0.15496071 3.5967846
2.1491601 0.31816021 3.1840026
2.4701569 0.083703183 3.5160272
2.6132934 0.08459726 3.4569166
2.4636116 0.10384119 3.523181
2.5794594 0.12610546 3.458375
2.4214647 0.18047366 3.5310059
2.4891672 0.014843026 3.5113039
2.4872558 0.011783307 3.5379603
2.2524564 0.21932773 3.3290408
2.5347323 0.067174695 3.4806838
2.6924541 -0.05039309 3.4647825
2.4651599 0.01060617 3.518985
2.5557535 0.084332861 3.455986
2.4398417 -0.127005 3.573678
2.6247976 0.072681174 3.4539187
2.6270504 0.078737453 3.4588461
2.4711144 0.083571561 3.5055735
2.4890287 0.12018471 3.5003145
2.498944 0.13514951 3.4817185
2.4983811 0.13486943 3.5006905
2.4458537 0.26540789 3.5228114
2.45855 0.13987519 3.5172348
2.4456117 0.21515568 3.4863746
2.1841295 0.2268164 3.375237
2.5301147 0.2297321 3.5655622
2.6147261 0.088686377 3.4578259
2.5979555 0.12210312 3.4588673
2.4782617 0.1138065 3.5315211
2.4343367 0.085588418 3.5924244
2.4208479 0.17078269 3.523911
2.4183726 0.17121656 3.5248549
2.4253774 0.24088234 3.5066988
2.4346869 0.11514298 3.5898869
2.4280217 0.12903361 3.5929976
2.8635087 -0.0026920147 3.5264833
2.847923 0.029150963 3.5396438
2.4741726 0.017977575 3.5110266
2.4720449 0.11567085 3.5198023
2.5434191 0.2287233 3.5141511
2.4191072 0.032691058 3.6653364
2.3586907 -0.0064625079 3.6933751
2.4869685 0.026633466 3.4883189
2.7881157 0.27885833 3.62835
2.8712666 0.17065792 3.6207755
5.5005112 1.3054988 5.2030807
2.8492849 0.16410628 3.5658894
2.4224577 1.0769938 3.3356316
2.6209621 0.2296692 3.5057957
5.3731833 0.91445071 6.0510855
5.7622161 1.0181053 6.6317225
2.5718164 -0.11415309 3.4190414
2.558557 0.21047437 3.5261393
5.1718869 1.0615439 5.0149941
2.5792236 0.43814382 3.216032
2.7554247 0.2572732 3.569303
2.4774332 0.048982374 3.5947986
