# .PCD v0.7 - Point Cloud Data file format
VERSION 0.7
FIELDS x y z
SIZE 4 4 4
TYPE F F F
COUNT 1 1 1
WIDTH 417
HEIGHT 1
VIEWPOINT 0 0 0 1 0 0 0
POINTS 417
DATA ascii
2.4859869 0.060789526 3.5296705
2.3976934 0.17359459 3.5759215
2.4101992 -0.053980984 3.5725284
2.3798749 -0.070187293 3.632869
2.2994328 0.2754949 3.3513095
2.6131294 0.40652159 3.4517472
2.3533542 0.32128671 3.3021462
2.347909 0.17792022 3.6089222
2.339294 0.27434015 3.5737638
2.3024788 0.20534419 3.6389329
2.3460248 0.19911873 3.5954616
2.313179 0.18475547 3.6203794
2.2728384 0.083152018 3.7542629
2.4553318 -0.099402927 3.5159957
2.4005342 0.1284813 3.5758722
2.3758125 -0.13742208 3.649112
2.4302957 -0.082472876 3.5441744
2.4239025 -0.056949832 3.5425959
2.4898269 0.14755587 3.5355058
2.3561332 0.2225983 3.5694981
2.1316426 0.052783839 3.85127
2.2671499 0.079326481 3.7542615
2.2317257 0.35726473 3.3640902
2.5657578 0.11029229 3.5414407
2.3272197 0.26173928 3.5780766
2.465976 0.12751035 3.5393498
2.5733774 0.28278726 3.6376352
2.445272 0.57011384 3.0762107
2.734704 0.16764766 3.6629362
2.4485343 0.56663907 3.0743825
2.471863 -0.11906958 3.4916375
2.7542837 0.22778173 3.6452932
2.5315707 0.31461394 3.5952625
2.0741799 0.30892262 3.3232331
2.4452286 0.22522841 3.5681398
2.4538236 0.13136494 3.5373528
2.4896147 0.14847219 3.5371108
2.5295463 0.14026408 3.5378497
2.446516 0.56243187 3.0735621
2.2422709 0.3452867 3.3175986
2.0861821 0.29174197 3.3809872
2.5312026 0.092544086 3.5517633
2.4400241 0.108392 3.5557239
2.6399541 0.28840387 3.6000056
2.4560585 0.46214011 3.265671
2.45081 0.40123034 3.3637371
2.7453761 0.069893345 3.5836163
2.489063 0.11290292 3.5788653
2.0344219 0.2746489 3.306179
2.4926548 0.31310329 3.5787983
2.1962757 0.23321959 3.4699619
2.3715887 0.092242271 3.6018465
2.4837034 0.43001154 3.2459083
2.4290247 0.39430803 3.3656099
2.31932 0.25972575 3.5559378
2.1458757 0.035206769 3.808593
2.3584645 0.10689246 3.6554725
2.4395092 0.25208718 3.5920284
2.307889 1.0008177 3.6965382
2.1815271 0.013913481 3.780551
2.0847363 0.29016966 3.3849907
2.1523361 0.23488246 3.4155266
2.608712 0.087478951 3.5858326
2.2697678 0.38502195 3.3272686
2.4782245 0.10110617 3.5184698
2.5345092 -0.11839595 3.4718769
2.2923529 0.30982557 3.259099
2.4366114 -0.058009807 3.5528378
2.472827 0.42642117 3.3338282
2.3765841 -0.078807421 3.6439688
2.4136374 -0.056376427 3.5793309
2.3016315 0.20945993 3.6381977
2.7505999 0.22868286 3.6615062
2.1611028 -0.032986097 3.773212
2.2707944 0.039244812 3.7795835
2.238008 0.10942748 3.7864556
2.3750911 0.037947252 3.6014197
2.410394 0.38711107 3.3277156
2.3307383 0.27628779 3.5443468
2.449398 -0.095538616 3.5273111
2.3816206 0.0079066055 3.5826323
2.4667363 -0.030600781 3.5261981
2.4550579 -0.058255471 3.5455365
2.5844951 -0.054058712 3.5087523
2.2155604 0.23870662 3.5128882
2.479418 0.057160757 3.5384808
2.2493751 0.0482472 3.7720742
2.4434197 0.095461451 3.5559924
2.4180627 0.12079179 3.5773969
2.4002721 0.093611702 3.5889926
2.5204864 -0.1052305 3.4617
2.4293869 -0.10061857 3.532474
2.3942358 0.12812786 3.5872722
2.3696072 -0.094149731 3.6479762
2.3257425 0.23726739 3.612035
2.3389974 0.064004637 3.65485
2.7128873 0.19922651 3.6344364
2.3462601 0.12438923 3.6694269
2.1811624 0.22710861 3.4385879
2.2011266 -0.043324262 3.7520866
2.2119527 -0.034863848 3.7617023
2.7375529 0.08679729 3.5975652
2.3245485 0.27869937 3.3247163
2.1463237 0.25783506 3.4387648
2.4275515 0.10603545 3.5423315
2.5591335 -0.045168828 3.5230024
2.1844988 0.30873904 3.4033515
2.4194856 0.11852825 3.5829678
2.4730811 -0.06420435 3.5344954
2.4139621 -0.056170151 3.5883987
2.1208961 0.20889017 3.4569683
2.4821813 -0.14916603 3.4931178
2.4521129 -0.14227939 3.5152597
2.4540486 -0.0777051 3.5190051
2.4830942 -0.14034456 3.487726
2.448313 1.0422902 3.7980909
2.3898473 0.091897227 3.5948377
2.385787 0.1064904 3.5852997
2.3865986 0.13615084 3.6122754
2.3960469 0.16719392 3.5712807
2.3781557 0.13236147 3.5640848
2.3785362 0.10815734 3.5956962
2.5197024 0.15510124 3.5676467
2.3723319 0.12494662 3.5972121
2.0299678 0.32574233 3.2614758
2.3243015 0.21398091 3.5973928
2.3592522 0.18061715 3.6071339
2.395339 0.23198688 3.5817378
2.1215293 0.23444997 3.4457386
2.4952362 -0.15331379 3.5317349
2.3276725 0.26290378 3.5780087
2.2896729 0.26939875 3.3292232
2.0162051 0.35968456 3.2245941
2.226284 0.23662157 3.5123065
2.4387038 0.11566141 3.5496626
2.4511983 0.10874776 3.5386739
2.3708389 -0.093432494 3.6495483
2.3640819 0.044421539 3.6075251
2.0819361 0.2927399 3.381628
2.3811398 0.089481734 3.6010351
2.190973 0.20729412 3.4825785
2.3589926 -0.096244901 3.7111032
2.5277951 0.14032362 3.5365207
2.1576183 -0.0020325293 3.7906942
2.1737287 0.0472541 3.7824087
2.4548771 0.11423954 3.5362773
2.4069753 -0.13366176 3.5991132
2.4381216 -0.053915747 3.5566299
2.3966632 0.052444663 3.5743103
2.3882418 0.053739559 3.6019201
2.4555657 0.13288292 3.5432923
2.5759802 -0.073726118 3.5015509
2.0620446 0.31918284 3.3161862
2.4113986 -0.1334548 3.5969141
2.197078 0.29509258 3.3992999
2.1930852 0.21091574 3.4608405
2.3291428 0.056274869 3.7404423
2.6022069 0.33130541 3.6049283
2.3486524 -0.14986032 3.6898038
2.1828377 0.29915926 3.4751134
2.4544039 0.42065987 3.3341122
2.1454129 0.034125961 3.8029568
2.3410666 0.064241551 3.6608715
2.0609701 0.32279652 3.3184588
2.3479574 0.24304347 3.6174262
2.3711052 -0.073190585 3.6262171
2.3475435 0.12628594 3.6731482
2.445967 0.40549979 3.3274195
2.3897715 0.15612221 3.5471578
2.3799822 0.12286004 3.6013241
2.3785956 0.12819017 3.592263
2.428386 0.086295977 3.5584729
2.4674811 0.13253468 3.538142
2.4265637 0.40494907 3.3641379
2.4038322 0.09403874 3.595134
2.4257243 0.12626089 3.5864606
2.409982 0.079171099 3.5737195
2.4440284 0.45779598 3.2734752
2.4412048 0.00040339143 3.5676789
2.4969723 0.080543682 3.5333097
2.4916244 0.09624768 3.5298669
2.426899 0.020398656 3.5804508
2.52984 0.12815243 3.5319152
2.2476714 0.11800964 3.7723341
2.3346162 0.061335895 3.74404
2.437547 -0.10733925 3.5449767
2.2714145 0.27065104 3.3073742
2.7946784 0.022565741 3.5586562
2.5718112 0.31214949 3.6124079
2.6244199 0.26965079 3.6262269
2.3335915 0.50123179 3.1321001
2.0459845 0.32061583 3.2794111
2.7292364 0.33050624 3.6849954
2.4684064 -0.067470513 3.5255699
2.4619827 0.46107036 3.2923172
2.4658022 0.41257545 3.3612597
2.4880018 0.05393881 3.5236678
2.4090912 0.089417309 3.5632491
2.4351568 0.42754379 3.2989585
2.3819797 -0.036424041 3.6534278
2.3958302 0.095276527 3.5870166
2.4322729 0.1156894 3.5422492
2.4987111 -0.15168849 3.5407834
2.1597104 0.26014304 3.4135365
2.1758378 0.30134788 3.419138
2.564548 0.35699651 3.5382931
2.2601166 0.38060367 3.3114147
2.2496181 0.11109822 3.760772
2.0308933 0.27819422 3.3166873
2.7530999 0.19791888 3.624522
2.4370921 0.083885714 3.5447552
2.3920434 -0.029829912 3.5986073
2.4975152 -0.043751374 3.514395
2.3831339 0.040658887 3.5400198
2.5223868 0.12333784 3.5399878
2.3866448 -0.072094582 3.6382039
2.1967084 0.29108 3.4070551
2.4415367 0.41859469 3.345607
2.5669565 -0.064755976 3.5271661
2.3668253 -0.11277146 3.6519353
2.3444362 -0.15198241 3.6892447
2.4446576 0.41210079 3.3363733
2.3411098 -0.15069176 3.6768894
2.4592679 0.42030719 3.3816307
2.4511209 0.41251758 3.3770604
2.4012849 0.049270798 3.5812657
2.3899372 0.060582235 3.5834842
2.1455975 0.25605875 3.4136863
2.3257976 0.23620504 3.6146176
2.2987111 0.20734975 3.6621742
2.3397148 0.097881645 3.6906161
2.3406603 0.10400315 3.6966877
2.1480486 -0.0081394259 3.7993865
2.4149313 0.038104441 3.5975318
2.439642 0.4153626 3.3343487
2.1518557 0.23591571 3.4239354
2.5776064 -0.093257017 3.5168769
2.3779206 0.1414123 3.6518185
2.3431873 0.20122591 3.6032631
2.0310605 0.27853155 3.3200152
2.047785 0.31948563 3.2792225
2.2722576 0.075384364 3.756062
2.2803149 0.12060196 3.7811787
2.0264709 0.2877495 3.3382881
2.7451332 0.22835836 3.6397252
2.0275736 0.32663822 3.2548449
2.4467547 0.46065894 3.2796974
2.3496611 -0.17092985 3.6417241
2.4304867 0.40004739 3.3740022
2.4384003 0.38039881 3.2838907
2.2135184 0.23575638 3.4998124
2.0462005 0.31606761 3.2846727
2.4667306 0.47511113 3.2711153
2.4461105 -0.058605067 3.5260808
2.4409125 0.41084093 3.3402259
1.95459 0.22738011 3.3753383
2.3185549 0.18206331 3.645189
2.3403764 0.088071309 3.6953914
2.8050363 0.038646944 3.6062074
2.008919 0.2605629 3.353554
2.4450765 0.25446412 3.5922489
2.3434165 0.30387029 3.3331785
2.29322 0.079937547 3.7457516
2.3032513 0.074861765 3.7664053
2.2990942 0.073861018 3.7386613
2.2152972 0.2506443 3.5596063
2.2438288 0.068578169 3.7561498
2.2312756 0.082500085 3.7631786
2.0264957 0.33373269 3.2266991
2.605345 0.39339438 3.4365966
2.3787022 -0.16440822 3.5870409
2.3229935 0.042642545 3.7720234
2.0180571 0.35880879 3.2375059
2.8480625 0.052048482 3.6439168
2.1214597 0.21444018 3.4630415
2.7276185 0.22139497 3.6222105
2.3491745 0.052783396 3.7121611
2.69924 0.18984453 3.6637502
2.2530792 0.31569692 3.3368578
2.1413453 0.25896356 3.4367797
2.184303 0.29105729 3.4466701
2.4208188 0.12238491 3.5816152
2.4069388 0.12229201 3.5728385
2.3951561 0.14995541 3.5734618
2.3888829 0.15499544 3.593843
2.1909184 -0.036736477 3.7929931
2.3595214 0.1192753 3.5885389
2.4845724 0.1522439 3.5343902
2.3280299 0.20357084 3.6121943
2.3777211 0.15606555 3.6176381
2.3563669 0.22274436 3.5707743
2.3533292 -0.096032187 3.7016501
2.452913 0.14048839 3.5393527
2.3410382 0.30146402 3.3896716
2.3712187 0.12195753 3.6141243
2.5561299 0.14839473 3.656476
2.3997028 0.039560921 3.5929835
2.3989275 0.036988363 3.6197484
2.3098283 0.31105703 3.2679963
2.1501749 0.23352352 3.416404
2.4424891 0.092532635 3.5595815
2.3761482 0.034801621 3.6016927
2.2693772 0.29573786 3.3362126
2.4290512 0.10666268 3.5753999
2.4620175 0.10977638 3.5337443
2.1862717 0.31337151 3.4071412
2.3570118 -0.10233677 3.6599681
2.4345341 0.1320304 3.5417726
2.0177324 0.3569586 3.2335868
2.3711581 0.065573379 3.5855742
2.5312376 0.1000469 3.5291562
2.3794451 0.10762009 3.5866635
2.2875834 0.30424094 3.2848918
1.9471803 0.21966439 3.3698912
2.372997 0.08868704 3.6075091
2.396066 0.14461237 3.5799978
2.5768075 0.09061791 3.5519912
2.4048047 0.15947276 3.56074
1.9480327 0.22164279 3.3645954
2.137706 0.25597131 3.4382956
2.0422773 0.2701396 3.1551256
2.3588841 -0.095152117 3.5999563
2.4739709 0.43189135 3.3561227
2.4262733 0.39459476 3.3612533
2.2016182 0.23583977 3.4736717
2.3848677 -0.071992472 3.6362817
2.3845687 0.050191514 3.5793629
2.5344207 0.12715931 3.5414093
2.520865 0.115836 3.5331542
2.3867207 0.13856442 3.6117241
2.3173316 0.18191545 3.6302783
2.3850012 0.14786583 3.6318753
2.3775442 0.13635164 3.60041
2.3629291 0.11811653 3.7434595
2.3460569 0.11035103 3.6748538
2.5766654 0.089279667 3.5468972
2.4463196 -0.1505111 3.5757229
2.3274179 0.19372469 3.6053162
2.0373833 0.33153954 3.268218
2.32497 0.19410725 3.6063492
2.3399851 0.10496945 3.6909101
2.0896671 0.25957668 3.4712441
2.1741352 0.032630764 3.7621548
2.079416 0.2267848 3.4986837
2.3385069 0.15360247 3.6748476
2.2653706 0.077292934 3.7513068
2.1254275 0.067962624 3.830085
2.1500175 0.26309133 3.4241238
2.2650151 0.11608057 3.7743332
2.5723569 0.39354539 3.4764495
2.4082036 0.42445603 3.2308612
2.6224434 -0.017111372 3.5798855
2.7777474 0.081121258 3.6455722
2.146246 0.22765234 3.4569094
2.0778835 0.23210299 3.5021906
2.3394723 0.32737079 3.2947059
2.4435086 0.39566705 3.3057365
2.4402053 0.3960937 3.3670819
2.4439156 0.39379972 3.3250344
2.4409482 0.39789802 3.3688121
2.4288437 0.37986928 3.3377831
2.3524592 -0.082834415 3.6474252
2.2286353 0.24603927 3.5496345
2.2068326 -0.085998662 3.7444651
2.35675 -0.10701676 3.7044158
2.3681343 0.0440397 3.6153085
2.4373639 0.11313197 3.5214391
2.4066479 0.37244797 3.2928319
2.4465029 0.40476573 3.3417344
2.3846238 0.042262949 3.5932429
2.4650216 0.12715985 3.5331361
2.3094625 0.24567774 3.5817358
2.1521084 0.03017804 3.7984228
2.3557217 0.14935376 3.6813872
2.2656674 0.078532137 3.7562218
2.343472 0.1475547 3.6796069
2.254782 0.12719472 3.7715614
2.7561502 0.091169789 3.6124537
2.6654797 0.17539872 3.6913798
2.6520257 0.28562716 3.6850891
3.3222935 1.2945756 3.9023719
2.3784859 0.12717856 3.5956318
2.539114 0.09183415 3.540647
2.3473413 0.21222714 3.5892999
2.3631916 0.22554025 3.5785966
2.3085794 0.25636178 3.6129949
2.3473678 0.13626872 3.6777918
2.3745518 0.15926686 3.5687196
2.3337426 0.1618821 3.7066116
2.1316063 0.050493289 3.8562794
2.5859368 0.36327904 3.5186327
2.2989702 0.2727344 3.340656
2.1705289 0.092525013 3.8179281
2.3352442 0.058529716 3.7493107
2.6936781 0.18828979 3.7411327
2.3687894 -0.10989292 3.6618738
2.3962622 0.050816704 3.5698831
2.4880121 0.095744945 3.5232406
2.3872409 0.10654457 3.588295
2.7810998 0.20832704 3.6841781
2.5248685 0.2578809 3.5781362
2.4823933 -0.088881582 3.4999886
2.4411762 0.39468387 3.3753285
5.0085945 1.6300201 4.4050326
4.7418747 1.5594643 4.1509924
2.4371245 0.21828614 3.5759413
4.9377332 1.5879065 4.3569136
2.0558479 0.31664893 3.3152056
4.5819802 1.6021199 3.8970671
2.1530361 0.010738531 3.7881536
4.6997747 1.5792184 4.0731726
5.1076827 1.1920981 4.9685388
2.2315526 -0.093504265 3.7730789
2.7386835 0.19579367 3.6153188
2.4657505 0.45918164 3.2863317
2.660856 0.29056463 3.6357074
2.3691583 0.147238 3.6244206
