# .PCD v0.7 - Point Cloud Data file format
VERSION 0.7
FIELDS x y z
SIZE 4 4 4
TYPE F F F
COUNT 1 1 1
WIDTH 268
HEIGHT 1
VIEWPOINT 0 0 0 1 0 0 0
POINTS 268
DATA ascii
2.3460515 0.010648071 3.5827036
2.4240887 -0.096552141 3.5489068
2.3321338 -0.21660197 3.5716465
2.3117723 -0.039289691 3.6185069
2.1363466 -0.079027191 3.742795
2.077224 -0.19511189 3.7218845
2.1216233 -0.23114963 3.710428
2.2340322 -0.098819718 3.740804
2.2703052 0.22734144 3.3110206
2.2470417 0.05224935 3.6328113
2.2954373 0.041808959 3.5957484
2.257848 0.030963985 3.6151257
2.2992823 0.018037552 3.6217732
2.1867425 -0.068168841 3.7375679
2.3913221 -0.19175087 3.5395641
2.3793976 -0.26581106 3.5202594
2.1097097 -0.18334873 3.7326732
2.358387 -0.27085078 3.4981003
2.6534297 0.083820917 3.7141352
2.3013773 -0.0027343545 3.6177378
2.3119144 0.064500973 3.5724857
2.0303125 -0.083411753 3.8121746
2.247452 0.20192933 3.3351715
2.1807063 -0.071270004 3.7365987
2.4525595 0.23239021 3.3821793
2.4279897 -0.1184746 3.559011
2.2868514 0.10666001 3.578491
2.4130611 -0.042528734 3.5543199
2.5123091 0.41038686 3.1117799
2.0375342 0.2448145 3.1821883
2.3510942 -0.11550226 3.5915408
2.4642432 0.23106094 3.3770714
2.6925483 0.019190909 3.7042441
2.4912753 0.13375466 3.6267309
2.4018681 -0.037171856 3.5507784
2.3344276 -0.14696135 3.6610496
2.2630982 0.23703592 3.332854
2.2512627 0.20624438 3.3122923
2.082396 0.17063864 3.3505695
2.4807858 -0.038948812 3.5593741
2.4738591 -0.086831033 3.5547352
2.4215536 -0.11501502 3.5474014
2.0808387 -0.053744044 3.7967255
2.452841 0.23612843 3.3927279
2.0392776 0.16462985 3.2723856
2.3533285 -0.084446996 3.5826528
2.0369463 0.24623832 3.1784906
2.0404761 0.1618121 3.2685184
2.2787409 -0.039366059 3.6683002
2.2715993 -0.046790436 3.6347673
2.1977766 -0.066080667 3.7403243
2.4344649 0.22327402 3.3437526
2.134727 -0.079696462 3.766053
2.4357061 0.23176509 3.3683212
2.6340795 0.11069019 3.7366817
2.2025888 -0.088550068 3.7553358
2.0850852 -0.12635653 3.7477055
2.0802064 0.16915807 3.3542578
2.2987919 0.24305548 3.3194785
2.1356618 0.10530648 3.3917613
2.2815213 0.24207866 3.3274186
2.3771801 -0.082213856 3.5593274
2.4848826 0.25820243 3.3644879
2.4045744 -0.042468742 3.5964231
2.2438905 -0.11712319 3.6909273
2.3342361 -0.2195635 3.5787628
2.3519835 -0.0036605156 3.5804484
2.1006744 -0.18763028 3.7158418
2.686667 0.020141803 3.7197924
2.1890988 -0.05198684 3.7409694
2.0605929 -0.1702195 3.7355917
2.1758847 -0.11209871 3.7604899
2.1509082 -0.038625207 3.7655501
2.1731753 0.14657645 3.3979216
2.3649979 -0.23903243 3.5283899
2.5126512 -0.23641536 3.5333405
2.1569979 -0.10036892 3.7503946
2.3301179 -0.11701582 3.5996842
2.3596499 -0.044266921 3.5848582
2.3199613 -0.10103368 3.5903049
2.3372917 -0.069344372 3.5926659
2.2765257 -0.25333077 3.6388206
2.2769871 -0.26561362 3.6525133
2.3601637 -0.27065051 3.5677474
2.277904 0.049228534 3.6184952
2.439219 -0.10144459 3.5631008
2.2610664 -0.056994345 3.7017236
2.2640073 -0.09283568 3.647856
2.2760959 -0.03416099 3.6658194
2.1088474 -0.23639801 3.7160814
2.1017814 -0.18485221 3.7199564
2.0966678 -0.24468981 3.7142901
2.6665475 -0.11749697 3.6487925
2.1290536 0.12825139 3.4148445
2.3723624 -0.059217077 3.5509133
2.5217075 -0.039961003 3.6054068
2.3293238 -0.041645616 3.6241384
2.4632344 -0.054484285 3.5580933
2.2751026 0.1219817 3.2847958
2.3237607 -0.074510865 3.5882902
2.3841879 -0.053276911 3.5616109
2.3800621 -0.072228909 3.5630322
2.3639529 -0.31261384 3.537823
2.1392291 0.13435102 3.4094236
2.1346948 0.10496302 3.3944511
2.4473202 0.23734367 3.3881469
1.9442465 0.13241552 3.2472878
2.3259964 -0.069914281 3.5968933
2.3251135 -0.054707654 3.5874915
2.5221875 -0.095038325 3.5850985
2.4742575 -0.019203551 3.6221683
2.3254492 -0.026030939 3.6155205
2.3443611 0.0046107406 3.5776136
2.3237517 -0.027591731 3.5665035
2.3123214 -0.035040829 3.598129
2.0486257 0.21413565 3.2258031
2.2755601 0.059161209 3.5951903
2.3045547 0.021553203 3.6084013
2.2748635 -0.17058405 3.6515751
2.3497391 0.068732634 3.5905533
2.2631199 -0.13648255 3.6448762
2.2874427 0.1077618 3.5785365
2.3032703 0.16683164 3.2601256
2.0358062 0.2504997 3.1856668
2.1943653 0.095656678 3.4980555
2.3162541 -0.071397983 3.6016846
2.1605823 0.071589619 3.4624155
2.2566309 -0.25564378 3.699656
2.475702 -0.037294932 3.5608408
2.0582473 -0.13950503 3.753675
2.2518539 -0.27111962 3.690764
2.1707187 -0.10488315 3.7538383
2.1806958 -0.032329492 3.7310448
2.1073074 -0.25097147 3.7169101
2.51226 0.40455607 3.108115
2.1811719 -0.11100824 3.7259698
2.0885592 -0.049535491 3.7962186
2.250644 -0.14719453 3.7070761
2.1585243 -0.095568046 3.7524257
2.1331496 0.13911089 3.443773
3.2863014 0.94863027 4.0000968
2.2533159 0.21094415 3.3296499
2.361892 -0.21956129 3.5598943
2.3189082 -0.10775077 3.6020803
2.4028897 -0.036022391 3.5569632
2.3339784 -0.21979843 3.583849
2.320426 -0.29619518 3.5926237
2.2565584 -0.25561893 3.6950636
2.2409158 -0.10137688 3.730782
2.4155524 -0.30152193 3.4922671
2.2694669 0.13307801 3.3167789
2.1755512 -0.088264726 3.7449081
2.0834954 -0.12595528 3.7493205
2.152755 -0.03638963 3.7667696
2.0487084 -0.10243474 3.765574
2.0723922 -0.22872923 3.7112839
2.4698372 0.30241996 3.3370063
2.5164812 0.41045025 3.1124184
2.266196 -0.24267621 3.6586361
2.2826388 -0.23309259 3.640018
2.6181984 0.22692309 3.5343549
2.430207 -0.24346617 3.5284004
2.3189907 -0.038144998 3.6031961
2.3483727 -0.22706707 3.5424852
2.3685081 -0.079296157 3.5661731
2.1265302 0.12745425 3.4090564
2.3399417 -0.069504239 3.5992634
2.1611972 0.169597 3.4198844
2.3664932 -0.039995596 3.5951388
2.3083682 -0.16741504 3.5762329
2.365423 -0.05059696 3.5693622
2.3473668 -0.084488012 3.5783396
2.3696787 -0.16630901 3.5735221
2.4388814 -0.092768423 3.5507951
2.4359732 -0.076450109 3.5472844
2.4331651 -0.028108474 3.5501692
2.1634703 -0.030947417 3.753315
2.2463603 -0.097110756 3.7353284
2.3567629 -0.27221659 3.5460629
2.5726817 0.077053383 3.6686764
2.7267838 -0.035209402 3.7434773
2.5369635 0.17316186 3.5768416
2.0657609 -0.23687452 3.7433722
2.0936282 -0.24330622 3.7247579
2.45065 0.24925826 3.3584676
2.2260389 -0.12399273 3.8372047
2.3787813 -0.082418196 3.5537436
2.331347 -0.13982297 3.5917435
2.3133228 -0.19105406 3.5958636
2.3593943 -0.072103061 3.6045291
2.4726982 -0.086666986 3.5541213
2.2727222 -0.29258242 3.6325381
2.5200906 0.26119313 3.384088
2.1870787 0.15585418 3.3920298
2.4508646 0.25054029 3.3737645
2.1911621 0.13174444 3.4832842
2.295778 0.042903036 3.6571584
2.0857756 -0.2340043 3.7224319
2.2401807 0.054135937 3.6553445
2.3121409 -0.013798675 3.7016821
2.0219815 0.27961123 3.184113
2.0934229 -0.17502086 3.7243528
2.0468607 -0.14460662 3.7606571
2.3439322 -0.1264168 3.6008823
2.2562923 -0.27469382 3.6757312
2.3112497 -0.018130811 3.6069114
2.2917573 0.04405709 3.6031485
2.2829993 0.011766647 3.6371939
2.184998 -0.075848773 3.7389412
2.6844411 0.021015337 3.6974609
2.6535926 0.1189094 3.7692964
2.4864697 -0.31564933 3.5147765
2.4519191 0.24809483 3.3712106
2.4420199 0.22784033 3.3775153
2.3938789 -0.19383806 3.540333
2.4937682 0.30877826 3.303628
2.4507709 0.2464852 3.3656304
2.2591882 0.027034938 3.6403134
2.1258974 -0.22317363 3.7121418
2.1167836 -0.24592012 3.7065802
2.2076297 -0.073640667 3.7319133
2.2138703 -0.080402486 3.7535534
2.2137229 -0.08021532 3.7254827
2.1562614 -0.079132877 3.7347043
2.2141953 -0.080491379 3.7242019
2.2758386 0.048018068 3.6099248
2.3481395 0.016331533 3.5865755
2.3298085 -0.12300191 3.5942805
2.3248348 -0.1261086 3.620533
2.5300374 -0.20641781 3.5679066
2.2834754 -0.2349415 3.6393323
2.3188171 -0.052845426 3.587986
2.3535979 -0.0038641884 3.5681119
2.4833908 0.26294997 3.3869269
2.4665139 -0.060664251 3.5555067
2.1370394 0.1051896 3.3949349
2.3223908 -0.014687141 3.635165
2.2645152 -0.053184286 3.685365
2.2877901 0.10801678 3.5872827
2.2711151 -0.0043596895 3.6712949
2.0290833 -0.06707859 3.790972
2.6833978 -0.14232728 3.6599672
2.2823389 0.24211343 3.3158002
2.0388408 0.17849088 3.28249
2.2724493 -0.30728444 3.6266782
2.2768357 0.10611367 3.5964351
2.2762301 0.039302342 3.6093898
2.1788704 -0.071924657 3.7382936
2.1716456 -0.022683326 3.7539439
2.2235091 -0.091587313 3.7521701
2.2122552 -0.031319335 3.7584772
2.0729449 -0.19382177 3.7202566
2.2991683 0.054804001 3.5903878
2.3178635 0.06633763 3.5826097
2.1094542 -0.23435584 3.7082419
2.275866 -0.030830069 3.6755459
2.3580232 -0.14566588 3.5640216
2.0955226 -0.24263431 3.708652
2.6744323 0.090079404 3.7405939
2.3706377 -0.16734508 3.5629184
2.0292227 -0.11294641 3.778739
2.7109265 -0.0043294244 3.7457008
5.2195191 0.68399018 5.7903013
2.0106962 0.43932143 3.258389
2.4095526 -0.25828785 3.5087128
2.3900239 0.050176814 3.5901885
2.122715 -0.2388659 3.7429514
2.4887135 0.29272354 3.3178737
