# .PCD v0.7 - Point Cloud Data file format
VERSION 0.7
FIELDS x y z
SIZE 4 4 4
TYPE F F F
COUNT 1 1 1
WIDTH 527
HEIGHT 1
VIEWPOINT 0 0 0 1 0 0 0
POINTS 527
DATA ascii
0.35604945 -0.18899438 3.8153985
1.5051744 -0.073515676 3.91819
1.5195895 -0.23048425 3.8826518
1.2881551 -0.18717173 4.0494833
0.78324717 0.0041071489 3.5096984
0.66436768 -0.37266418 4.0237985
0.9384802 -0.21339595 4.0934796
1.3501152 -0.083654754 3.9783735
1.2223777 -0.18930387 4.057765
0.54285872 -0.11317111 3.7505708
1.1983248 -0.34027043 4.0255747
1.1660424 -0.36644319 4.0796056
0.66946727 -0.23549303 4.0416255
1.5772487 -0.19999658 3.9397159
0.71777147 -0.53482836 3.8489223
1.3595738 -0.090167657 3.9373102
1.1545432 -0.36201045 4.0920162
0.93246567 -0.21900338 4.0980892
1.1089897 -0.21841729 4.0781884
0.910402 -0.041517328 3.6230319
1.2483373 -0.24061973 4.0656118
1.1886644 -0.29145932 4.04669
1.3626045 -0.26755553 3.9371476
1.4420849 -0.1621898 3.909322
1.425972 -0.11338696 3.9188857
0.52396768 -0.14445549 3.7639999
0.79580438 -0.3703813 3.9072151
0.39435995 -0.25900546 3.8956878
1.263482 -0.14245942 4.0767808
1.5398064 -0.16066718 3.8889592
1.3714509 -0.2131256 3.9547279
1.1570475 -0.16057642 4.0941534
1.3060421 -0.22945423 4.0767503
0.73527229 -0.53538203 3.8935342
1.418577 -0.06125256 3.897958
0.75250804 -0.09055572 3.7174025
0.43776473 -0.15637296 3.780416
1.3515004 -0.19197042 4.0412951
1.1357237 -0.29332942 4.0649929
0.69077462 -0.26986524 4.0016956
1.1349243 -0.20666859 4.0689058
0.75843084 -0.26992026 3.9524977
0.36264852 -0.18468985 3.8129961
0.80083048 -0.17695208 3.9207296
1.5988756 -0.0049404576 3.9629984
1.5018204 -0.16959469 3.8827016
1.5394399 -0.15973005 3.8905239
0.90686947 -0.21400847 4.1074872
1.1626643 -0.19881926 4.0746984
0.84422857 -0.15252811 3.9305179
1.1656516 -0.15932803 4.1078897
0.94353545 -0.10616934 3.7607515
1.375028 -0.049508452 3.9238727
1.5646976 0.0011314108 3.9388573
1.1674978 -0.23261908 4.0597377
0.82485873 -0.04642373 3.5992556
1.5524079 -0.16233645 3.8881156
1.1804072 -0.29525033 4.0293493
0.80281436 -0.17422853 3.916666
1.25813 -0.22502381 4.0781598
1.4449086 -0.16368182 3.9124777
1.3696584 -0.15587918 3.989506
1.1848611 -0.34448561 4.0304422
1.1814595 -0.29251495 4.0335069
1.1722295 -0.35186642 4.0279384
1.2512797 0.014121085 3.7285962
0.74809307 -0.17264961 3.9304531
0.9596861 -0.26906142 4.0420194
1.5347886 -0.24998105 3.8843017
0.8458066 -0.26938507 3.9623575
1.2622051 0.019381672 3.7237899
1.4098923 -0.16024327 3.9242587
1.4554039 -0.059643593 3.9183598
1.139426 -0.24365966 4.0640821
1.333245 -0.2662138 4.0298405
1.2662054 -0.24105367 4.1017981
0.9485876 -0.31910989 4.0504036
1.4243495 -0.2360402 3.9037931
1.486045 -0.1641729 3.8761344
1.3152672 0.040933207 3.7019818
1.6677762 -0.002238872 3.9876347
0.79822981 -0.020425398 3.5455942
1.2558191 -0.21402963 4.0665154
1.3704687 -0.15427309 3.9934878
1.464489 -0.20893279 3.8962376
1.2523239 -0.14326152 4.0696545
1.5228676 -0.25214338 3.8730593
0.88139188 -0.093677036 3.6989925
1.4771605 -0.18081643 3.8824103
0.82103151 -0.069108382 3.6310308
0.9033097 -0.12948444 3.7929475
1.3993069 -0.31591263 3.9231334
1.3547333 -0.1748469 4.0141549
1.3950561 -0.079779305 3.9274194
0.90743446 -0.038888387 3.6260221
0.91188073 -0.03514595 3.6498964
1.188817 0.10491709 3.5273092
1.3117821 0.012153361 3.777766
1.2944059 -0.1893741 4.0513916
0.37937444 -0.15151981 3.7184019
0.90538716 -0.037365977 3.6249015
1.1920481 0.14332178 3.4905751
1.7637486 -0.13435444 4.0256057
0.88396585 -0.095065311 3.7011676
0.90587437 -0.13170728 3.7925112
0.49129757 -0.44738927 3.8000529
0.82665801 -0.072383963 3.6461465
0.71269912 -0.057730611 3.6230161
0.90615362 -0.034972589 3.6288533
0.75927007 -0.14657347 3.8936148
0.71145976 -0.084879711 3.7400675
0.86358285 -0.087248467 3.6781929
0.86708444 0.036850981 3.5610731
0.75822318 -0.053929772 3.6115217
0.86772972 -0.062929586 3.6475999
0.79065561 -0.048155464 3.5891492
0.75628483 -0.055584904 3.6042883
0.67473894 -0.035092544 3.5820267
0.8330161 -0.015344162 3.5634215
0.77384877 -0.051568165 3.5972993
0.93303204 -0.073245317 3.6857572
0.81076735 -0.029369133 3.6135666
0.79074401 -0.058893703 3.6025815
0.8201279 -0.090174831 3.6927385
0.79209 -0.050311193 3.5731897
0.78935659 -0.045797553 3.5832391
0.75602371 -0.057401124 3.6440482
1.4059873 -0.34615219 3.8898916
0.94652021 -0.12954642 3.8352673
0.33734444 -0.17714216 3.825341
1.2709956 -0.012516732 3.7488651
0.78903633 -0.28148034 3.9285476
0.75591338 -0.16360034 3.8890984
0.84727448 -0.1012965 3.6746848
1.220813 -0.03675621 3.769083
0.74845088 -0.28619984 3.9669693
0.75929528 -0.15008362 3.8830929
0.77172565 -0.15598834 3.8919756
0.76196885 -0.15232091 3.8785784
0.75190496 -0.16716939 3.8926015
0.73116034 -0.16640601 3.917202
0.53162712 -0.50771838 3.774106
0.74045378 -0.17917527 3.9220071
1.5358829 -0.15504967 3.8869889
0.82625717 -0.10226597 3.72545
1.4166602 -0.13079034 3.94665
1.328104 -0.3735657 4.0131645
1.439978 -0.14550661 3.913121
0.79619342 -0.019932661 3.5506768
1.2427579 0.013959542 3.7262924
0.90474623 -0.13090546 3.7912498
1.3399203 -0.37913808 3.9875553
1.4191183 -0.14026856 3.9617183
1.4163762 -0.15006705 3.9289355
1.3665973 -0.12572791 3.9944499
1.2660234 -0.18659411 4.051003
1.1135037 -0.16883226 4.0989552
0.93580925 -0.061688934 3.6798069
0.84931105 -0.089200698 3.738127
0.89935148 -0.051167253 3.6195884
0.77056789 -0.056036256 3.5942566
0.87101841 -0.11890201 3.7688084
0.71246934 -0.08954753 3.7417948
0.75597531 -0.058875952 3.639873
0.83658856 -0.080839261 3.6652222
0.8208409 -0.084106542 3.6944458
0.70393461 -0.0217514 3.5966914
0.77491701 -0.052910533 3.5942416
0.86793846 0.03984914 3.5666683
0.38913286 -0.14939284 3.7221878
0.99945331 0.11258025 3.4964211
0.79919469 -0.083959244 3.699501
0.3951824 -0.14742985 3.7384074
0.77593964 -0.060101733 3.6174061
0.83238971 -0.016542817 3.5669699
1.1661308 -0.33837649 4.0218592
0.80583692 -0.085619584 3.6843278
0.78425336 -0.10646049 3.7594788
1.5126536 -0.17587796 3.8806965
1.1533215 -0.34366259 4.0133181
1.3788544 -0.083290286 3.9326954
1.380944 -0.13323668 4.0041943
1.2655134 -0.18544455 4.0559225
0.9600656 -0.030796958 3.6231942
0.83856475 -0.10226002 3.7287252
0.86494935 -0.092127368 3.7004137
0.82596171 -0.10499167 3.7165194
0.81861866 -0.044521607 3.6036892
0.96341723 -0.047026124 3.6186404
0.33464167 -0.18159068 3.7611916
0.39545369 -0.14772195 3.7397525
1.3956081 -0.31688687 3.9129045
1.4306388 -0.29714012 3.8703938
0.84680098 -0.15202808 3.9352293
0.79847407 -0.079941772 3.6540797
0.77678221 -0.1848713 3.9397702
0.52449024 -0.11448789 3.7297201
0.53076416 -0.51413876 3.7698169
0.84418941 -0.17094468 3.9459083
0.52714831 -0.11641117 3.7144678
1.3213255 -0.023745444 3.8499506
0.83885813 -0.18068995 3.9288743
0.5392974 -0.10846683 3.7110806
0.57269138 -0.11735114 3.7457612
1.3217864 -0.031549305 3.8239861
0.84098119 -0.083538793 3.6304791
0.67348188 -0.23456243 4.0439916
0.3809934 -0.14991598 3.8013833
0.66914815 -0.23224619 4.048562
0.91978997 -0.11876394 3.7846029
0.87602192 -0.13652256 3.6812737
1.2116873 0.061891168 3.665417
0.54643965 -0.13614407 3.7525218
0.50990707 -0.39358261 3.8172588
0.52716064 -0.13626112 3.7611649
0.53915608 -0.13202961 3.7488799
0.34952468 -0.18706191 3.7864819
1.2031701 -0.014992521 3.7629089
0.86740822 -0.089741036 3.6879284
0.79548526 -0.057795729 3.6021898
0.83730763 -0.080312841 3.6684141
0.75359142 -0.087755777 3.7247481
0.90451169 -0.093332864 3.6978304
0.32438803 -0.12946519 3.6787515
0.75783741 -0.059421115 3.63767
1.1894193 0.13929796 3.4980664
0.81837296 -0.035184924 3.6057403
0.80785632 -0.097653404 3.6892655
1.1744165 -0.36755279 4.0475254
1.2912649 -0.2023778 4.0297656
0.8212229 -0.08599323 3.695682
0.83116364 -0.048922665 3.6024363
0.97377932 -0.27137625 4.0793056
0.82669771 -0.047984671 3.5993316
1.1830266 0.1340225 3.4751122
0.30222496 -0.19853491 3.810303
0.81021839 -0.10383236 3.7276914
0.82119507 -0.10356354 3.7254152
0.50823969 -0.39193383 3.8243418
0.34172565 -0.18315317 3.7901654
0.870242 -0.083204091 3.672478
0.61125481 -0.12916124 3.7753971
0.36918494 -0.17958829 3.7817616
0.56934577 -0.13743424 3.7770889
0.51100916 -0.39174408 3.8102968
0.59991843 -0.13574418 3.7865102
0.58615464 -0.1299049 3.7307718
0.59947479 -0.13904105 3.7750716
0.37622398 -0.16708119 3.7771161
1.3931067 0.098617613 3.671263
0.39122936 -0.14800818 3.7394791
0.44030607 -0.15440102 3.784281
0.47142553 -0.15096964 3.7746043
0.38067704 -0.15664414 3.7632997
0.35793161 -0.15320335 3.8659315
0.77879906 -0.086420365 3.6805353
0.38398993 -0.18106957 3.7815585
1.2218266 0.064876482 3.6736782
0.56511974 -0.14065699 3.7628152
0.56731576 -0.14297223 3.7550845
0.57044506 -0.14789337 3.749645
0.49355662 -0.28058064 3.8785658
0.69298708 -0.13824147 3.8451135
0.68989009 -0.13838297 3.8418086
0.69245446 -0.13801795 3.8457329
0.79128313 -0.058069814 3.6025333
0.79424655 -0.016549464 3.548413
0.69159645 -0.13857186 3.8453188
0.32722399 -0.1968932 3.8099728
0.78719157 -0.28064469 3.9165375
0.8097083 -0.073367283 3.6588418
1.3463541 -0.26679131 3.9560931
1.4244615 -0.12694864 3.8983004
0.86967599 -0.081950389 3.6610572
0.98944128 0.044072039 3.5965867
0.74075216 -0.084165953 3.7116313
1.3772669 -0.01820684 3.9352305
0.92734879 0.0092071733 3.6303182
0.78774476 -0.047614641 3.5816953
0.71150303 -0.10214885 3.7421587
0.39395386 -0.14692695 3.7419279
0.72149754 -0.053772487 3.6344335
0.71164286 -0.086019017 3.7368758
0.87274516 -0.11955625 3.7691853
0.79191959 -0.056674961 3.606873
0.75032073 -0.089717977 3.718581
1.0455968 0.091947094 3.5816486
0.70840228 -0.050787028 3.6370718
1.163462 -0.19742312 4.0726781
0.76082772 -0.058101226 3.6035721
1.2096932 0.065047972 3.6601775
0.76232827 -0.054804731 3.6118131
1.0360495 0.093275324 3.5256364
0.82369184 -0.0075416747 3.5521967
0.82522863 -0.0049192812 3.5922801
0.37329301 -0.14536048 3.7356246
1.1639565 -0.15343185 4.0973492
0.77076095 -0.049382545 3.5773339
0.77999228 -0.011541262 3.5215237
1.2600707 -0.24684593 4.0794449
0.75022906 -0.061228272 3.6005995
0.83251667 -0.044487584 3.6141772
0.7553845 -0.061359458 3.5987813
0.75702822 -0.010130084 3.5069473
0.34334886 -0.1844334 3.8014669
0.74601001 -0.184287 3.9191988
0.79092908 -0.23184319 3.9361713
0.83526242 -0.041490119 3.612241
0.75444645 -0.18872473 3.9374776
0.75721413 -0.0079451371 3.509258
0.74710155 -0.22371213 3.9968319
0.77023327 -0.32301101 3.9841514
0.52949619 -0.11437999 3.7227256
0.78134918 -0.31044495 3.9495106
0.78143471 -0.30838189 3.940274
0.78209943 -0.31206065 3.956841
0.79999453 -0.18635862 3.9433815
0.3762975 -0.14731732 3.7512348
1.255677 -0.012880832 3.7084413
0.49152994 -0.27547747 3.869802
0.4930684 -0.27643958 3.8687794
1.2462635 -0.0063080974 3.6887896
0.91254675 -0.12310966 3.7702985
0.72013575 -0.11540519 3.7467353
0.80766648 -0.20270039 3.9803815
0.53006303 -0.11502044 3.7239845
0.84065932 -0.26524726 3.9483557
1.1372908 -0.30334249 4.0606513
0.80520451 -0.077996992 3.6494429
0.81708378 -0.21273232 3.9898741
0.33870259 -0.14641008 3.7164083
1.1572869 -0.34884256 4.0376186
1.1308599 -0.27600393 3.977777
0.75476146 -0.066411801 3.642513
0.55460501 -0.11300208 3.7704065
0.57575583 -0.10224705 3.8003843
0.81296462 -0.037347142 3.6080978
0.95346504 -0.24113445 4.0789847
0.36330169 -0.16495287 3.7604377
0.33574009 -0.14120585 3.6933944
0.41423538 -0.15909219 3.7623513
0.4114956 -0.159105 3.7653873
0.82350826 -0.10368597 3.6636899
0.32730922 -0.19449267 3.8100905
0.52517104 -0.12982653 3.7329648
0.33952719 -0.18327549 3.8029194
0.38544568 -0.17531554 3.766398
0.79185277 -0.040651336 3.592917
0.37812871 -0.16771758 3.7759833
0.80866772 -0.17219014 3.9128683
0.75120014 -0.08969786 3.7188299
1.2926474 0.0061386102 3.7490871
0.79360771 -0.08638151 3.6802924
0.81778872 -0.21072657 3.9843063
0.75159734 -0.091095567 3.7159562
0.75102675 -0.07055857 3.6428218
1.0341053 0.086082704 3.5175097
1.1806822 0.13538614 3.4906154
0.52399588 -0.13065073 3.7390568
1.3548865 -0.37331015 3.9472384
1.4245842 -0.23755194 3.899313
0.87357879 0.0092697553 3.6266332
0.95885813 -0.39470643 4.0404305
0.80643463 -0.192277 4.062499
0.95626098 -0.36578161 4.0342627
1.4005445 -0.2185266 3.9218121
0.95859438 -0.365105 4.0364413
1.3025768 -0.035268251 3.8049479
0.83225429 -0.18470006 3.9696281
0.96061331 -0.36565202 4.0409431
0.71246547 -0.086060308 3.7400959
0.96211332 -0.34618816 4.0873213
0.96431667 -0.34181866 4.0448356
0.96673298 -0.34156233 4.0488505
0.78793693 -0.049100611 3.5925875
0.95372206 -0.33255568 4.0507827
0.94538498 -0.31772506 4.0484719
0.94814146 -0.31711507 4.0499625
0.88280559 -0.091342829 3.7051389
1.5943353 -0.21572135 3.8915997
0.72531843 -0.1111847 3.7653918
1.3234599 -0.37296662 4.004962
0.9609465 -0.29226768 4.0674572
0.39617214 -0.25771344 3.8869863
0.39420941 -0.25657424 3.8971641
0.33622196 -0.24179161 3.8870628
0.32338107 -0.13035099 3.6775131
0.47422987 -0.19614884 3.9006629
1.2438332 -0.041781768 3.7694888
0.78910452 0.012720712 3.511884
0.75045854 -0.1808074 3.8903217
0.75099617 -0.28149149 3.9632065
0.78780729 -0.17362051 3.9177544
0.75200802 -0.26338834 3.9758353
1.3980757 -0.31443086 3.9175079
0.78952157 -0.21364854 3.9851685
0.77121472 -0.20721349 3.9433138
0.7404359 -0.23411885 3.9899762
0.74108845 -0.23169015 3.9903669
0.66091526 -0.37064791 4.0105653
0.58741158 -0.22396514 3.9938848
1.3850381 -0.23111291 3.9061365
1.3204437 -0.032218147 3.8369949
1.371496 -0.21685459 3.9460771
1.3714588 -0.20616868 3.9520457
0.64196497 -0.23496649 4.0225911
0.80643332 -0.18493612 3.9934661
0.64302993 -0.24110427 4.0214419
1.1692617 -0.30801898 4.0189681
1.1482817 -0.34363806 4.0543079
0.69369209 -0.2297186 4.0066042
0.94870967 -0.3136245 4.0534315
1.3265615 -0.30959362 4.0204449
0.74494582 -0.38503405 4.004921
0.92674065 -0.2580767 4.0728073
1.3483438 -0.18129198 4.02384
1.3482215 -0.19110355 4.0383234
1.140165 -0.23871256 4.1196308
1.1643986 -0.36812159 4.0803642
0.71169156 -0.026178842 3.5982924
1.1279171 -0.23585421 4.1179857
1.357082 -0.1179373 4.0376935
1.1154399 -0.21006757 4.0929375
0.97275162 -0.38842654 4.0380907
0.98029906 -0.39168522 4.0789433
0.97242695 -0.39068842 4.1242418
0.55802971 -0.31914392 4.1390204
0.77595401 -0.0007747488 3.4902797
1.119526 -0.22777644 4.0989885
1.7813264 -0.030307988 4.1077271
0.41026935 -0.15990776 3.7652643
0.50100785 -0.0095194094 3.5210285
0.51060092 -0.015855476 3.5270536
0.41043755 -0.16084339 3.7608976
0.97743338 -0.28704423 4.1087208
0.67372429 -0.034267515 3.5815055
0.31547463 -0.14541183 3.6837909
0.36972138 -0.16832477 3.767194
0.67444807 -0.037192166 3.5747137
0.68457991 -0.13209373 3.8547242
0.38700491 -0.17327575 3.7657897
0.49772605 -0.20518039 3.9048524
0.39322329 -0.14615192 3.7614725
0.67498082 -0.37157661 4.0488358
0.49899051 -0.20099096 3.9086883
1.224965 -0.034549568 3.7762594
0.63305926 -0.34401268 3.9909959
0.75164241 -0.29877138 3.9766829
0.65830863 -0.33127362 3.9656801
0.64062905 -0.33023033 3.9912274
0.35946086 -0.17055592 3.7608027
0.77314991 -0.15459581 3.9006474
0.54960388 -0.11425421 3.7346489
0.73861146 -0.18017522 3.9209256
0.62285471 -0.3091045 4.0201044
0.6210168 -0.29823378 4.0193477
0.65106964 -0.37223729 3.9815669
0.79022592 -0.029700443 3.5193453
0.35032991 -0.17463493 3.7572331
0.5329054 -0.50396281 3.7616746
1.3170775 -0.031900112 3.830548
0.82787818 -0.18422151 3.9735239
0.36387831 -0.16503172 3.7426653
0.67445785 -0.023401393 3.5644121
0.3915723 -0.15486668 3.770407
0.7570892 0.024991147 3.4893739
1.1412152 -0.29689926 4.0904217
1.3459485 -0.21910749 4.0358052
1.3734446 -0.15304571 3.9943085
0.93747967 -0.27255067 4.0639
0.8570987 -0.085239023 3.6969347
0.51247519 -0.020673754 3.5105541
1.1626828 -0.3692233 4.07792
0.69349462 -0.26833752 3.9889226
0.40196061 -0.15892375 3.7638507
1.2050387 -0.36746129 4.148766
0.34799051 -0.17020543 3.758106
0.56716895 -0.34247476 4.1888328
0.37651503 -0.16812214 3.7469716
0.38687858 -0.14905269 3.7429247
0.63905782 -0.33229244 3.9970844
0.79079556 -0.1920359 3.8944964
0.3504231 -0.14684363 3.7176013
1.3906058 -0.31703576 3.906404
0.33771524 -0.14671867 3.7109957
1.3472744 -0.081495121 3.9587793
0.71152353 -0.54457736 3.8925538
0.71344322 -0.54486817 3.896323
0.91546237 -0.11687724 3.7893994
1.4436721 -0.29304448 3.8770773
1.3888083 -0.26729354 3.9065177
1.3406395 -0.017706638 3.8754082
0.72826254 -0.062877037 3.6337242
0.90545917 -0.26234546 4.1297402
1.375134 -0.34631833 3.9539144
1.3699687 -0.32488739 3.9645441
1.352827 -0.21622987 3.9813614
1.3271507 -0.10976614 3.836478
1.329016 -0.3084597 4.0212297
1.3622017 -0.15469003 3.977464
1.2675948 -0.20428096 4.046639
1.355208 -0.15552767 4.0090094
1.2154449 -0.18164271 4.0494509
0.97041893 -0.20971002 4.1187158
1.3564306 -0.11121682 4.0329928
0.57002997 -0.14293982 3.7774413
0.76517516 -0.15475515 3.8930874
1.3098379 -0.18161599 4.0793314
0.61897331 -0.30728957 4.038218
1.7707241 -0.060826376 4.088552
0.92237735 -0.12039424 3.7726386
0.93398952 -0.027194329 3.5968916
0.932468 -0.27412376 4.0678906
0.77494508 0.014700697 3.5095544
0.88997692 -0.082065135 3.6927769
0.80372196 -0.091506213 3.68273
1.1967902 -0.34766862 4.0581541
0.67523688 -0.014836667 3.570467
0.96994388 -0.30608717 4.0775499
0.48008731 -0.19869182 3.8844454
0.7713908 -0.043883771 3.5954792
0.88223958 -0.094199032 3.7014716
0.66150939 -0.37405884 4.0069232
0.53551972 -0.14149272 3.7382133
0.93285912 -0.26839185 4.0555487
0.80069715 -0.36903208 3.9166141
1.7099192 -0.053605955 4.0280361
