# .PCD v0.7 - Point Cloud Data file format
VERSION 0.7
FIELDS x y z
SIZE 4 4 4
TYPE F F F
COUNT 1 1 1
WIDTH 434
HEIGHT 1
VIEWPOINT 0 0 0 1 0 0 0
POINTS 434
DATA ascii
-0.014718316 -0.44447029 3.1422997
0.3553693 -0.17256589 2.7036278
0.030170074 -0.47244671 3.202261
0.030170074 -0.47244671 3.202261
0.40803376 -1.03409 3.0308547
0.40054408 -1.1414384 3.028584
0.42834157 0.499309 2.8880084
0.34223253 -0.1861279 2.686799
0.46064898 0.51016378 2.8021162
1.0660468 -0.45012745 2.5468123
1.1415949 -0.34766102 2.5178087
1.2692041 -0.57502943 2.5662181
1.1399336 -0.1817522 2.5785863
0.40311629 -0.98921007 3.1627059
-0.017906802 -1.1015464 3.2302094
1.0756029 -0.45832357 2.5822427
1.0709816 -0.47961229 2.671062
0.5239442 -0.37548622 2.998456
-0.11611725 -0.40349919 3.0949426
0.074849464 -0.4631066 3.1761601
-0.20046043 -0.88709867 3.3046405
0.28077129 0.65210497 2.6849213
0.46044788 0.51152772 2.8069749
-0.48067421 -0.53086233 3.2332294
-0.13246043 -0.85998064 3.2551975
0.26380843 -0.21296662 2.7724018
0.61107361 -0.49164817 2.9470603
-0.046216454 -1.0629729 3.2271328
0.96717399 -0.48871768 2.8083093
1.0638791 -0.24826883 2.7126286
0.39978358 -1.0795062 3.0905123
0.3309547 -0.45244396 3.0930853
-0.14399531 -0.40357783 3.0982006
0.88477767 -0.0040590656 2.4207997
0.13609008 -0.18811704 2.7838945
0.41073865 -0.28598061 2.8878374
1.0323858 -0.1967579 2.696166
0.31075826 -0.17543398 2.6583681
0.45499235 -0.27090979 2.7515049
1.0357591 -0.32490149 2.808764
0.48408821 0.43766144 2.8000121
-0.13480338 -0.85716695 3.2560935
-0.015813181 -1.0500605 3.2300122
0.26178014 -0.21766345 2.7709081
0.26178014 -0.21766345 2.7709081
1.1458099 -0.34971225 2.5179341
0.53986555 -0.35338032 2.9667449
-0.16131781 -0.86888719 3.2789357
0.53621483 0.33668301 3.1824584
0.28585005 0.076512679 2.6912136
-0.25580391 -1.1318899 3.2646756
-0.056513667 -0.31648004 2.9479561
0.64714652 -0.35216478 2.9771986
1.0422022 -0.22428954 2.7178273
0.93155956 -0.34584856 2.9374497
0.27371269 -0.21631061 2.7752726
-0.42868614 -0.51822126 3.2026103
-0.3594982 -0.52743459 3.1969163
-0.052435331 -0.31888291 2.9512589
0.32155648 -0.33848533 2.9656279
1.059296 -0.39211795 2.6150117
1.1525373 -0.17920336 2.5880132
0.43084157 -0.28644788 2.7981293
0.95352411 -0.36849496 2.9025764
0.66921419 0.5240615 2.9199781
0.50680113 -0.37617823 2.9834211
0.47931612 -0.24544415 2.7072511
1.1016135 -0.31601143 2.5711589
1.1016135 -0.31601143 2.5711589
0.59126854 0.60841745 2.7239749
1.0719787 -0.39362073 2.6165757
0.89738768 -0.026005214 2.3476121
0.66312134 -0.38813689 2.9548259
0.96354091 -0.4969919 2.8148305
1.0638242 -0.47411975 2.6836829
0.90672827 -0.023286059 2.4314926
1.0769939 -0.534612 2.7076542
0.50875002 0.44001737 2.7794466
0.61344957 -0.067987882 2.498908
-0.21113546 -0.67147678 3.4105217
-0.44317031 -1.243014 3.3143609
-0.33346415 -0.62891465 3.2928998
-0.44393703 -1.2059547 3.3569393
0.90979493 -0.017171856 2.4500034
0.61400491 -0.35058433 2.9520342
-0.45733652 -0.59847873 3.3345668
1.07043 -0.31343073 2.7074623
-0.45874584 -1.3550186 3.3753574
1.0858365 -0.43886337 2.7415121
-0.80282086 -0.63816643 3.5128591
-0.4191567 -1.1309146 3.4541719
-0.095558308 -0.8423388 3.22876
0.03656764 -1.0190419 3.3165042
0.29634655 -0.4426277 3.1166668
0.413728 -1.0051737 3.1281819
0.88844067 -0.12767436 2.6654491
-0.036713041 -0.40844035 3.0961084
-0.48578253 -0.536071 3.2243831
0.36332887 -1.0687256 2.9506311
-0.45459509 -0.64610535 3.3068879
0.2436437 0.63969594 2.715097
0.021604041 -0.40549657 3.0956182
-0.13217919 -0.85398811 3.2601016
-0.13217919 -0.85398811 3.2601016
1.0955448 -0.27188954 2.5965116
1.1155761 -0.27485824 2.6306674
1.067322 -0.50790101 2.690074
1.3589633 -0.52876669 2.4543817
1.4221097 -0.15311216 2.5584273
0.54825753 0.34105167 3.1719832
-0.50053924 -0.56100744 3.2794397
0.96074885 -0.31940475 2.9082522
-0.14626613 -1.0196395 3.265986
-0.090999521 -0.54230922 3.2968583
0.29303282 -0.79384875 2.899781
0.60533994 0.62422842 2.7234178
1.1331247 -0.35060963 2.5186925
-0.40808314 -0.62578249 3.1787601
-0.41416273 -0.64179808 3.2055709
1.0224046 -0.31898591 2.8713419
1.0224046 -0.31898591 2.8713419
-0.42849475 -1.3350248 3.2628453
0.28029153 0.071817711 2.6896698
-0.33935276 -0.76269102 3.6077628
1.2367319 -0.14202926 2.5790417
0.93114197 -0.3867135 2.8863254
1.2029566 -0.57648265 2.5313921
-0.35431471 -1.1216452 3.3380151
-0.4969517 -0.61042964 3.2558422
0.27462745 0.58530021 2.7265611
0.27987245 -0.8888914 3.0143831
0.39973199 -0.99350685 3.0216439
0.23860402 -0.34472463 2.9777057
0.19250175 -0.38260761 3.0552838
-0.47227052 -0.58179492 3.3103955
0.47874725 -0.26212266 2.7567103
0.49193558 -0.28592509 2.7903326
-0.48335961 -0.63180655 3.2742434
-0.031990413 -0.32627103 2.9746745
-0.35868287 -1.1225344 3.3346846
-0.45117879 -1.3195662 3.3011403
0.6469391 0.36562106 3.1379094
-0.45228791 -0.59939998 3.337297
1.0716695 -0.44007498 2.6093619
-0.41108915 -1.3186232 3.2577243
-0.4559679 -1.3150373 3.3087378
0.37301314 -0.23854171 2.730484
0.37301314 -0.23854171 2.730484
0.34756726 -0.24222821 2.7421548
-0.36848292 -1.2069925 3.2456615
-0.42454597 -0.56826007 3.1640897
-0.34581318 -1.2374767 3.2224548
-0.41158536 -0.95830876 3.56549
-0.44818419 -0.64762837 3.3087533
-0.17335531 -0.57878435 3.4082115
-0.186305 -0.58833092 3.3875647
0.50052327 -0.28923023 2.8116367
-0.52166784 -0.7845453 3.7158451
0.42887017 -0.34080052 2.9658871
0.34914973 -1.1036159 2.9198339
-0.46119466 -1.2750282 3.330121
-0.35693389 -1.2366923 3.2182465
0.026602531 -1.0715426 3.2236772
-0.048098776 -0.40903959 3.0918725
-0.054570433 -1.1639397 3.1771147
0.22284891 -0.76455945 2.9933462
-0.4997085 -0.60653788 3.2539706
0.3591069 -0.98509216 3.0136104
-0.45451981 -0.63806915 3.2004359
0.42019567 -1.0386878 3.0306633
-0.42026654 -1.3363402 3.2695489
-0.36433697 -0.65068907 3.2215259
0.94957048 -0.39009356 2.8670816
1.2654095 -0.53660476 2.5863924
-0.45188066 -0.58488524 3.3379197
0.41941044 -0.2670311 2.7867875
0.39777106 -0.93177688 3.1434529
0.53521234 -0.36958161 2.9565911
0.52953184 -0.37346938 3.0140555
-0.45302236 -1.2990919 3.2969937
0.8778739 -0.031619899 2.451525
-0.44471887 -1.2095169 3.3516266
0.95371974 -0.059996683 2.4432087
-0.46049118 -0.65065658 3.301945
-0.16458134 -0.58576661 3.4084353
0.93123966 -0.36627591 2.8947001
0.93123966 -0.36627591 2.8947001
-0.40344459 -0.6261692 3.1826825
1.1950313 -0.54056627 2.4495089
-0.39509654 -1.2570229 3.2854478
-0.34227908 -1.2385851 3.2246339
-0.20103699 -0.83451259 3.3426268
-0.1509918 -0.40079293 3.0981228
0.38769072 -1.0474448 2.9284108
-0.34424016 -1.0336297 3.4391127
-0.40938953 -1.2188224 3.3777528
0.00201996 -1.1112802 3.1741872
0.50936848 -0.42801031 2.9864388
0.38825557 -0.25316167 2.7275293
0.51192439 -0.26697886 2.7545118
-0.4384549 -0.56563246 3.1719587
-0.3718591 -0.64897567 3.2187409
-0.29439172 -0.60227853 3.2535448
-0.5211038 -0.78439349 3.7159512
-0.032625761 -0.39721724 3.0126143
-0.23352478 -0.68632632 3.523068
-0.50000399 -0.60409707 3.2535751
0.038551416 -0.38435423 3.0803728
0.21935946 -0.76528078 2.9935839
-0.41096804 -0.66437489 3.253521
-0.28523543 -0.70917982 3.5717602
-0.04418347 -1.1646367 3.1760383
-0.45324704 -0.64356077 3.2123499
-0.070790365 -0.42676842 3.1276283
-0.089935035 -0.55563432 3.2688749
-0.11426919 -0.85226685 3.219851
-0.34444603 -1.0336624 3.4396794
-0.022491714 -1.0164568 3.3107073
-0.19804367 -0.59967023 3.4103293
-0.46492359 -1.299445 3.3213909
-0.0048895041 -1.2314812 3.1740644
0.2666432 -0.20830104 2.7720098
0.38522699 -1.1053321 3.0511484
0.29468483 0.59518319 2.7279975
-0.39182225 -1.3002187 3.2340033
0.55827206 0.36893192 3.1423781
-0.025966093 -1.1067108 3.1943271
0.96718597 -0.4447903 2.8378742
0.80597889 0.46108645 2.9128194
1.0385935 -0.37171125 2.8432038
1.0339191 -0.22385064 2.6292531
1.0961933 -0.51803589 2.7350667
1.2086521 -0.58546042 2.5559146
-0.24022859 -0.88321954 3.8589582
-0.43120971 -1.1861091 3.3967271
1.15523 -0.38067129 2.7846501
-0.42390147 -0.51747239 3.1939526
0.47103992 -0.2635825 2.7520316
0.4134582 -0.30438501 2.8805096
0.42420495 -0.34165162 2.9658389
0.53215486 -0.26085582 2.8016911
-0.43209344 -1.1401715 3.4670498
0.10800218 -0.35844097 3.147562
0.35097128 0.55018902 2.7943549
-0.38270482 -1.1092947 3.2870994
0.011145025 -1.256604 3.1340618
-0.02911705 -1.1174775 3.1859672
-0.54467058 -0.7854628 3.7640641
0.81863695 -0.1706637 2.6364882
-0.49973029 -0.55458564 3.2796154
-0.035180528 -1.0622228 3.2314372
1.1988488 -0.52631062 2.4979539
-0.48137978 -0.63982844 3.2772107
-0.045805495 -0.43419933 3.0991166
-0.42445073 -0.6518991 3.208791
0.77106977 0.4325487 2.9074354
-0.46394506 -1.2989589 3.3213935
-0.43511799 -0.57108992 3.1668463
-0.050158922 -1.0018275 3.2432208
-0.4724344 -0.56989706 3.3082333
0.16225718 -0.41352254 3.103107
-0.036519222 -1.1052494 3.1895757
-0.38960895 -1.2990131 3.2341425
-0.40460923 -1.2346183 3.256819
-0.37967697 -0.65052396 3.2127419
0.21183132 -0.37492311 3.0304589
-0.028852478 -1.0645233 3.2397728
0.3818087 -1.0630748 2.9141741
-0.06842538 -0.42230606 3.1244152
-0.065372132 -0.39398319 3.0789499
0.56062973 -0.4669739 3.0033607
0.24965546 0.080660276 2.7299988
0.56134444 -0.036892764 2.4479325
-0.3782388 -1.2053125 3.2411885
0.58346224 -0.37790674 2.9920135
-0.43257397 -1.2393154 3.2983284
-0.42099372 -1.1784313 3.3526783
0.9114579 -0.023381263 2.3637545
1.066554 -0.32746339 2.5827217
-0.39470163 -1.345423 3.244071
1.0665349 -0.38557446 2.6187608
1.0301129 -0.32818878 2.8108394
0.9913553 -0.34128651 2.5336981
1.0065813 -0.15461722 2.647337
0.61551648 0.6199078 2.6316795
1.0740402 -0.34797537 2.7875066
-0.43967488 -1.1954236 3.411129
0.32010257 -0.94240355 2.9695847
0.3151885 -0.81359351 2.9164829
-0.019306352 -1.0951153 3.2138057
-0.024597391 -0.55088854 3.2546079
-0.47179744 -0.58221471 3.1941388
-0.30104828 -1.1065603 3.327035
0.40524814 -1.0693901 3.0111756
0.41485792 -0.87548369 3.0415637
0.15138854 -0.42144978 3.1209097
-0.20469224 -0.85476726 3.1760585
-0.25336847 -0.8885923 3.8483365
0.40696761 -1.0054501 3.1271274
0.25185308 0.024424808 2.7402818
0.38808766 0.21929125 2.5488355
0.40689698 -0.30092895 2.8813653
-0.45749307 -1.2454339 3.3335226
-0.34644952 -1.0347002 3.4397438
0.49417505 -0.19398171 2.6415005
0.42233524 -1.185892 2.9987376
0.33793068 -0.982952 3.0155747
0.12450664 -0.38327605 3.0449345
0.13462721 -0.41038612 3.0478499
0.32006797 -0.8962841 3.0604796
0.3726941 -0.93450141 3.1394722
0.32281068 -0.23905696 2.7818789
0.28510907 -0.45401922 3.0939662
0.50534558 -1.0359821 2.9311182
0.53332335 -0.36924016 3.0103099
-0.4615376 -0.58801281 3.3319614
1.0388212 -0.35525572 2.7790315
0.087468378 -0.42355639 3.1003015
0.34022325 -0.48506835 3.0753307
0.23695081 -0.3908051 3.049763
-0.37976015 -1.1904429 3.2632415
0.96763563 -0.42470443 2.8177121
0.91155761 -0.46012399 2.8313584
0.48299667 0.3000606 3.1723342
0.65586346 0.50805116 2.9291768
1.0912119 -0.55897701 2.6741621
1.0397943 -0.27777508 2.7698097
-0.43287304 -1.1736186 3.3878362
1.1260451 -0.17340051 2.5563171
0.40878955 -0.27779824 2.8340225
0.37443811 -0.44639403 3.0587115
0.32440552 -0.47895309 3.063168
0.98786426 -0.081668355 2.4425404
0.12602215 -0.43757027 3.1259177
1.0747091 -0.50646651 2.7228694
0.9871785 -0.043193698 2.4611793
0.22962023 -0.33307305 2.9571235
-0.16350582 -1.3059872 4.2356186
-0.13371037 -1.3573142 4.2324882
0.34288445 -0.21139814 2.7784564
-0.39488032 -1.1699815 3.6887736
0.79278862 -0.85396487 3.8093216
0.7761001 -0.64718467 3.3965421
0.62743461 -0.74201173 3.6427395
0.7797128 -0.63334489 3.383579
0.94250858 -0.69482571 3.4647532
1.3200207 -0.57937205 3.34326
1.519815 -0.49358794 3.2030263
1.7521681 -0.35109901 2.923275
0.75004011 -0.8662414 3.8353388
1.3199173 -0.5950191 3.3504744
1.6295292 -0.36714682 2.729249
1.1974909 -0.70123488 3.5545893
1.2773892 0.0015160451 2.4127927
1.0817732 -0.81471014 3.7349653
0.88240856 -0.094451904 2.3985813
0.88252342 -0.076710485 2.3979077
1.3091156 -0.099893034 2.5581915
1.7334422 -0.13355124 3.9104376
1.2878714 0.10473347 2.5014222
1.3065819 -0.27548498 2.5520189
1.7196392 0.23392808 2.9238946
0.97554415 -0.31793216 2.914825
0.11844176 -0.43653628 3.14043
-0.060635608 -1.1441303 3.1544077
-0.02893872 -0.83196646 3.2058475
-0.0081078559 -1.1810681 3.1988177
-0.10287144 -0.3866576 3.0725558
-0.41385403 -0.82198405 3.6598403
-0.06038288 -1.1599603 3.1560194
-0.073889293 -0.35773245 3.0192387
-0.49521685 -0.56251514 3.2832589
1.07872 -0.29924133 2.5798197
0.023118665 -1.0576323 3.1846116
1.1812807 -0.47467211 2.4533005
-0.42716253 -0.77590722 3.680228
0.33475679 -0.23736747 2.804688
0.39524314 -0.28282031 2.8296766
0.41483563 -1.0401564 3.0304546
0.32874295 -0.33925015 2.963522
-0.0046456465 -1.22811 3.1814737
0.35541725 0.25083581 2.527663
5.2190828 1.2651676 1.3006305
0.00071059976 -1.1953231 3.1979244
0.3636544 0.2516987 2.5972798
0.48395345 0.28795168 2.6972082
0.2725946 -0.32446256 2.9447868
0.78190428 0.47938025 2.955097
0.3292025 -0.43025419 3.0945783
0.88387096 -0.077079147 2.3572421
0.40258697 -1.0086675 3.1083999
0.37881133 0.26526758 2.594363
4.4427042 0.73865634 1.1198759
4.9506454 1.1565102 1.3920499
5.061007 1.1718506 1.1823868
4.8997316 0.7234686 1.0210781
4.8745465 0.62402427 0.95884818
-0.057091564 -1.1403161 3.1638851
4.0726757 1.1168891 1.4102719
4.0431261 1.156871 1.3306764
4.7223206 0.83828074 1.1639479
4.9292789 0.58152366 0.91346484
0.8637414 -0.11891063 2.394486
3.9624777 1.1828321 1.2529867
5.1576676 1.2157201 1.3418109
4.0235147 1.0822865 1.2778591
4.5320559 0.83069849 1.2100996
4.0842624 1.088582 1.4199268
-0.37890023 -0.75392079 3.6494398
0.47797245 0.29129753 3.1772666
4.8522806 0.69291371 1.0335675
4.4354105 1.1129193 1.340876
4.0625238 0.77158177 1.2021739
4.6045723 0.51043063 0.8904714
4.1419382 0.63179958 0.91321033
4.3236957 0.50734705 1.0181212
4.1864719 1.0117949 1.3399352
4.0645313 1.1857679 1.2941557
0.26426283 -0.36000094 2.9991541
4.1302094 0.45675758 0.97047383
4.0450034 1.117118 1.237568
0.32395273 -1.0057234 2.9849792
4.3669477 1.1378423 1.3242247
4.6269569 0.61168635 1.0429665
4.0118222 0.63170582 1.1501501
4.3355894 0.50206137 1.0194123
-0.12233797 -1.0838094 4.4147182
4.0558262 0.49135786 1.036239
3.2718635 1.6747584 0.62366796
5.0896802 1.0514145 1.1929662
1.2872267 -0.45052254 3.1275442
4.0626898 1.1112816 1.3798997
1.4541941 -0.26660928 2.5207114
1.4536481 -0.12719311 2.5907407
