# .PCD v0.7 - Point Cloud Data file format
VERSION 0.7
FIELDS x y z
SIZE 4 4 4
TYPE F F F
COUNT 1 1 1
WIDTH 471
HEIGHT 1
VIEWPOINT 0 0 0 1 0 0 0
POINTS 471
DATA ascii
-1.4943838 -0.69482374 3.1796019
-2.0041869 -1.2171266 3.434587
-1.6711712 -1.1311527 3.1912105
-1.532603 -1.3120283 3.3995712
-1.5036922 -1.3732713 3.3391318
-1.506179 -1.3711149 3.3400176
-1.4338374 -1.1870166 3.3370969
-1.351054 -1.2222286 3.3641367
-1.1658599 -0.57066822 3.319531
-1.1197981 -0.68979168 3.4936156
-2.0401599 -1.009128 3.4883616
-1.3017946 -0.69530058 3.4573689
-1.7940068 -1.1603036 3.1406822
-1.6059901 -1.1796674 3.2062409
-1.8434868 -1.1077883 3.2286906
-1.4210523 -1.1968732 3.3227093
-1.5136356 -0.66222197 3.0958626
-1.0455641 -1.3872265 3.5242748
-1.5480133 -1.2744502 3.2302837
-1.813585 -1.1575849 3.150876
-1.4268731 -1.1821653 3.3160002
-2.0675459 -0.86186713 3.5803282
-1.3996251 -1.1958802 3.3479929
-1.6036912 -1.190886 3.3458354
-1.910596 -0.79905331 3.4361444
-1.5359448 -0.65641552 3.1194034
-1.4166573 -0.69102865 3.4250758
-1.425838 -1.2928902 3.2721934
-2.0337021 -1.0135577 3.4692791
-1.4783548 -0.96625531 3.3143158
-1.4253802 -1.3086464 3.2698808
-1.5144522 -0.68380147 3.2654648
-1.0164154 -1.2399229 3.6006122
-1.7121791 -1.2594899 3.0616508
-1.1542702 -0.6850453 3.4800932
-1.9904735 -1.2345212 3.3216538
-1.7606429 -1.1466995 3.2126267
-1.5227413 -1.3654826 3.3369749
-1.3844787 -0.97418755 3.3364985
-1.7818139 -0.78204161 3.4569256
-1.281612 -0.72434139 3.45192
-1.5464379 -0.68771297 3.15237
-1.0398366 -1.320526 3.5758209
-1.3840753 -1.2997694 3.2563562
-1.7896644 -1.1962171 3.0847375
-1.0218753 -0.7783196 3.5814595
-1.6156241 -1.1783196 3.1774745
-1.4234214 -1.2887193 3.273685
-1.4102801 -1.2405373 3.324826
-1.4895322 -0.66216445 3.1716383
-1.5893605 -1.2469097 3.1263659
-1.4082236 -1.2339751 3.3086729
-1.4206046 -1.1957493 3.3139682
-1.6724989 -1.1329381 3.1946754
-1.5251757 -1.3538862 3.3630846
-1.5124195 -0.74433649 3.2948534
-1.5329907 -0.65800047 3.1321297
-0.97019887 -1.3129838 3.4935038
-0.98039663 -1.2999538 3.4186449
-1.4671513 -0.65574086 3.130326
-1.7147559 -1.1284823 3.1750233
-1.8119977 -1.2795941 3.0476987
-1.6226121 -1.1627938 3.1852958
-0.97612822 -1.2839047 3.4337664
-1.081561 -0.6629678 3.4468431
-1.1147805 -0.60118538 3.3738563
-1.4629806 -0.60425198 3.1255023
-1.0350097 -1.2528738 3.6128647
-1.0412887 -1.2423924 3.5851436
-1.5312567 -0.58840066 3.1103199
-1.6148841 -1.1881764 3.2282832
-1.3748413 -1.2319007 3.3677161
-1.099774 -0.69115525 3.4863064
-1.0377349 -1.245451 3.591126
-1.8088551 -1.1760377 3.1106882
-1.8908755 -0.75907439 3.4592366
-1.1265347 -0.56510597 3.3139119
-1.5388484 -0.6596244 3.1245003
-1.3932689 -0.97719818 3.3154819
-1.4676366 -0.55508161 3.15763
-1.4690665 -0.5914138 3.1404603
-1.3589259 -0.97708994 3.3128028
-1.5181367 -0.59768414 3.1115904
-1.7515349 -1.0437771 3.2799492
-1.784704 -1.1558949 3.133954
-1.8789208 -0.64913052 3.325676
-1.5186394 -0.59740376 3.1118789
-1.848191 -1.0560365 3.2480447
-1.0190408 -0.6837545 3.5150084
-1.6719339 -1.2007593 3.0722196
-1.654994 -1.2430067 3.0762296
-1.1095268 -0.70354736 3.5069764
-1.5197544 -0.67724699 3.1536729
-1.4428765 -0.6874671 3.419836
-1.4850022 -0.69165146 3.4201243
-1.5456787 -0.65429199 3.1312082
-0.97508568 -1.2838333 3.4319737
-1.4243026 -1.2263166 3.2816019
-1.1757346 -0.58008111 3.3344705
-1.4651034 -0.66404134 3.1284113
-1.4924934 -0.694134 3.1915505
-1.0873992 -0.59329391 3.4308727
-1.111401 -0.60638684 3.3867128
-1.0347567 -0.67666984 3.5005765
-1.0659373 -0.6088261 3.3967452
-1.4677261 -0.66209185 3.136034
-0.99711192 -0.6624158 3.4896181
-1.1662366 -0.60560095 3.3582661
-1.5293205 -0.65211493 3.0972128
-1.3909072 -1.1925358 3.3148453
-1.0385207 -0.67495364 3.5015469
-1.1132956 -0.68094814 3.4858377
-1.0269783 -0.62978959 3.4277017
-1.0219001 -0.77626359 3.5834305
-1.0199496 -0.77738392 3.5781424
-0.9750216 -1.2869356 3.4362972
-0.99413103 -1.0404686 3.4009686
-0.97369605 -1.2860608 3.4351521
-0.99320942 -1.0396472 3.4019139
-1.1006423 -0.62116194 3.4082885
-1.04476 -0.61788082 3.4104099
-1.0988102 -0.60713851 3.4231126
-1.800674 -1.1495801 3.1280029
-1.5300561 -0.5492391 3.1575534
-1.6009693 -1.1962357 3.2025542
-1.4728019 -0.97840464 3.3150325
-1.449973 -0.98561341 3.3388567
-1.6731973 -1.1323978 3.193078
-1.5712658 -1.2619677 3.1718917
-1.1860225 -0.55448669 3.2928157
-1.5803123 -1.2004197 3.1802425
-1.673039 -1.1332363 3.1957428
-1.3960562 -1.1772125 3.2671728
-1.62154 -1.1734366 3.1741397
-1.6101124 -1.1494818 3.1569779
-1.0692214 -0.57057595 3.3385856
-1.1038996 -0.58112037 3.3647356
-1.6211352 -1.2174813 3.1317599
-1.4244869 -1.2261873 3.3039415
-1.0121506 -0.62154043 3.422545
-1.6225249 -1.1818204 3.1834879
-1.5834709 -1.2051098 3.1883392
-1.3611004 -0.97384369 3.31862
-1.4161229 -1.1810894 3.3260949
-1.5531069 -1.3093969 3.1677248
-1.5975593 -1.1703141 3.1944458
-1.332302 -0.98738039 3.3513105
-1.796482 -1.1536036 3.1325078
-1.5328461 -0.75016463 3.4029863
-1.5476562 -0.654549 3.1337295
-1.0814848 -0.68804145 3.5107772
-1.116372 -0.69330293 3.5030637
-1.1001267 -0.69751555 3.4769237
-1.0939726 -0.69791037 3.5134134
-1.5788895 -0.60720044 3.1039066
-1.1260748 -0.71372926 3.5227501
-1.2906678 -0.9745822 3.3388243
-1.3929052 -1.1958539 3.3154085
-1.0115869 -0.66176629 3.5001473
-1.5601213 -0.68834871 3.1768608
-1.4554304 -0.69241762 3.4337702
-1.4744329 -0.68952638 3.4317119
-1.4458284 -0.69296032 3.4123268
-1.5330006 -0.66257417 3.1204755
-1.3412076 -0.69233876 3.4415965
-1.5874627 -1.1911453 3.1830919
-1.1251017 -0.71439016 3.5184097
-1.0781294 -0.54871416 3.2936368
-0.9793852 -1.1732389 3.4956515
-1.0584736 -0.60960943 3.4188399
-1.0057538 -0.61440307 3.4265752
-1.4042109 -1.2657739 3.2557001
-1.3609561 -0.97209704 3.3082185
-1.4021622 -1.2673126 3.2323205
-1.5439297 -1.1024438 3.2471361
-1.6854643 -1.1257907 3.2198675
-1.4112128 -1.2906156 3.2989132
-1.1139725 -0.68299925 3.4584506
-1.3954817 -1.2610058 3.2713592
-1.5734568 -1.2357625 3.2361293
-1.5789348 -1.2646272 3.1226158
-1.1008638 -0.68924809 3.4951344
-1.4175813 -1.2581685 3.2891667
-1.322602 -0.99092257 3.3675139
-1.4330199 -1.259643 3.2637599
-1.4265078 -1.2531167 3.2865238
-1.0493135 -0.67426342 3.4898057
-1.5716383 -1.2362256 3.2383964
-1.0939964 -0.5506109 3.3009744
-1.4563264 -0.60598785 3.2854409
-1.1337103 -0.56352854 3.2950096
-1.0883636 -0.59545135 3.3992369
-1.170938 -0.56421882 3.2958531
-1.1180805 -0.58243793 3.3379388
-1.1693801 -0.55589366 3.3027921
-1.3933138 -1.2850522 3.2451777
-1.17018 -0.57115757 3.3070781
-1.0258828 -0.56700814 3.3392715
-1.4527122 -0.60663706 3.1082258
-1.4086272 -1.2937622 3.3052013
-1.0589354 -0.5477677 3.3180137
-1.1346712 -0.55282485 3.2984283
-1.4150064 -1.2894505 3.2491574
-1.3979503 -1.2624383 3.2462645
-1.0976162 -0.55539948 3.3201058
-1.137381 -0.62240148 3.3945637
-1.1579012 -0.62635076 3.4027004
-1.5252856 -0.65762448 3.1177814
-1.1765289 -0.58043253 3.3353345
-1.3925623 -1.2823187 3.2432258
-1.1193961 -0.58287966 3.3390641
-1.1590915 -0.56544036 3.3246183
-1.4138665 -1.3225431 3.3038442
-1.5501771 -0.68690062 3.1523883
-1.1663036 -0.60656565 3.3795207
-1.0213962 -0.56511497 3.345932
-1.783366 -1.1914287 3.0798106
-1.4186347 -1.2256677 3.2876267
-1.9425224 -1.2071658 3.2502077
-1.3939934 -1.2052684 3.2995851
-1.3948942 -1.206864 3.3039217
-1.7642531 -1.2091416 3.0391572
-1.6214784 -1.1479434 3.1824877
-1.0682727 -0.57058501 3.3279786
-1.0582048 -0.61566895 3.3935606
-1.6263175 -1.153141 3.1963744
-1.6567097 -1.13585 3.1600313
-1.7886544 -1.2141545 3.0565553
-1.6413405 -1.270099 3.0677261
-1.7816693 -1.241217 3.0395114
-1.6636864 -1.2120106 3.0936723
-1.7911541 -1.1895691 3.0515997
-1.7246696 -1.2700685 3.0747776
-1.4429992 -0.69094557 3.4685748
-1.4296237 -0.68447942 3.4334812
-1.1503161 -0.55868858 3.2877431
-1.4824811 -0.69528991 3.4308703
-1.1673368 -0.55360979 3.3163786
-1.062705 -0.60971576 3.3613508
-1.0406729 -0.60842991 3.498466
-1.1164719 -0.69393718 3.4899762
-0.98861182 -1.2104278 3.4683871
-1.6360965 -1.2220812 3.0397973
-1.4810791 -0.6914379 3.1570604
-1.5178475 -0.67167002 3.1420922
-1.9196408 -1.1864136 3.2200305
-1.5544713 -0.68181592 3.166162
-1.8065645 -1.2688746 3.0608208
-1.5674405 -1.2662765 3.4332373
-1.5576265 -1.2508802 3.3982944
-1.5758442 -1.2263391 3.3449647
-1.5828288 -1.2663103 3.4489102
-1.886952 -0.76355982 3.4864891
-1.5368258 -1.2655041 3.4262543
-1.5866016 -1.2670323 3.4718969
-1.2808348 -0.7483151 3.4980493
-1.6849221 -1.1833665 3.0928447
-1.4875813 -0.68887198 3.1470103
-1.0250484 -1.3353117 3.5193765
-1.1194607 -0.61174732 3.2775614
-2.0764816 -0.88735807 3.5903156
-1.8315178 -1.2422172 3.0712571
-2.0617309 -0.86537701 3.6155701
-1.1335096 -0.56030685 3.3438978
-1.7693402 -1.2075825 3.0648689
-1.5231389 -0.65648514 3.1145101
-1.7851727 -1.2100698 3.0503061
-1.5745356 -1.3496618 3.2313273
-1.0368111 -0.67579794 3.4572864
-1.0948296 -0.67717403 3.4557908
-1.0959707 -0.68000585 3.5006542
-1.5409011 -1.3258481 3.4153314
-1.5094811 -0.67622602 3.1554115
-1.4819691 -0.65955311 3.1391754
-1.6166991 -1.1833224 3.198117
-1.0144869 -1.2584729 3.4729559
-1.0945941 -0.68903828 3.4875529
-1.0996723 -0.68835324 3.5045388
-1.8099289 -1.1481011 3.1357367
-1.7319441 -1.1622224 3.1272566
-1.50959 -0.67533046 3.1583407
-1.5123484 -0.70451814 3.2755644
-1.3330203 -0.97469348 3.3186195
-1.5513576 -1.3594072 3.4206662
-1.9312066 -1.1903781 3.3231535
-1.4122242 -1.268204 3.2255576
-1.419077 -1.2656525 3.2536325
-1.420926 -1.2879664 3.2989509
-1.6515391 -1.2360058 3.0567789
-1.8588452 -1.1159632 3.2474983
-1.8531462 -1.1013005 3.2178884
-1.8610345 -1.1164116 3.2548923
-1.4126107 -1.2491124 3.2716293
-1.4465348 -0.98152065 3.3255193
-1.413307 -1.2428503 3.2598691
-1.4383533 -1.2683446 3.2826116
-1.4154357 -1.2552395 3.3151138
-1.5740397 -1.2683816 3.1826832
-1.6847005 -1.1363337 3.2811434
-1.4861608 -0.91293406 3.3551583
-1.4840825 -0.89724696 3.3514342
-1.5932502 -1.2894543 3.1637318
-1.4351081 -1.2333426 3.3377051
-1.4301871 -1.2220801 3.3177044
-1.4453704 -1.2144791 3.331152
-1.4384682 -1.195187 3.2943168
-1.4618651 -1.2085234 3.3267097
-1.3910583 -1.1711622 3.3154352
-1.0185286 -0.68659198 3.5038705
-0.98586416 -1.2233523 3.4788888
-1.7518042 -1.2900161 3.0331705
-1.4918494 -0.68898183 3.4334495
-1.70204 -1.1244624 3.1849806
-1.6016016 -1.1821924 3.1753941
-1.1099727 -0.7066406 3.4451261
-1.5343238 -1.3639283 3.3351328
-1.5407646 -1.3467001 3.370842
-1.520551 -1.3438921 3.3677258
-1.0295107 -0.77546632 3.5305145
-1.5223024 -1.3362151 3.3818178
-1.534386 -1.3511616 3.4111533
-1.5239432 -1.3240222 3.3836725
-1.0800469 -0.62415439 3.3967133
-1.104293 -0.62495506 3.3708153
-1.0815963 -0.62527299 3.3895373
-1.08 -0.62422603 3.401969
-1.5182076 -0.67393762 3.1411946
-1.4325464 -0.97516322 3.3119082
-1.3953187 -1.2383397 3.2820003
-1.815123 -1.2821056 3.0475457
-1.413566 -1.2457016 3.2883868
-1.4001389 -1.2246362 3.2894828
-1.0477964 -1.3816885 3.516129
-1.3714659 -1.1551054 3.3938804
-1.7171181 -1.1252511 3.1569781
-1.6585444 -1.1369733 3.1626363
-1.7249157 -0.64508396 3.3364975
-1.406267 -1.2337056 3.3056774
-1.4178994 -1.2306437 3.2937934
-1.3930792 -1.2154119 3.3015878
-1.8359452 -1.1006361 3.2117975
-1.4054466 -1.1938494 3.3043368
-1.4288156 -1.2149773 3.3039994
-1.399914 -1.1883019 3.3378046
-1.4311875 -1.2153957 3.3171866
-1.3905035 -0.69318348 3.4327233
-1.4308288 -0.68500811 3.4485252
-1.4331601 -1.1783934 3.3238106
-1.3728123 -0.69308776 3.4468243
-1.3902787 -0.69685477 3.4029233
-1.8459926 -1.0545639 3.2512991
-1.5253851 -1.3116702 3.3998203
-1.5263315 -1.3082997 3.3897221
-1.5467383 -1.304673 3.3961728
-1.5152566 -1.2823396 3.4237175
-1.5270056 -1.2820466 3.4136252
-1.2826967 -0.7490173 3.540899
-1.5969801 -1.2520828 3.130861
-1.5453562 -1.2821032 3.4265201
-1.5407004 -1.272706 3.4068286
-2.1370554 -1.2111526 3.5248375
-2.1185632 -1.2033043 3.5012069
-2.1536312 -1.2024006 3.5386374
-1.031478 -1.2518343 3.6157522
-1.5655798 -1.2057949 3.4348323
-2.1949472 -1.2208941 3.6028414
-2.024786 -1.1250181 3.4116216
-2.0016496 -1.1273483 3.3808773
-2.0324602 -1.1369833 3.4375336
-2.0879567 -1.1543156 3.5102217
-2.0675783 -1.1411433 3.4774561
-2.0206869 -1.1278024 3.4254038
-1.5074815 -1.3973166 3.4210525
-2.1137714 -1.0064362 3.5798888
-1.6032414 -1.1846071 3.3393006
-2.0499451 -1.0075549 3.5031922
-1.5696235 -1.3009901 3.175745
-1.5970427 -1.185083 3.3310935
-2.0586212 -0.86364657 3.559824
-2.076215 -0.86897361 3.5885613
-2.068073 -0.86135387 3.6205039
-1.309901 -0.97644621 3.3481019
-1.9613107 -0.83848953 3.457459
-1.614568 -1.1437086 3.1635349
-1.5773072 -1.2162479 3.2223289
-1.5466131 -1.4565487 3.3422201
-1.5773112 -1.2837135 3.4655144
-2.0066655 -0.97619575 3.4424801
-2.2281353 -1.2377676 3.6378763
-1.3615589 -1.2398033 3.4143739
-1.2858937 -0.74043965 3.4757435
-1.5048234 -1.3773139 3.3421133
-1.5220039 -1.341692 3.2965176
-1.5515395 -1.4043063 3.4023371
-1.5174297 -1.3741881 3.3573546
-1.517567 -1.3409054 3.337935
-1.5376899 -1.3446562 3.3693092
-1.534096 -1.3303845 3.3732791
-1.5264226 -1.330291 3.3971505
-1.5164319 -1.3127667 3.3580189
-1.5133832 -1.2974073 3.3918843
-1.5453943 -1.3207723 3.4198089
-1.5609008 -1.2866321 3.4130197
-1.5254574 -1.2827057 3.4138474
-1.9922001 -0.72277969 3.4265873
-1.5434504 -1.311837 3.4893277
-1.7429856 -0.77710527 3.3752
-1.3996454 -1.460343 3.3663216
-1.5681974 -1.2080402 3.4351182
-1.5602853 -1.5107729 3.4126399
-1.3881831 -1.4709275 3.4402792
-1.3812361 -1.421033 3.3602607
-1.5476956 -1.523924 3.4296179
-1.5505232 -1.485063 3.3736079
-1.5522443 -1.5338739 3.4495304
-1.547769 -1.4774947 3.3603678
-1.5394721 -1.5200578 3.4601579
-2.0188556 -1.1171725 3.40798
-1.5158569 -1.4748776 3.4083898
-2.0333042 -1.1240705 3.4278755
-1.5225803 -1.451816 3.3708746
-1.5298233 -1.4656549 3.3815148
-1.5349525 -1.4749138 3.3946991
-1.5084717 -1.4827439 3.4391797
-1.5422513 -1.493573 3.4263053
-2.0004463 -1.1215328 3.396198
-1.5029141 -1.4179087 3.3706474
-1.492871 -1.4174378 3.3684011
-1.5091095 -1.4481163 3.4007792
-1.5114338 -1.3932612 3.3682737
-1.5049971 -1.3866575 3.4067206
-1.9795213 -1.2150939 3.3845596
-1.9912122 -1.2234913 3.4052796
-2.2360537 -1.0590223 3.7435405
-2.0986774 -1.0371186 3.5657036
-1.9960427 -1.2007023 3.4183462
-1.5233284 -1.3282926 3.5898263
-2.0970283 -0.99258906 3.5592136
-1.4914458 -1.2791907 3.4657383
-2.118984 -0.99618846 3.5928316
-1.5992341 -1.2614454 3.4270151
-2.0285885 -0.98659563 3.4835854
-1.9813724 -0.95974898 3.4095516
-1.995175 -0.946199 3.4110684
-2.0393617 -0.94144595 3.4898629
-2.1083922 -0.96327865 3.5968032
-2.034025 -1.0022038 3.4906204
-1.5924218 -1.2793292 3.5030127
-2.0007384 -1.2327738 3.4632998
-2.0012836 -1.2324951 3.4570794
-2.0179942 -1.2465824 3.4969616
-2.0760458 -0.86417609 3.5942836
-2.0563989 -0.85489845 3.5942078
-2.1902027 -1.3805922 3.5285497
-2.1503308 -1.3344281 3.4882011
-2.1200182 -1.1873032 3.4927449
-1.4183493 -1.2886387 3.2617228
-1.3844413 -1.2189755 3.3591549
-1.5562052 -0.68944389 3.1666434
-1.4142081 -1.4500988 3.349884
-1.0334159 -1.4621214 3.5233469
-1.0637982 -1.3046963 3.6135221
-1.4177079 -1.188175 3.3071971
-1.0811079 -0.68752521 3.5163429
-1.4975462 -0.97602487 3.3059521
-1.1828043 -0.747814 3.5513899
-7.4715643 -3.8419459 8.3807478
-6.7348585 -3.725306 8.4983006
-6.5339313 -3.773891 8.3758698
-1.7400404 -1.1471732 3.2238421
-2.222594 -1.2344612 3.6307986
