# .PCD v0.7 - Point Cloud Data file format
VERSION 0.7
FIELDS x y z
SIZE 4 4 4
TYPE F F F
COUNT 1 1 1
WIDTH 604
HEIGHT 1
VIEWPOINT 0 0 0 1 0 0 0
POINTS 604
DATA ascii
0.42804685 -0.19390458 3.7632816
1.4767261 -0.26473096 3.8446345
1.1235629 -0.23803119 4.041461
0.81120443 -0.12538901 3.663826
1.1695123 -0.20521824 4.0316644
1.3660524 -0.19972953 3.909936
0.62584293 -0.41303188 4.0044684
1.2941065 -0.31903902 3.9910939
1.3517259 -0.13904667 3.8992827
1.3488448 -0.16958831 3.8904951
1.1835587 -0.22705732 4.0271969
0.73016143 -0.033128276 3.4931231
0.71611488 -0.29757529 3.963752
1.3823823 -0.32604963 3.8402538
1.3538249 -0.33678168 3.8760283
0.49654186 -0.15123516 3.737077
1.1173322 -0.33873361 4.0037265
1.1595187 -0.3777914 3.9939258
1.2058076 -0.28004804 4.0265183
1.2796259 -0.2536307 4.0289698
1.3677517 -0.042282261 3.8678668
1.307366 -0.10388386 3.9219189
0.67589855 -0.57299274 3.8265982
1.1450747 -0.32962093 4.0043845
1.2347558 -0.21975045 4.0239639
1.1174421 -0.40048856 4.0611439
0.92500639 -0.43289435 4.0123224
1.4813019 -0.2815446 3.8431177
1.4095329 -0.21477437 3.8663416
1.3784465 -0.28113866 3.8537526
0.86057514 -0.076223269 3.6016462
0.77962184 -0.34657866 3.9175816
1.3212738 -0.30323637 3.9024298
0.9088608 -0.30675623 4.0614743
0.47813594 -0.18276498 3.7506053
0.75445485 -0.40877342 3.88483
0.29311407 -0.18098105 3.6911895
0.35228571 -0.29943687 3.8840632
1.4033965 -0.19367692 3.916847
0.73077273 -0.36299857 3.9902964
1.1070608 -0.27634445 4.0246606
1.2248639 -0.1802026 4.0457463
1.3302577 -0.24895436 3.9203937
1.1189668 -0.19907923 4.0654397
1.3752426 -0.096221119 3.8641975
0.51432186 -0.62613672 3.7146695
0.71932036 -0.3739261 4.0075655
0.70522428 -0.12713398 3.6991923
0.38478521 -0.19742975 3.761909
0.39241004 -0.19532342 3.7689309
0.25428897 -0.19385098 3.6911652
0.65119064 -0.30985793 3.9828784
1.0964851 -0.24501188 4.0402184
0.25041047 -0.18418254 3.7053287
0.67994171 -0.15038776 3.7407732
0.71765643 -0.30901372 3.932091
0.52564383 -0.15285383 3.7281847
0.31823611 -0.22439656 3.8029711
0.66525805 -0.089592114 3.6054921
1.2500225 -0.25312841 4.0023394
0.28165913 -0.23459724 3.8009253
0.81998271 -0.11683238 3.6288607
1.4697554 -0.26508129 3.8411326
1.4963963 -0.19396108 3.8528121
0.47622907 -0.15509588 3.7091064
1.4025737 -0.24653909 3.8721182
0.70602483 -0.096369073 3.6190689
1.246013 -0.014884429 3.7402294
0.90883124 -0.25689662 4.026557
1.3721629 -0.16123632 3.9238605
1.1289634 -0.27068564 4.0299945
0.77451652 -0.081329912 3.5798545
1.5093164 -0.19647142 3.8500681
1.1601133 0.024289517 3.6373456
0.78818697 -0.14509732 3.6804168
1.2006383 -0.22669017 4.0300975
0.77126366 -0.060301304 3.5438445
1.378513 -0.29528418 3.8610604
1.141466 -0.33291197 3.99862
0.76068503 -0.2127004 3.8962717
1.2199683 -0.26280466 4.0463424
0.91347909 -0.41794369 4.0160761
1.1654444 -0.06776315 3.7240572
1.3903993 -0.2315049 3.8850396
1.4024355 -0.19865948 3.8769588
1.3290006 -0.19210054 3.9558332
1.1461962 -0.38213161 3.9990644
1.1426029 -0.33021644 4.0027814
1.1165888 -0.37977439 3.98648
1.4920596 -0.28416267 3.8457084
0.80523819 -0.30811656 3.9398789
0.93116593 -0.43182293 4.0227304
0.92371851 -0.37473309 4.0107536
1.3676924 -0.1955376 3.889605
1.3377452 -0.098997474 3.8854547
1.4388722 -0.21664472 3.854387
1.2107664 -0.2816627 4.037149
1.1010598 -0.28192353 4.0348825
1.2286859 -0.2790474 4.0696044
0.74648571 -0.054892167 3.5271301
1.2173249 -0.25169688 4.0348778
1.3245327 -0.3901912 3.9082699
1.421855 -0.24362506 3.859761
1.3999436 -0.24732152 3.8710816
1.2135435 -0.18098697 4.0388784
1.4798856 -0.28626645 3.834729
0.75468874 -0.12462883 3.667125
0.83364785 -0.1293622 3.6776948
1.4340498 -0.21529213 3.8459473
1.2661343 -0.27814478 4.1249266
1.357879 -0.35124007 3.8870168
1.0697876 0.099383987 3.4619696
1.271854 -0.46124342 3.9488945
1.2997788 -0.10151325 3.9441717
1.0890806 -0.2862139 4.0414033
1.3674625 -0.17859052 3.8983781
1.3525245 -0.11519369 3.8940032
0.85766625 -0.073643021 3.6047347
1.313622 -0.14551206 3.9542973
1.2037183 -0.22855809 4.0198884
0.89513075 -0.090247482 3.6806054
0.33253658 -0.19010894 3.7083776
0.8555851 -0.072119519 3.6036799
1.2723764 -0.26930618 4.0484772
0.83627987 -0.13076024 3.6797929
0.86054283 -0.16827658 3.7701817
0.44788188 -0.48624453 3.7840848
0.77756381 -0.10778923 3.6264009
0.65452474 -0.059503693 3.5823474
0.6630134 -0.093497254 3.6061449
0.85643309 -0.069765233 3.6076386
0.71646374 -0.18503028 3.8745668
0.82737517 -0.15615883 3.7508767
0.66469842 -0.12192573 3.7228868
0.26389942 -0.23877625 3.7962098
0.89862448 -0.13438462 3.734612
0.81531626 -0.12280326 3.6573958
0.81539553 0.0025813081 3.5416
0.52858067 -0.15704861 3.7250309
0.70823097 -0.089326963 3.5936158
0.74009192 -0.083135203 3.5705445
0.70612955 -0.090913609 3.5864127
1.0435312 0.075823218 3.467308
0.62397331 -0.070618391 3.5663202
0.78165996 -0.049818579 3.5441816
0.88485324 -0.10851044 3.6634631
0.74055481 -0.094018459 3.5838521
0.77223527 -0.12612127 3.672936
0.90374619 -0.16646461 3.8076019
0.73864061 -0.080720082 3.5646935
0.70682395 -0.093164094 3.6261451
0.902183 -0.16636313 3.8119819
0.449278 -0.48779646 3.7819159
1.2239081 -0.046658035 3.7191958
0.71308756 -0.20202474 3.8699441
0.70810699 -0.32550332 3.946615
0.7162565 -0.18842544 3.8640094
0.71549505 -0.18630615 3.8640096
0.72892475 -0.19435968 3.8725288
0.70918196 -0.20565321 3.873502
0.68902498 -0.20526923 3.8985946
0.48789042 -0.54606998 3.7565248
0.77947366 -0.11848237 3.6589015
1.4927323 -0.18926167 3.8494143
0.77920294 -0.13853483 3.7053576
1.2891343 -0.41025186 3.9780722
1.3629215 -0.19848931 3.9058752
1.3233635 -0.39291635 3.9291861
0.70442295 -0.099863596 3.603338
1.3974289 -0.1805191 3.877919
1.3937764 -0.19142565 3.9200563
1.3813941 -0.18510702 3.9071133
1.3259039 -0.16202177 3.96118
1.0755925 -0.20762068 4.0711827
0.76957875 -0.081698388 3.580148
0.84949529 -0.085894339 3.5983601
0.77000648 -0.14187868 3.6981151
0.72017199 -0.091178946 3.5760403
0.8250677 -0.15540135 3.7474551
1.1416478 -0.37308913 3.9942508
0.7879886 -0.1163983 3.6451411
0.65344107 -0.057281096 3.5804336
0.73756093 -0.085901856 3.5706868
0.81636709 0.0055228979 3.5472062
0.62494266 -0.074491866 3.5624881
0.34237134 -0.18797097 3.7119539
0.348795 -0.18615225 3.7280459
0.72595203 -0.047753971 3.5053947
0.72611374 -0.095467374 3.5990095
0.78112429 -0.051059153 3.5477304
1.1272361 -0.37603009 3.9909964
0.75772506 -0.12155153 3.6649175
1.3405168 -0.16955903 3.9704978
1.2266182 -0.22294649 4.0243735
0.79158479 -0.13849843 3.7083397
0.76837409 -0.079509743 3.5844557
0.9134984 -0.081399031 3.595937
0.28898895 -0.22088391 3.7518835
0.3490997 -0.1864575 3.7293811
1.3539429 -0.35212275 3.8768682
0.78300864 -0.098346777 3.6562915
0.80498683 -0.19046746 3.9140291
0.73526478 -0.22373386 3.9198689
0.77557927 -0.11345363 3.6128237
0.47768945 -0.15242346 3.716655
0.21412234 -0.17139654 3.723686
0.4869585 -0.5524478 3.752187
0.47999358 -0.15416622 3.7013235
1.2766858 -0.058716398 3.8189282
0.49201792 -0.14612029 3.6977367
0.92439997 -0.40177649 4.0260863
0.52627265 -0.15520224 3.7315149
1.2765687 -0.06623444 3.7928755
0.27540028 -0.18723999 3.6997204
0.82592148 -0.11551741 3.6512713
0.28086659 -0.20119438 3.7083235
0.79156697 -0.11869566 3.610276
0.75008601 -0.075439155 3.5733819
0.50028563 -0.17420845 3.7386894
0.47590339 -0.1821321 3.7595458
0.46662024 -0.43252924 3.8014357
0.48340693 -0.17617515 3.7531486
0.42665929 -0.18721893 3.7552958
0.30449733 -0.22655019 3.7767513
1.1132206 -0.33714819 4.0019355
1.1091595 -0.33532289 4.0461178
0.81938493 -0.12538113 3.6670098
0.70646781 -0.12440842 3.7065408
0.85673141 -0.1288812 3.6759882
0.77225029 -0.080430426 3.5863118
1.0123198 0.088395737 3.4571869
1.0400145 0.070526384 3.4569526
0.83085155 -0.12288997 3.6451769
0.92087823 -0.25380605 4.0615892
1.1362792 -0.4054392 4.0161357
0.5291903 -0.1564185 3.7240198
0.94232857 -0.29281428 4.0689497
0.25783715 -0.23853587 3.8015609
0.7632302 -0.14021167 3.7079618
0.77414811 -0.13985911 3.7054286
0.29676831 -0.22272375 3.7806618
0.82181674 -0.11866117 3.6515696
0.67242897 -0.58119386 3.8544993
0.51562518 -0.1751802 3.8008621
0.29435179 -0.1843551 3.6982765
0.5561589 -0.17348923 3.7716818
0.5545553 -0.17389143 3.7714012
0.53943938 -0.16751951 3.7160728
0.55385643 -0.17706588 3.7599406
0.82131356 -0.1574512 3.7403002
0.34487158 -0.18676344 3.7292049
0.42589498 -0.18967639 3.7623818
0.33493337 -0.19571485 3.7531726
0.3146193 -0.19351421 3.8563471
0.73060906 -0.12245619 3.6617594
0.25184885 -0.23113008 3.7702172
0.3388046 -0.22031952 3.7710774
0.51922816 -0.17873278 3.748486
0.52125144 -0.18095186 3.7406805
0.79638076 -0.11395027 3.6235271
0.52729076 -0.18593062 3.7374418
0.65915376 -0.093436129 3.6055419
0.45115587 -0.3202911 3.8643544
0.64900368 -0.17652677 3.8277473
0.64582968 -0.1766489 3.8245156
0.64848483 -0.17631288 3.8283818
0.74108839 -0.093191214 3.5838001
0.74255085 -0.051068619 3.5300853
0.64762002 -0.17686684 3.8279819
0.28281251 -0.2367564 3.8006554
0.72668386 -0.096024245 3.5984442
0.74851376 -0.32125553 3.8850627
0.71207476 -0.19540988 3.8793178
0.76092619 -0.10900179 3.6394835
1.3814694 -0.16188447 3.8636763
0.96590239 0.02482352 3.5190859
1.1472501 -0.38014001 3.9912593
0.63592285 -0.04383212 3.5425231
0.69330186 -0.12074499 3.6937726
0.87743109 -0.025490817 3.6090865
0.76929969 -0.095562629 3.6146233
0.73700178 -0.082528889 3.5631683
1.1456918 -0.3830308 3.998281
0.70692033 -0.091133527 3.5862501
0.90323293 -0.25441498 4.0626311
0.6238426 -0.072413884 3.5636561
0.34764802 -0.18569432 3.7316
0.67206061 -0.089616492 3.6173933
0.82680625 -0.15605037 3.7477839
0.70306134 -0.12632088 3.7004316
0.65901679 -0.086730339 3.6203744
1.1250569 -0.23565488 4.0434141
0.71066695 -0.093397543 3.585561
0.71234626 -0.090182975 3.5938001
1.1847564 -0.23416038 4.0260649
0.72564483 -0.086880788 3.5758433
0.77450818 -0.03975058 3.5733302
0.32683527 -0.18417032 3.7258067
1.2889093 -0.24951763 4.0209546
1.1259134 -0.19193287 4.0685496
0.69820827 -0.094343148 3.5946145
0.72763538 -0.045844525 3.5035987
0.78251737 -0.079515278 3.5946109
1.2723136 -0.26940164 4.0445952
0.72587675 -0.048317913 3.5042474
0.72768003 -0.05174901 3.5018797
0.86196005 -0.058107488 3.604845
0.76283789 -0.069750212 3.5838261
0.70432407 -0.044398073 3.489588
0.72703421 -0.0488858 3.4967699
0.78520095 -0.076482199 3.592643
0.72532904 -0.2634654 3.9002998
0.74610209 -0.22155258 3.9157362
0.28999075 -0.18374269 3.702332
0.73047996 -0.36238188 3.9628687
0.4825269 -0.15221249 3.7095454
0.740704 -0.34937978 3.9281144
0.74055916 -0.34721583 3.9189014
0.7585637 -0.2251357 3.9229116
0.76203287 -0.22567196 3.9180589
1.207634 -0.046664175 3.6791453
0.44889516 -0.31510377 3.8556981
0.45041373 -0.31604642 3.8546288
0.86664069 -0.15940183 3.7479126
0.67368656 -0.15247497 3.7290099
0.76719743 -0.24183798 3.9595368
0.49209565 -0.1448873 3.7032399
0.48312682 -0.15286356 3.7107832
0.23134181 -0.18995634 3.6886778
0.77688903 -0.25192195 3.9686921
0.70557153 -0.10216417 3.624541
0.50875586 -0.15121906 3.756629
0.76278996 -0.07241419 3.5890763
0.31753752 -0.20408516 3.7506325
0.28826737 -0.17975782 3.6845281
0.7221576 -0.02128429 3.4938328
0.36847171 -0.19797212 3.7514009
0.28312081 -0.2166547 3.7587771
0.26389962 -0.22320889 3.7695405
0.25721756 -0.22180243 3.7889433
0.77499247 -0.13929689 3.6436682
0.28288823 -0.23435687 3.8007975
0.46614566 -0.73531538 3.8577795
0.46834677 -0.43621844 3.8091223
0.25238988 -0.23561966 3.7790356
0.46907201 -0.43511385 3.7917995
0.22974716 -0.24034375 3.7855303
0.83870429 -0.052268159 3.6126137
0.22228131 -0.24707812 3.7983904
0.71004349 -0.12312726 3.7251291
0.23689422 -0.25140345 3.7936831
0.89481878 -0.056702346 3.5856593
0.33986974 -0.214393 3.7559509
0.33274421 -0.20693931 3.7657905
0.65646237 -0.053818654 3.5953538
0.70394635 -0.12629876 3.70066
0.48644722 -0.14416637 3.6927102
0.7454074 -0.12233515 3.6611655
0.27869835 -0.197079 3.7099512
0.85625482 -0.011703214 3.5843196
0.27970967 -0.19501272 3.7121415
0.77745104 -0.24985193 3.9631314
0.65690064 -0.058602881 3.5844543
0.70428222 -0.12766293 3.6977623
0.70186651 -0.10633406 3.6248927
0.98107868 0.05318106 3.4946291
0.47750005 -0.16868944 3.7258224
0.77780122 -0.13185087 3.65359
0.93122619 -0.42405874 3.9926267
0.92075461 -0.43367159 4.0138612
0.69068629 -0.14957523 3.7463634
0.73695475 -0.080687247 3.563091
0.91621691 -0.4003953 4.0085731
0.91786367 -0.40469569 4.0080757
0.91215378 -0.38993981 4.0584564
1.358587 -0.25384021 3.886739
0.78847551 -0.22341618 3.95611
0.922373 -0.40461549 4.0146523
0.66571057 -0.12310115 3.722878
0.92604607 -0.38080639 4.0187178
0.80530262 -0.11097481 3.6287615
0.70767707 -0.097279266 3.6191833
0.91554868 -0.37166575 4.0250163
0.90987134 -0.35624734 4.0244989
0.83519542 -0.1270875 3.6838312
0.67929012 -0.14843012 3.7475836
0.35388371 -0.29804045 3.8753359
0.21555677 -0.18762873 3.68133
0.29387173 -0.28244266 3.8770108
0.322238 -0.19224821 3.7398324
0.26666188 -0.17657499 3.6623211
0.43192908 -0.23621 3.8878329
0.25551799 -0.16053483 3.6335759
0.80273515 -0.10893849 3.6303675
1.197394 -0.076291427 3.740135
0.73639154 -0.02143041 3.4940133
0.24202558 -0.17754871 3.6623096
0.89606541 -0.13337004 3.7344217
0.97011673 0.033818472 3.5022869
0.30317181 -0.16642922 3.6568258
0.7181654 -0.30366924 3.9754117
0.71053791 -0.32074067 3.9428451
0.4966304 -0.14126067 3.6929469
0.88776267 -0.14263141 3.7608845
0.25240695 -0.18251799 3.6676211
1.3565068 -0.34970379 3.8814387
0.74922776 -0.25293493 3.9646323
0.7635383 -0.20914152 3.9140556
1.3763626 -0.0012204368 3.7738533
0.81609809 0.0042355722 3.54689
0.70102489 -0.271292 3.9707799
0.89905131 -0.16215956 3.8180504
0.23835313 -0.17777734 3.6750355
0.54743773 -0.26443145 3.9780297
1.3427765 -0.26633817 3.8712983
1.2755394 -0.067052118 3.8059046
1.330116 -0.2525886 3.9117038
1.3301662 -0.24196869 3.917789
0.6027143 -0.27545154 4.0053101
0.40628159 -0.58583897 3.7531927
0.22394679 -0.18489242 3.6686451
1.1101913 -0.38174054 4.0237999
0.9105041 -0.35279176 4.0279918
0.21826078 -0.1899509 3.6870933
1.2874384 -0.34637207 3.9860911
1.3086394 -0.21799986 3.9903812
1.3089119 -0.2279691 4.0047545
1.1030951 -0.27757776 4.0904489
1.1270485 -0.40641943 4.0491953
0.66125643 -0.061683979 3.5818012
0.20680375 -0.2052 3.7099373
1.0907969 -0.27476749 4.0891261
0.9430902 -0.43095484 4.0518851
1.1947395 -0.2092983 4.0201735
0.52200466 -0.36134163 4.1227646
0.25352544 -0.15657389 3.6086042
0.72279984 -0.034760244 3.47258
0.77946711 -0.081281535 3.5800064
0.74895871 -0.066482767 3.5358248
0.45847744 -0.051665835 3.5154743
0.9389782 0.011291847 3.5763199
0.36464936 -0.19972777 3.7500186
0.89900506 -0.087136112 3.609333
0.73374188 -0.028463194 3.488755
0.76607221 -0.10808885 3.6963449
0.73589259 -0.023452204 3.4933872
0.62294233 -0.069793202 3.5658321
0.2678009 -0.18396778 3.6753628
0.62351924 -0.072639786 3.5589933
0.85814416 -0.16801094 3.7498801
1.183349 -0.04748692 3.7057469
0.7559365 -0.41502148 3.8772225
0.75621897 -0.39874411 3.859971
0.75511706 -0.41220224 3.883388
0.6407963 -0.17052931 3.8376222
0.34140363 -0.21233837 3.7553284
0.45848158 -0.24318375 3.8724172
0.45556414 -0.24516028 3.8913639
0.62566388 -0.41114551 3.9819353
0.63704318 -0.41216001 4.0292573
0.45689809 -0.24100615 3.8952146
1.1786555 -0.069234863 3.7474308
0.59361678 -0.38419342 3.9727359
0.6908862 -0.21442337 3.8940811
0.50291175 -0.15210855 3.7209888
0.69663292 -0.21903795 3.9019885
0.71930873 -0.19959237 3.9352274
0.58392948 -0.34965965 4.002461
0.5796501 -0.34885129 4.0155926
0.58201855 -0.33879137 4.0018678
0.72597581 -0.26023179 3.8974082
0.51360649 -0.62797171 3.7016628
0.73790699 -0.063923664 3.5009782
0.28437907 -0.1775647 3.749414
1.4201918 -0.24695575 3.8515065
0.6189245 -0.37038371 3.9360588
0.26594621 -0.19206472 3.7032087
0.73364556 -0.097697705 3.6197009
0.40714556 -0.58465457 3.7537107
0.20382458 -0.20582044 3.7106092
1.2720191 -0.066681981 3.7995434
0.71333224 -0.23211522 3.9688783
0.73242384 -0.1050886 3.6089871
0.25505012 -0.18929633 3.7007649
0.23219265 -0.19830072 3.7100251
0.48869365 -0.5495106 3.7479942
0.78714544 -0.22317721 3.9524052
0.69041437 -0.5464251 3.8836112
0.68960172 -0.54478866 3.8934336
1.3269271 -0.061213963 3.8637333
0.62321341 -0.058737788 3.548847
0.34598541 -0.1939564 3.7600384
0.70378733 -0.0090877293 3.4724059
0.29971838 -0.20829473 3.7523572
0.23015299 -0.1843901 3.6764169
0.86101007 -0.30676275 4.0717115
1.3328855 -0.18929924 3.9605751
1.2932174 -0.25933945 3.9743183
0.89931661 -0.31189531 4.039176
1.1393161 -0.3917861 4.0196967
0.80926973 -0.12103291 3.6763074
0.4599832 -0.056294002 3.4988825
1.2998625 -0.2073092 3.9615638
0.65359807 -0.30817664 3.9700623
0.35623538 -0.19788598 3.7531931
0.51489717 -0.35790074 4.1671438
0.51343793 -0.35902745 4.1804509
1.1987778 -0.19327953 4.0668077
0.30220225 -0.20939419 3.7486074
0.53244585 -0.38516411 4.1720862
0.92790377 -0.32834888 4.0606136
0.34060943 -0.18786876 3.7327411
0.53666055 -0.16593759 3.7260542
0.88677084 -0.1077118 3.6625671
0.33447945 -0.19405846 3.7556574
0.77229953 -0.14271782 3.6948171
0.54907811 -0.16221611 3.729794
0.59969854 -0.37250814 3.9788091
1.3487881 -0.35222769 3.8704872
0.35487038 -0.19863674 3.7499645
0.25924394 -0.24174157 3.8154051
0.90470982 -0.04593201 3.6080112
0.26256531 -0.23770927 3.8036175
0.32694775 -0.21758029 3.8276608
0.22895332 -0.25656563 3.8289306
0.25163749 -0.2515794 3.8245595
0.23702011 -0.26235116 3.7896237
0.50378007 -0.18120635 3.7908289
0.51902789 -0.18279967 3.7793212
0.67074054 -0.58324975 3.8702557
0.86997813 -0.15336223 3.7670064
0.85332626 -0.17165025 3.7550731
0.8953954 -0.13138849 3.7339454
0.87816203 -0.15056747 3.709507
1.1429125 -0.04895135 3.7815752
1.145784 -0.075108193 3.7338221
0.74430001 -0.18727429 3.8907797
1.1464417 -0.07096003 3.7386675
1.1513532 -0.072790682 3.7382417
0.72194266 -0.30262762 3.9668698
1.3434159 -0.38196126 3.7886026
0.75851053 -0.22610891 3.9198976
1.4010183 -0.32763371 3.8401749
0.50406623 -0.15275361 3.7214861
1.2544014 -0.051343527 3.72627
1.303988 -0.42695445 3.9239781
1.4840147 -0.19483921 3.8653989
1.296569 -0.05285152 3.8439851
0.67885327 -0.098676309 3.6164234
0.31255212 -0.21262215 3.7288523
0.86882007 -0.30257988 4.105866
0.81041563 -0.19979228 3.919323
1.3530101 -0.16832028 3.8896201
1.1146603 -0.3860774 4.0357356
1.4153887 -0.16695292 3.8492975
0.68493962 -0.48999521 4.0892091
0.7194109 -0.26689717 3.9441445
1.2826285 -0.14455272 3.8043745
1.45956 -0.11110772 3.8735907
1.1194056 -0.3637403 4.0010324
1.1024691 -0.35648182 4.0153332
1.2899051 -0.34523359 3.98683
1.3195517 -0.21065433 3.9452205
1.3212535 -0.1908204 3.9439852
1.0883118 -0.31724879 4.0320201
1.315017 -0.19203907 3.9756765
1.176391 -0.21934342 4.0191345
0.86056745 -0.26920182 4.0979228
1.1014732 -0.26746169 4.1160789
1.2084017 -0.20139842 4.0462685
1.3165833 -0.14798611 4.0001111
1.3000184 -0.24238206 4.0416012
0.52449667 -0.18114835 3.7629654
0.24735072 -0.15572195 3.6163726
0.24470672 -0.15518822 3.6229353
0.72239637 -0.19317387 3.8738093
0.62070292 -0.37379676 3.966342
1.3215568 -0.2020779 4.0023403
1.271467 -0.21913503 4.0467644
0.58047098 -0.34806296 4.0206809
0.8023212 -0.20407838 3.9220681
1.1066347 -0.38604829 4.0201626
1.1106658 -0.2387026 4.0985503
0.68404806 -0.087527268 3.6367121
0.66467506 -0.10933415 3.5838971
0.87651014 -0.15665928 3.7500484
0.88346046 -0.061489932 3.5751128
1.3165412 -0.20987615 3.9740016
0.84202307 -0.11763735 3.6714056
0.75560284 -0.12743168 3.6633055
1.1587976 -0.38555208 4.0264487
1.1314118 -0.27121812 4.0244493
0.54916072 -0.26914278 3.9758034
0.75542808 -0.41368046 3.8953633
0.77266407 -0.44426191 3.8679781
0.94077188 0.013483468 3.5797904
0.78022647 -0.049198031 3.5494616
1.3705448 -0.0054568341 3.7629783
0.43741187 -0.23854472 3.871454
0.72096163 -0.079036251 3.5773768
0.44880012 -0.24460782 3.8844724
0.83455694 -0.12990659 3.6801472
0.65448791 -0.095433787 3.5944204
0.89447737 -0.30767065 4.030983
