# .PCD v0.7 - Point Cloud Data file format
VERSION 0.7
FIELDS x y z
SIZE 4 4 4
TYPE F F F
COUNT 1 1 1
WIDTH 459
HEIGHT 1
VIEWPOINT 0 0 0 1 0 0 0
POINTS 459
DATA ascii
-0.53333735 -0.26172009 2.7895586
-0.37179905 -0.23393929 2.7980604
0.078470513 0.90600801 2.5187135
-0.56592864 -0.38536289 2.8928015
-0.47468746 -0.9599387 2.9814594
-0.99868965 -0.79833406 3.4307828
0.094945639 0.87106943 2.4489276
-0.077631176 0.74018919 2.5857577
0.0097740404 0.51629305 2.3115151
-0.088241853 -0.78298861 2.833293
-0.50645298 -0.92275381 2.8319719
0.59661043 -0.10469776 2.4268589
-0.37517121 -0.18164723 2.7239954
0.47565219 -0.242928 2.6334441
-0.62957144 -0.22285806 2.7309768
-0.5003112 -0.19614981 2.719209
-0.44835064 -0.27796891 2.8346078
0.60856754 -0.0057484061 2.46612
0.59506631 -0.037017524 2.5625823
-0.71101671 -0.7247355 2.893584
-0.17881298 -0.30727291 2.7455368
-0.52670962 -0.63197589 2.7955575
-0.13353249 -0.67496526 2.7315497
-0.35003927 0.029609276 2.4745812
-0.078594789 0.74117047 2.5906174
-0.91781408 -1.0367738 2.900337
-0.2214604 0.011742735 2.4798064
0.60585356 -0.26137939 2.464041
0.56153893 0.058009036 2.5344877
-0.1614242 0.065431625 2.3772814
0.60286391 -0.13926969 2.4189813
0.62371951 -0.17258756 2.3949182
0.48631084 -0.22738181 2.5978336
0.52747679 -0.12541987 2.6236763
0.57972991 0.024478558 2.5333235
-0.075662963 -0.8676393 2.7554955
-1.3615744 -0.016540451 2.5795462
-1.0350238 -0.36244202 2.8530464
-0.44913042 -1.0019375 2.7410767
-0.35086587 0.028694008 2.474474
-0.9927938 -0.38097405 2.8081906
-0.9959783 -0.43096948 2.7635324
-0.087660104 -0.061681524 2.6100035
0.099298745 0.87792456 2.4463286
-0.16159044 0.060246497 2.3764639
-0.025901169 -0.034009676 2.4827547
-0.59822828 -0.24312904 2.7565963
-0.068445444 0.012044389 2.4231815
-0.13314237 -0.0013533293 2.4148939
0.57808995 0.074360922 2.4621978
0.54347718 -0.060587637 2.6190839
-0.25864431 0.86605942 2.4472704
-0.11957879 0.22834289 2.1096809
0.4139562 -0.13150115 2.7035162
0.033277199 -0.12773041 2.7019522
0.10770746 -0.26444009 2.6820879
-0.66992778 -0.70254433 2.8750424
-0.96579099 -0.48594236 2.776907
-0.95012975 -1.1739835 2.8615901
-0.248126 -0.15037419 2.6895487
0.48033452 -0.18362841 2.6290045
0.13315782 -0.059042208 2.5574322
-0.087085955 -0.12092642 2.6873968
0.60755539 -0.19812624 2.4851587
0.71479893 -0.0072419927 2.3524666
0.46051249 -0.13107514 2.6717966
-0.68194926 -0.70343089 2.8740704
-0.015987337 0.69080746 2.5953717
-0.65306407 -0.22887395 2.7303791
-0.94605762 -0.36214221 2.7847283
-0.43371472 -0.23971155 2.7252588
-0.061761763 -0.035588574 2.435667
0.48934141 -0.18391706 2.6444275
0.59806275 -0.11164748 2.4266641
-0.071466513 -0.86668509 2.7510395
0.68025929 0.1074376 2.4276309
0.6166625 -0.24270922 2.5225105
-0.055263463 -0.05430131 2.5242836
0.56958824 0.047319293 2.5490506
0.11040802 -0.2657263 2.6892176
0.58036709 -0.11509503 2.4613061
-0.3652589 -0.18702397 2.7059009
0.5049547 -0.11571319 2.6022112
0.48685029 -0.23293784 2.6028054
0.0026627509 -0.0040024575 2.4442554
0.60522985 -0.27685297 2.4472136
0.090948343 -0.12757756 2.6996427
-0.23422113 -0.14460306 2.6896498
0.10100552 0.87340909 2.4519866
0.50508767 -0.076940991 2.6808405
0.01269581 -0.0069951876 2.4393032
-0.033755075 0.013301211 2.4345655
-0.6797744 -0.70234984 2.8775513
-0.20719665 0.19300474 2.2403185
0.48234451 -0.23630843 2.6031976
0.59824419 -0.19822113 2.4896364
0.50071448 0.040990535 2.4902718
0.44914249 0.26113951 2.2482102
0.61181021 -0.25954336 2.511152
-0.57127708 -0.28513086 2.7356243
-0.49778607 -0.20327826 2.7155337
0.027918585 0.03885683 2.3936179
-0.43498641 -0.18035901 2.7126284
-0.93723017 -0.40823916 2.7518194
-0.17617849 -0.31552958 2.6549006
-0.86225724 -0.88898331 2.9961684
-1.2407892 -0.44657168 3.8432467
0.44919962 0.2659997 2.2673366
0.10840802 -0.11981843 2.698261
-0.98759317 -0.45354384 2.9055388
0.60628438 -0.081135429 2.5707324
-1.2013675 -0.40991282 2.9038227
-0.57093251 -0.13991478 2.625864
-0.115738 0.50465643 2.3552837
-0.93622923 -0.99214387 2.991297
-0.010394263 -0.0099802325 2.4455264
-0.89763635 -0.63239038 3.1819532
-0.47545445 -0.25069991 2.793478
-1.4537971 -0.26998278 2.6620243
-0.55095279 -0.22355992 2.7432005
-0.10619041 0.036734574 2.3933856
-0.93921262 -0.36040753 2.7805672
-0.24406669 0.81455487 2.5012698
-1.018566 -0.54611421 3.6876302
-1.0351142 -0.46312147 3.7613196
-0.11602563 0.73157448 2.6754377
-0.95184219 -0.96687943 3.5813415
-0.93848461 -0.97914594 3.6045139
0.43813884 -0.14116631 2.662905
0.96413261 -0.11462021 2.2835288
0.53904927 0.1878642 2.2648957
0.4251743 -0.20417202 2.6568115
-1.0921118 -0.31852642 3.830447
-1.173931 -0.4351961 3.8028345
-1.209028 -0.41066739 2.9047821
-1.0315559 -0.68962586 3.4807248
-1.1544648 -0.27822 3.7789717
-1.0250127 -0.41442564 2.8474085
-0.13829939 -0.57411802 2.5994501
-1.2383398 -0.51931673 3.8636937
-0.91960168 -1.0896151 2.82886
-1.1420422 -0.24395202 3.7447934
-1.1106241 -0.28835207 3.8837695
-0.97952181 -0.46997935 2.8477752
0.50037271 -0.062584169 2.6728821
-0.81947935 -0.50438207 2.8794794
0.58215475 0.10092372 2.4375916
-0.14578289 -0.60277295 2.5999334
-0.17295134 -0.57464039 2.5709395
-1.0979114 -0.32928568 3.7961864
-0.051536333 0.76093775 2.5835011
0.53107822 -0.028935185 2.6323075
-0.54151398 -0.88613361 2.8202155
-0.81204361 -1.2333176 3.2787948
-0.90169728 -1.1799469 2.7896235
-0.79971457 -0.55733055 3.1972792
-1.0135088 -0.45727041 2.8250751
-0.11028966 0.035100982 2.393281
-0.25231409 0.80820656 2.4969304
-0.081470855 -0.048191793 2.5578933
-0.94319046 -0.67258173 3.6996038
-0.25575387 0.8106038 2.4894655
-0.234687 -0.038485412 2.4730415
-1.3763252 -0.20743719 2.8277528
-0.32042772 -0.182335 2.7375352
-0.86214846 -1.1065496 2.7779853
-0.94062907 -1.0331347 3.2417889
-0.0037187762 -0.024364326 2.4918933
-0.98414207 -0.50299174 2.8654296
0.4773953 -0.17690909 2.6542933
-0.85639942 -0.96999758 2.8847871
0.67944789 0.15401119 2.4832497
-0.29054508 0.049338553 2.9445658
-1.0236076 -0.74812698 3.4166245
-0.010379807 0.031983316 2.4069326
-0.96477491 -1.1298115 2.9305825
-0.93506485 -0.98339295 3.5974426
-0.1468419 -0.33731923 2.7044475
-0.031875912 -0.16293648 2.6910579
-0.93337792 -0.40883988 2.7439432
-1.2248313 -0.43735865 3.8257895
-0.83530617 -1.1329486 3.355103
-0.61843634 -0.87814039 2.9289052
-0.94724649 -1.1270485 2.8553648
-1.0231768 -0.70064056 3.5222859
0.28043962 0.71185815 2.7307549
-0.93728507 -0.98609972 3.5966709
-1.0177122 -0.45779663 2.8193364
-0.43763891 -0.27258077 2.816931
-0.11121637 -0.77004743 2.6800351
-0.049778953 -0.82138342 2.7020624
-0.89062363 -0.91199636 3.5162642
-1.0574516 -0.57766527 3.7993808
-0.24859542 -0.22588463 2.8104694
0.031136855 -0.1433495 2.6901751
0.017765503 -0.15185583 2.7458384
0.41837463 0.24976845 2.263289
-0.051218372 0.6638903 2.5798142
0.23008953 -0.20127042 2.715781
0.76480752 -0.23963191 2.2728193
-0.99395311 -0.7967099 3.4207633
-0.53688723 -0.90574384 2.8290966
-1.0077341 -0.75259072 3.4369204
-0.61008424 -0.58755243 2.8412135
-1.0946763 -0.33031908 3.798142
-1.3898104 -0.12436353 2.6193635
0.095493227 -0.27105409 2.7055464
-1.0012292 -0.50344914 3.826858
0.0051997984 -0.20517516 2.7120285
-0.52127761 -0.92636013 2.8940239
-0.98358828 -0.65496969 3.2492564
-0.93939692 -0.66456062 3.717561
-0.47740346 -1.0471942 2.7697184
0.25133649 0.70171309 2.7413738
0.54449099 -0.10963517 2.6503663
0.56017286 0.053445265 2.4483309
0.76632714 -0.29160655 2.3768361
-0.082767151 -0.079307213 2.6019282
-0.29453215 -0.17185603 2.717241
-1.234719 -0.29784659 2.8189213
0.53898799 -0.058596291 2.3400185
0.58575195 -0.079885378 2.6020496
-0.55190229 -0.37667212 2.8919156
-0.22533719 -0.11118139 2.6532137
-0.43006471 -0.29269829 2.8584759
-0.059857659 -0.85129625 2.6786218
0.023196826 0.052994929 2.3849094
-0.16279916 -0.011749239 2.4958928
-0.90884161 -1.0427734 3.0365112
-0.99788916 -0.79859608 3.428076
-0.42543319 -0.29304114 2.8608346
-0.83369851 -1.1304057 3.3578398
-0.95629215 -1.0352948 3.242667
-0.082612939 -0.049587682 2.5571351
0.53153443 0.20657685 2.2668674
0.55886793 0.105962 2.4570673
-0.51841366 -0.095234349 2.5824749
-0.058576971 -0.90544361 2.7296071
0.49145779 1.0102953 2.4372809
-0.27325714 -0.12360959 2.6492565
-1.0339878 -0.37016371 2.8550344
-0.11311151 -0.64789325 2.6670787
-0.74017173 -0.032835808 3.6517689
-0.91909683 -0.76311374 3.6419208
-0.17443945 -0.051474467 2.4706132
0.42757115 0.21551353 2.1794336
-1.1735988 -0.42788938 3.7550471
0.057067893 -0.19183308 2.7268708
0.022911172 -0.14782162 2.73489
-0.36367199 -0.21752279 2.7574024
-0.083247244 0.051100977 2.3996336
-0.44034404 -0.28021604 2.8089938
0.5957914 0.027640056 2.5755646
-1.050024 -0.51731879 2.8178751
-0.20084362 -0.13984439 2.6764481
-0.53868389 -0.90736246 2.8272631
-0.53939837 -0.63875347 2.8025293
-0.11906591 -0.32328635 2.6408167
-0.10718004 -0.47924292 2.6369944
-1.346226 4.4823013e-05 2.5959558
-0.94783288 -0.41569063 2.7406337
-0.092099659 -0.87727517 2.7116215
-0.5891394 -0.16365522 2.6720767
-0.88014406 -1.0061797 3.4251356
0.030557226 -0.15329401 2.7148788
-0.031822439 0.69218946 2.6027458
0.55197626 0.11138852 2.4196253
-0.97414076 -0.44721335 2.9196537
-0.58023906 -0.16929816 2.6653526
-1.0269819 -0.47010681 2.8105559
-1.0508758 -0.78245378 3.3441989
-1.0582001 -0.69663978 3.4677892
-0.91597694 -1.0387146 3.2780955
-0.9035995 -1.0378147 2.9198816
-0.95418417 -1.0299125 3.2503076
-0.87349206 -0.89861536 3.5471957
-0.91550821 -1.0366374 2.9248762
-0.98271441 -0.54323065 3.7899895
-1.2330905 -0.5240072 3.9779246
-0.99225801 -0.66301447 3.2340863
-1.0150546 -0.68470687 3.5083115
-1.0462004 -0.45515013 3.7585828
-0.9590615 -0.43991649 2.9308474
-1.0294471 -0.753905 3.4123278
-0.80938715 -1.055256 3.15049
-1.1178371 0.37598875 2.6953266
-0.70608133 -0.93572962 2.9946864
0.051259004 0.42535934 2.2724893
-0.7447921 -0.51041228 2.9597311
-0.91973788 -1.0182759 3.0350423
-0.5468123 -0.92737561 2.8825934
-0.6491127 -0.22769029 2.7280264
-0.96017903 -0.92621219 3.3238537
-1.2129066 -0.40716535 3.85515
-1.3087242 -0.16854069 2.9275689
-1.298795 -0.1676532 2.9110744
-0.95809609 -0.48316053 2.7779801
-0.4555594 -0.24731085 2.7035549
-0.85698038 -1.0560902 3.1056724
-0.84147179 -0.46582058 2.8476071
-1.0870047 -0.07897909 3.6199317
-0.79811478 -0.74646783 4.2194371
-0.74875277 -0.75058335 4.2945423
-1.0076938 -0.56263459 3.6565616
-0.92354327 -0.11138046 2.5060251
-0.78177643 -0.74052709 4.2463136
-0.98072678 -0.54883814 3.6993277
-0.97534484 -0.5465402 3.70138
-1.0247542 -0.44579735 3.7509735
-0.85304427 -1.1244242 3.3381832
-1.3939006 -0.11713307 2.6772563
0.4602626 0.18070428 2.2182906
-1.3147262 -0.50159508 3.0819023
-0.67488319 -0.40117168 2.8659954
-1.0201886 -0.4159258 2.8518431
-1.4673127 -0.29305792 2.4519281
-0.822092 -1.1373547 3.3635836
-1.4403017 -0.29295769 2.624577
-1.2349309 -0.4591704 3.8153198
-1.2511206 0.043534279 2.5417054
-1.212593 -0.42358437 3.8254783
-1.2351699 -0.41064674 3.8378131
0.099336617 0.24036597 2.2721951
-1.0197343 -0.79730135 3.4093289
-1.451004 -0.30232778 2.6085019
-1.0805322 -0.32031304 3.8428037
-1.4226362 -0.13008034 2.7032909
-0.88363051 -1.2107624 3.2029948
-1.3905225 -0.2393253 2.5074441
-0.93399239 -1.2174524 2.9016795
-0.9908675 -0.45353496 2.9041271
-0.88510984 -1.0404855 3.3078732
-0.93746358 -1.0456936 3.2423573
-0.98412639 -0.45241642 2.9088564
-1.4142339 -0.25286719 2.4824154
-0.16664542 0.22099477 2.1095865
-1.3036213 -0.17136872 2.9196827
-1.0430473 -0.44833806 3.7201214
-0.96163982 -0.53740221 3.8249893
-0.96066874 -0.53439623 3.8196626
-0.9951908 -0.53997898 3.7751496
0.048696965 0.23787832 2.3809991
-0.19554721 0.31228396 2.4121106
-1.0394863 -0.56723648 3.8594968
-0.33513272 0.23869738 2.3681035
-0.089423552 0.46057677 2.2921784
-0.46238521 -0.87337095 2.7957771
0.15354241 0.48162928 2.2921424
0.14958613 -0.25315541 2.7036157
0.62769109 -0.27416417 2.2447112
0.60856843 1.0919533 2.4549456
0.40614972 0.95778883 2.4337058
-0.48100173 -0.18908978 2.7199302
-0.11434665 0.24752353 2.1216934
-0.99806386 -0.69226849 3.6065273
-0.92984891 -0.65913379 3.7340043
-0.14746401 -0.56819874 2.565784
-0.99004638 -1.1571819 3.0922179
-0.93332827 -0.48300362 2.7945912
-0.84047717 -1.1325337 3.3474748
-0.99749219 -0.81426817 3.4002528
-0.94348866 -0.8020128 3.5067575
-0.35500976 0.032135323 2.4874637
-0.868011 -1.0017635 3.4604871
-0.071584396 0.16835575 2.5418711
-0.93077332 -0.7164132 3.3321755
-0.8874898 -0.9994235 3.4308078
-0.88014776 -1.0007836 3.4377956
-0.87367254 -1.0078521 3.4470716
-0.69392258 -0.4919959 3.0787592
-0.82684916 -0.74141711 3.446455
-0.88241547 -0.90107912 3.5351379
-0.89845788 -1.0373001 3.0467358
-1.2678232 -0.48038027 3.8790765
-1.0048999 -0.55058163 3.6955638
-0.92987335 -0.76152766 3.6220241
-0.92810863 -0.76642817 3.6262491
-0.16975644 -0.029382134 2.4735968
-0.94845206 -0.76668149 3.5991228
-1.0191997 -0.45690244 3.7856386
-0.91502625 -0.6741696 3.7282376
-0.10784618 -0.23968571 2.8367043
-0.45938441 -0.85902542 2.815836
-1.0148998 -0.43189254 3.8293674
-0.957165 -0.74604571 3.8034413
-1.1217269 -0.19396913 3.7755177
-0.98657995 -0.50187594 3.8519256
-0.94310373 -0.55122674 3.9648223
-0.86686242 -1.2497855 2.8428128
-0.71293247 0.17041472 3.6877556
-1.2748398 -0.15128694 2.932297
-1.0116926 -0.75069499 3.4347539
0.00081286865 -0.15217331 2.715656
-0.17617041 -0.57258868 2.5580363
-0.71149182 -0.021673698 3.6904299
-0.68933487 -0.011700398 3.7231395
-0.13772696 0.34274343 3.1650836
-0.82403094 -0.055359982 2.5551517
-0.93281335 -0.56522852 4.1220565
0.13453737 0.26025459 2.2286315
-0.15412673 -0.74354672 2.671483
0.0034773801 -0.72237456 2.8648257
-0.38137585 -0.86664677 2.8349919
-0.15428206 -0.011136846 2.5202422
0.00030448736 0.51935512 2.3044341
-1.2031717 -0.51283538 4.0425673
-0.092984453 -0.068193756 2.5963397
-0.016593823 0.027831895 2.3775296
-0.095069937 -0.054995373 2.5505629
0.061819643 0.22169115 2.2091851
-0.12551564 0.13730739 2.1697581
0.0032543016 0.091566421 2.3485172
0.10142766 -0.039694395 2.5200872
0.059003651 0.42592633 2.2868638
-0.0080873063 0.38811773 2.2850499
-0.24123442 0.073475689 2.1048532
-0.16626795 0.10461564 2.1117203
-0.093247943 -0.28562188 2.683712
0.43977669 0.27054179 2.2093353
0.43842065 0.27355722 2.1761386
0.49314868 0.408748 2.0319102
0.27729869 0.3065955 2.0290139
0.6882962 -0.16047753 2.3277383
0.5919627 -0.1801738 2.2728243
0.55544615 0.34370211 2.1370304
0.66604918 -0.15673564 2.2878716
0.48983973 -0.13146941 2.6140606
0.6421504 -0.028856218 2.784765
-0.97505349 -0.79704636 3.4703586
0.57103783 -0.0020942541 2.5409899
0.59339869 0.046942055 2.5533614
0.079588383 0.68580419 2.4513588
-0.1420493 0.54399955 2.4022863
-0.34899655 -0.18991826 2.7224288
-0.21250986 0.19079512 2.099735
-0.054951891 -0.82312059 2.7009885
0.37834108 0.18344653 2.1708791
-0.50434214 -0.29612327 2.8395865
0.57640159 -0.038461901 2.6142473
-1.3446829 -0.27333224 2.8552256
0.0077221831 -0.058471512 2.5455515
0.13297252 0.55345094 2.5810442
0.83439612 0.67877394 2.9291744
-0.013038987 0.19340689 2.5696197
-0.4600997 -0.99331754 2.7338262
-0.47841206 -1.0443822 2.7772949
-1.2011223 -0.40824854 2.8957207
-0.12667815 0.49694127 2.2823205
-0.47752187 -1.0126852 2.7964988
0.13772084 -0.2191816 2.6891217
-0.062172029 0.1887341 3.4439266
-0.066882066 -0.81552261 2.7752678
-0.11883882 0.50108486 2.2813013
-0.57260531 -0.19379467 2.7675154
-1.077243 -0.604348 3.8246534
-0.93888098 -1.0388633 2.9149194
-0.11378554 0.50755656 2.3525026
0.55253589 0.24474606 2.1908183
0.49740103 0.18059926 2.2592742
