# .PCD v0.7 - Point Cloud Data file format
VERSION 0.7
FIELDS x y z
SIZE 4 4 4
TYPE F F F
COUNT 1 1 1
WIDTH 458
HEIGHT 1
VIEWPOINT 0 0 0 1 0 0 0
POINTS 458
DATA ascii
-0.41056573 -0.10447726 2.7680185
-0.74358398 -0.21730912 2.8277347
-0.71546608 -0.24722974 2.8963432
-0.78109545 -0.88990319 2.9404182
-0.73820192 -0.91279817 3.0375941
-0.26501021 -0.054363079 2.6956067
-1.308229 -0.72144049 3.4131434
-0.27912095 0.74618781 2.740366
-0.32917449 -0.75399268 2.9371836
0.45656139 -0.18264312 2.5805397
-0.44462639 -0.12009534 2.7674372
-0.1885622 -0.13082333 2.8365731
-0.82991165 -0.17613798 2.7566323
-0.69923103 -0.15462469 2.7610807
-0.66576177 -0.23576373 2.8835857
-0.75277597 -0.58732373 2.8409233
-0.75107098 -0.090350583 2.654716
-1.1701174 -0.97454667 2.9016461
-0.87384951 -0.64000952 2.8878446
-0.31766346 0.0083222277 2.587832
0.4268803 -0.26747012 2.651057
0.38691878 0.054861605 2.7097154
-0.087204479 -0.24263482 2.8057272
-0.14472121 -0.21313733 2.8792534
0.46592423 -0.048191424 2.5878661
-0.27280876 -0.64222229 2.8212593
0.434607 -0.14637004 2.6038852
-0.43978354 -0.085244454 2.7466223
0.29273319 -0.22598447 2.7678056
0.40373677 0.020647155 2.7114727
-1.2529351 -0.297474 2.8280826
-0.85763007 -0.17692646 2.7522879
-1.2352703 -1.0999645 3.4928529
-1.2061169 -0.31859127 2.78934
0.37615266 0.07225205 2.6892858
-0.35250881 0.32756206 2.4980724
-0.30947784 0.081022985 2.4602361
-0.62594807 -0.14005016 2.7627025
-0.19237481 -0.015922472 2.5846629
-0.17120273 0.008500102 2.5547681
0.41203833 -0.046975225 2.7488058
-0.28867909 0.019259902 2.5030546
0.41319859 0.068957478 2.639874
0.35343215 -0.06104818 2.7933304
-0.19995956 0.6899479 2.6681025
0.27656725 -0.26008606 2.8411515
-0.38535252 0.032483958 2.5536942
0.46909305 -0.016840918 2.5931184
-0.09470953 -0.24675654 2.8034327
-0.90769768 -0.65061498 2.9025891
-0.12894146 0.058688778 2.49439
-0.73603696 -0.081007682 2.6346991
0.28460902 -0.18135159 2.7971928
-0.045278523 -0.045303412 2.6795447
-0.28261706 -0.095869385 2.7812366
-0.78036803 -0.89798218 3.0991435
0.42843658 -0.20387201 2.6711237
0.38070351 0.043914381 2.7116425
0.55936241 -0.02020246 2.5500078
-0.91952312 -0.65106601 2.9000986
-0.16755094 0.71032667 2.6850951
-0.85336065 -0.18126962 2.7531304
-0.73291397 -0.083484583 2.6388736
-0.22197452 -0.017188532 2.5333989
0.29155719 -0.18163796 2.8136463
0.52019596 0.097353026 2.6181307
0.41124341 0.06208339 2.6338608
-0.74432665 -0.18536033 2.790324
0.39260638 0.044201396 2.7253728
-0.092994198 -0.24798505 2.8108709
0.25057027 -0.11071253 2.8597882
0.40789595 -0.1204211 2.6425514
-0.56332618 -0.15093094 2.7650485
-1.2144116 -0.32221082 2.7807055
-1.2255865 -0.73397136 3.2990928
0.31517407 -0.11503421 2.7726104
-0.15794449 0.012112938 2.5496328
0.48002312 -0.039474726 2.5826616
-0.27000391 -0.04533276 2.688894
0.3068527 -0.074551411 2.8499265
-1.0805144 -0.31282884 2.7779365
-0.19209903 0.030566171 2.5350549
0.28775716 -0.23463225 2.7727697
-0.25240734 -0.0088338973 2.6233301
-0.77525562 -0.24045961 2.7697921
-1.1449708 -0.34919605 2.7410398
-1.5784931 0.059704915 2.5821068
-1.1564276 -1.1525263 3.2319949
-0.37464797 -0.28762656 2.7409456
0.45980579 -0.0016155182 2.6053503
-1.2836838 -0.70414984 3.4141369
-1.1010969 -1.0506181 2.7910612
-0.17242654 -0.13181037 2.8345017
0.42677099 -0.27266937 2.6513755
-1.2163117 -0.38911745 2.887789
0.41350934 -0.044049259 2.7055953
-0.75504094 -0.097844787 2.6584928
-0.17128828 0.0066649346 2.5493217
-0.68627453 -0.20840941 2.8388548
-0.27704912 -0.019696604 2.5820479
-0.79897726 -0.333363 2.9265273
-1.2175205 -0.43368182 2.856076
-1.1029629 -0.97475618 2.8148148
-0.77877694 -0.84223157 2.8976309
-1.1514834 -0.25203186 2.7878544
-0.66488999 -0.20645314 2.8323109
-1.1776201 -1.0163157 2.8502896
-0.55141091 -0.12683167 2.7556059
-0.058438934 -0.04345284 2.6770017
-1.3504539 -0.46298367 3.660929
-1.2047575 -0.43529898 2.8599374
-1.4274211 0.0076642842 3.6188073
0.45001841 0.089074768 2.5613871
-1.2780344 -0.90048867 3.5962558
0.23486945 -0.22223099 2.8003132
0.39507541 -0.080446444 2.7700996
-1.4323273 -0.22964028 3.7891841
-1.5146164 -0.34370673 3.7533236
-1.4339238 -0.3378939 2.8578982
-1.3427635 -0.61047655 3.4565742
-1.4859257 -0.18815383 3.7294488
-1.0035331 -0.44602364 2.9514399
-1.178118 -0.9748733 2.9011893
-0.5790329 -0.14113539 2.771446
-1.6141547 -0.36912975 3.8091819
-1.626791 -0.32612488 3.9118853
-1.5896115 -0.42394388 3.8068619
-1.428651 0.010398895 3.6200628
-0.061588794 -0.3772499 2.8453381
-1.4678699 -0.15515272 3.6965601
-1.4562485 -0.19760349 3.8391633
-0.14551249 0.69131798 2.8033941
0.30377612 -0.060206987 2.8411825
-1.4839996 -0.29150432 3.7885768
0.42143941 0.094791561 2.6155376
-0.34915185 -0.57697082 2.6952965
-0.37124076 -0.54848075 2.6625764
-1.4341431 -0.2409329 3.7546537
-1.4542379 -0.14020526 3.782542
-1.457728 -0.16037697 3.8147078
-0.19842699 0.7814737 2.6675546
0.52548957 -0.070885912 2.5392008
0.40967324 -0.018382473 2.6913257
0.05694364 0.69092053 2.8600969
-0.33139685 0.23141295 3.5391853
-1.1215019 -1.1664762 3.293879
-1.2318882 -0.39365083 2.8047423
-0.35895199 0.32502642 2.4891274
-0.35508618 0.32583636 2.4922941
-0.95189559 -0.42831841 2.990855
-1.5583922 -0.20867261 2.7679265
-1.4545528 0.075392932 2.4481819
-1.2531804 -0.32746699 2.8179903
-1.2824038 -0.59192276 3.6846516
0.60249573 0.13657962 2.6335955
0.23393476 -0.12857237 2.8373992
-0.18276596 -0.014387312 2.6024663
-0.53183687 -0.14994763 2.7974141
-0.5227406 -0.14724293 2.8020856
-1.1693702 -0.96840292 2.890481
-0.042816821 0.14782482 2.4847851
-1.2361071 -0.96243161 3.2372377
-0.17116606 -0.0069247386 2.5964031
-1.2097813 -0.43954277 2.8493133
-0.96099412 -0.44650954 2.9867625
-0.78254533 -0.83634239 2.8957369
-1.5416261 0.18231444 3.1717796
0.27874461 -0.17396334 2.8217759
0.066253819 -0.31523162 2.832015
-1.178399 -1.1075096 2.8278081
-0.47407532 0.095892265 3.0308044
-0.51013529 0.087687954 3.0072098
-0.78814369 -0.88412291 3.0786011
-0.26675561 0.015780864 2.543766
-0.51159197 0.6667816 2.8415515
-1.273916 -0.90501904 3.589756
-0.19854838 -0.2367589 2.9149811
-1.1401734 -0.35011801 2.7337341
-0.31593969 -0.69754273 2.9370232
-0.26056531 -0.09178251 2.7909658
-1.5680732 -0.34342319 3.7695944
-1.1156774 -0.73975754 3.4795997
-1.150218 -1.0636201 3.36483
-1.3741353 -0.59448403 3.2299128
-1.4184135 -0.373759 3.7489464
0.10980679 0.72312343 2.8569951
-1.3025916 -0.73204291 3.3957877
-1.2761275 -0.90765613 3.5887527
-0.36727601 0.22528863 3.5043871
-0.71347517 -0.16204819 2.7545941
-1.1765163 -0.42217043 2.7578263
-1.2689693 -0.84434539 3.3342342
0.39804921 -0.12204612 2.6825829
-0.2866407 0.0016981476 2.5866649
-1.1327264 -0.92881435 2.9140477
-0.16671886 -0.12269645 2.7995415
0.28737873 0.24582247 2.419126
0.43927306 -0.18038929 2.5726838
0.10176092 -0.33159313 2.8585453
0.024836143 -0.18754241 2.8514485
-1.3021919 -0.7202211 3.4037876
-1.3161218 -0.67526132 3.41728
-0.96405989 -0.6201281 2.954643
-1.4312282 -0.24204449 3.7570255
-1.121385 -0.82644594 3.0009685
-0.1100723 -0.25237742 2.8252416
0.42967561 -0.2080391 2.4886844
-1.3187169 -0.69258332 3.7325881
-1.2643166 -0.58283597 3.2326062
-1.2255973 -0.76616037 3.1021731
-1.35177 -0.45397031 3.9190712
0.17837322 0.097284459 2.548589
-1.2806087 -0.58365303 3.7028062
-0.76117486 -0.21311416 2.8215091
-0.84627426 -0.33588377 2.9248481
-1.1722504 -0.25123298 2.7755506
0.28344557 -0.18353291 2.7980595
0.079200603 0.71432978 2.8639672
0.43749443 -0.24919002 2.730715
0.072436094 0.70041239 2.8603153
0.47672388 -0.11321384 2.7998843
-0.17729343 -0.008311484 2.5897732
-0.26575622 -0.056360215 2.6963224
-0.33025962 0.7999506 2.6315529
0.18226832 0.11098862 2.6052544
-0.4940663 -0.13820961 2.7851026
-1.2648062 -0.65633059 3.2773461
-1.6204785 -0.27671549 2.3901343
-1.4438695 -0.22612177 2.7675173
-0.7796858 -0.32916266 2.9288337
-0.27241474 -0.053080168 2.6955276
-0.32881591 0.011805905 2.5797482
0.36529136 -0.089875795 2.7642941
-1.1788275 -0.97784472 3.0379295
0.50295794 0.1041408 2.5807552
-1.2540843 -0.2940639 2.8239076
-1.2134011 -0.82666552 3.5309641
0.41968876 -0.23747846 2.7136858
-0.70906287 -0.12404159 2.7625132
0.20530672 0.19213502 2.5152626
-1.1895932 -0.29696566 2.7671492
-1.0492018 0.038429782 3.6522167
-1.2433512 -0.71197158 3.6166673
-1.25484 -0.68456775 3.6321063
-1.2267253 -0.85882878 3.3647285
-0.14766225 -0.17129913 2.840091
0.34382355 -0.025407013 2.7923522
0.44076332 0.0044801626 2.633507
-0.23696408 -0.0030556181 2.5796995
0.23239525 -0.1091831 2.8460093
-0.07668823 -0.20345816 2.8181667
-0.13763887 -0.21745619 2.8798838
0.41439712 0.024137782 2.7553644
-1.2695894 -0.45241544 2.793956
-0.087807268 -0.10447872 2.8257289
-1.1924807 -0.91626316 2.984184
-1.2983764 -0.70810342 3.4646485
-0.76835257 -0.93340033 2.7994616
-0.31061727 -0.45419958 2.7348647
-1.5138869 0.070741989 2.5269845
-1.4566646 -0.23064542 2.7593229
-1.1543541 -0.35648724 2.7287169
-1.2321697 -0.9712519 3.2450869
-0.83519942 -0.75842005 2.820981
-1.1818353 -0.42723876 2.7651839
-1.1984464 -0.93371046 3.4263349
-0.68984276 -0.21079277 2.8464184
-0.18412779 0.71247286 2.6903522
0.39424622 0.10599118 2.5936713
-1.2045231 -0.38298905 2.9034014
-0.77048779 -0.12596591 2.6969628
-1.2439092 -0.40628707 2.7888389
-1.4878976 -0.10652256 2.8657882
-1.3482655 -0.70552528 3.3203204
-1.2169009 -1.1387386 2.880147
-1.1062921 -0.71616918 3.7707832
-1.3678035 -0.61676067 3.4404509
-1.1585642 -0.97569048 2.9228673
-1.2504959 -0.95850801 3.2438905
-1.1709549 -0.97395086 2.9262724
-1.1904664 -1.1763241 2.9229751
-1.3278559 -0.45918143 3.7669759
-1.5991611 -0.42628196 3.9208863
-1.2713004 -0.59088218 3.2165906
-1.329728 -0.60557359 3.4859602
-0.30270115 -0.67451084 2.8271227
-1.3832006 -0.36947671 3.7261705
-1.1907108 -0.37602207 2.9163091
-0.94896215 -0.6703788 2.9274037
-1.1229084 -0.027924819 2.453455
-1.334558 -0.6762985 3.3901322
-1.5586293 -0.046855614 2.5465131
-1.2289031 -1.0765815 2.8092778
-1.5283383 -0.10897604 2.8442442
-1.284992 0.43986762 2.6483235
-1.5372366 0.20258968 3.2080228
-1.5389558 -0.1137506 2.8199763
-1.308972 -0.72623813 3.4174147
-0.9682222 -0.87953401 3.0206141
-1.63625 -0.23249404 2.5271223
-0.98490375 -0.45393902 2.9736478
-1.1884465 -0.95299011 3.0346527
-0.79575676 -0.87973326 2.9297471
-0.84909689 -0.18028955 2.7512836
-1.2616124 -0.85304075 3.3142598
-1.5889735 -0.32009074 3.7876551
-1.5258228 -0.091709457 2.8635283
-1.5859356 -0.49427849 3.8888803
-0.37284383 -0.69970202 2.8977084
-1.536464 -0.29348457 3.7623796
-0.65495789 -0.20778392 2.7521811
-1.1367881 -0.99157512 3.1133904
-1.3907285 0.0047869445 3.5769598
-1.2078909 -0.65965319 4.2199955
-1.1687132 -0.66396385 4.3008714
-1.3363879 -0.48059347 3.6318011
-1.1948849 -0.65373915 4.2486391
-1.314556 -0.46688044 3.677428
-1.5923349 -0.12313976 2.6808126
-1.309391 -0.46474332 3.6801138
-1.3605983 -0.36111674 3.7212145
-0.11382041 -0.2696217 2.8381183
-1.5762428 -0.042699784 2.6035087
-1.5649335 -0.42077184 3.0215418
-0.89924967 -0.34954813 2.8877811
-1.2402457 -0.35149586 2.829715
-1.6273961 -0.22069164 2.3736961
-1.5736759 -0.18130867 2.4337611
-1.624334 0.071602695 2.7217853
0.24585181 -0.13003753 2.784929
-1.1383821 -1.0683345 3.37501
-0.74627149 -0.22288927 2.8199377
-1.4109591 0.10936947 2.4846375
-1.1413654 -0.24533001 2.7971387
-1.5725518 -0.32960203 3.7760158
-1.527652 -0.13924542 2.3790438
-1.5787698 -0.31607664 3.7797301
-1.0928735 -0.74249727 3.5228586
-1.2072501 -0.90719014 2.9618523
-1.3179846 -0.6357857 3.7881913
-1.631569 -0.22708037 2.5312049
-1.4224993 -0.23158918 3.802953
-1.3295807 -0.61021572 3.4859169
-0.35124731 -0.054192349 2.59091
-0.19184181 -0.01993422 2.6027591
-1.1818694 -1.1429156 3.2091458
-1.5561967 -0.16868818 2.4376667
-1.520052 0.10373255 2.5002563
-1.585686 -0.26970834 2.3512266
-1.5880088 -0.44207808 2.9779372
-1.1882559 -0.43423891 2.9145074
-1.2193762 -0.38901579 2.8859692
-1.142548 -1.1577427 3.2638555
-1.2545823 -0.71967417 3.1239715
-1.1898087 -0.97040915 3.3100138
-1.2335513 -0.97508579 3.2384241
-1.2132534 -0.38804877 2.8915038
-1.6003879 0.035707887 2.6123166
-1.577053 -0.18187495 2.4100411
-1.4450527 -0.097892545 2.9322374
-1.5968444 -0.0035486429 2.6287289
-1.5852201 0.060425334 2.5769067
-1.5196636 -0.1402851 2.8256199
-1.519875 -0.094904281 2.8564117
-1.492591 -0.17442979 2.315176
-1.5193738 -0.18800263 2.2950623
-1.3111964 -0.45337823 3.8042836
-0.33541983 -0.5831902 2.7182651
-0.35962468 0.042967573 2.5517938
-1.1380917 -0.45123184 2.8336325
-0.16826655 0.046059422 2.5040874
-1.0214384 -0.35278741 2.7915103
-0.055494443 -0.23659249 2.8299561
-0.40792361 0.19859353 3.4714754
-1.2730229 -0.57822728 3.720242
-0.945409 -0.63603479 2.962625
-1.2710375 -1.0878177 3.0847273
-0.77767241 -0.83991235 2.875066
-0.79083437 -1.214298 3.652986
-1.1546639 -1.082692 3.3358238
-1.1543534 -1.0631794 3.3565955
-1.2633579 -0.72551703 3.4956226
-0.51644754 0.062756196 2.5459805
-0.23698768 0.189299 2.6339304
-1.2250348 -0.64437586 3.3226621
-1.2061756 -0.92655557 3.4309008
-1.1998454 -0.92803717 3.4387951
-1.1948971 -0.93513781 3.4489453
-0.94891882 -0.43481746 3.0978813
-1.2393442 -0.66916341 3.3017282
-1.1376252 -0.67075229 3.4497411
-1.2104635 -0.82617283 3.5333073
-1.3520257 -0.49939299 3.5900459
-1.1696188 -0.972543 3.0493054
-1.6192139 -0.38358298 3.817662
-0.57454395 -0.13112916 2.7941611
-0.62035292 -0.16521509 2.8033061
-1.3788954 -0.50087994 3.548203
-1.3381027 -0.46778861 3.6706257
-1.6368333 -0.36198866 3.8067575
-1.1253561 -0.74646682 3.4655073
-1.6311789 -0.30583134 3.9103985
-1.2629191 -0.68301785 3.6109676
-1.2619073 -0.68788642 3.6154678
-0.33358261 -0.0060429415 2.5570517
-1.2786202 -0.68797207 3.5859647
-1.3599626 -0.37164897 3.7564921
-1.1377968 -0.41686019 2.953891
-1.2582072 -0.59393972 3.7166843
-0.32703373 -0.2103963 2.9286757
-0.69783628 -0.81625658 2.8735845
-1.3602629 -0.34585148 3.799973
-1.312465 -0.66246974 3.7870915
-1.4496294 -0.10530438 3.7287688
-1.4313953 -0.23794805 3.7932193
-1.3379074 -0.41633907 3.8271816
-1.3672111 -0.3962405 3.7948964
-1.3112122 -0.46477503 3.9455566
-1.018563 0.24125166 3.6878867
-1.4921468 -0.075653255 2.8722644
-0.20037594 -0.12979247 2.8210711
-1.0920798 0.058009557 3.5941563
-1.1040565 0.049432747 3.5798016
-1.0252559 0.049354434 3.6940382
-1.0070639 0.059206344 3.7291424
-0.97164237 0.034085728 3.776402
-0.37491831 0.37992448 3.2404094
-1.3216251 -0.4756479 4.1030302
-0.34814379 0.22656293 3.5170677
-0.56642991 -0.89961541 3.1173537
-1.5772992 -0.41481531 3.9886301
-0.27041593 -0.032750256 2.6433916
-0.24022107 0.4589594 2.5131156
-0.071179383 -0.025602594 2.6381102
-1.2381986 -0.75610292 3.1143899
0.39306924 -0.0053989999 2.7184186
0.41563809 0.04301681 2.7327075
-0.54943419 -0.15407121 2.7835732
0.38757333 -0.040301532 2.7923756
-1.5907438 -0.49023798 3.8855746
-1.4115075 -0.23238137 3.7814422
-0.16804941 -0.040236708 2.6516659
-0.023666095 0.56712937 2.6923635
0.63215184 0.6734677 3.1253655
-0.18149105 0.21272224 2.6685219
-0.06402953 -0.20252439 2.8134758
-1.5897006 -0.49794012 3.8679261
-0.34182566 0.22941396 3.5292559
-0.30192742 -0.78859973 2.8829477
-0.77693814 -0.14845046 2.7996683
-1.3745042 -0.49118748 3.9725702
0.044138715 0.73009449 2.8989499
-1.3737411 -0.4925648 3.9722538
-1.1210032 -0.98082519 3.1347232
-1.1929386 -0.97550941 2.91344
-0.40004534 -0.19399285 2.8746231
-0.439358 -0.12055112 2.7682309
5.7302856 1.3543237 3.4066153
