# .PCD v0.7 - Point Cloud Data file format
VERSION 0.7
FIELDS x y z
SIZE 4 4 4
TYPE F F F
COUNT 1 1 1
WIDTH 232
HEIGHT 1
VIEWPOINT 0 0 0 1 0 0 0
POINTS 232
DATA ascii
-1.1153975 -1.2328947 3.2481055
-1.1713545 -1.2752334 3.1749525
-1.0095158 -0.56095481 3.336854
-1.227003 -1.2881478 3.2457364
-1.2629694 -0.52436888 3.2734981
-1.4779767 -0.24899675 2.9495509
-1.5419494 -0.9088372 3.1290953
-1.228231 -1.1381812 3.3824012
-0.83324623 -0.60340333 3.338032
-1.0989575 -0.53529209 3.3150356
-1.27534 -0.48628828 3.2727525
-1.3469286 -0.74978173 3.1553779
-1.4466683 -0.25426114 2.9736073
-1.8745037 -0.76668561 2.933609
-1.9081095 -0.70683646 3.0243855
-2.074882 -0.77900422 3.1816981
-1.1315498 -1.0764259 3.2759233
-1.6656052 -0.99401283 3.1618109
-1.1204408 -0.38176566 3.1320531
-1.5642848 -0.063741848 2.9094837
-0.83478588 -0.80088389 3.5887969
-1.6746401 -0.95284885 3.0170863
-1.8926179 -0.75889122 2.9438915
-1.0589073 -0.55034876 3.2907298
-2.0770822 -0.67125332 3.1994338
-1.8857193 -0.40384671 3.2492273
-1.5127578 -0.69085157 3.1264451
-1.4795749 -0.36059707 2.9422903
-1.2807106 -0.48806804 3.2713013
-1.3817086 -0.44542244 3.2457538
-1.6987401 -0.84511828 2.9853289
-1.6781265 -0.93802232 3.292568
-1.393801 -0.28180134 2.9893129
-0.89191055 -0.60291505 3.3468108
-1.565137 -1.0120711 3.0595064
-0.9399361 -0.78009474 3.3621235
-1.4006417 -0.32800588 2.9560835
-1.5539036 -1.1208875 3.0224543
-1.1302474 -0.51988578 3.3017201
-1.6792889 -1.0529799 3.1183817
-1.4323087 -0.72023571 3.1409793
-1.2629369 -0.51839268 3.270977
-1.8285372 -0.75238019 2.9632139
-0.96719235 -0.49381912 3.2399344
-1.2247369 -1.2854822 3.2425489
-0.93968278 -0.66139197 3.4234335
-1.6050853 -1.0836474 3.1215055
-1.5258926 -1.0266461 3.0420794
-1.8797958 -0.79917234 2.8756864
-1.7926842 -0.76848203 2.9890366
-1.0330642 -0.65336818 3.3978531
-0.97291577 -0.46853393 3.213465
-1.4775833 -0.70059764 3.1361163
-0.84561729 -0.79714841 3.5814157
-1.5605956 -1.0054786 3.0599163
-1.5618708 -1.0030559 3.0618253
-0.99388903 -0.5164482 3.2473216
-1.4379253 -0.38258857 2.9942262
-1.7060374 -0.85386056 3.0017834
-1.3049297 -0.47216362 3.2710209
-1.9155843 0.16613522 3.6964459
-0.85963655 -0.78739303 3.5421143
-0.92079264 -0.56639141 3.3190274
-0.97263676 -0.56240261 3.3272796
-0.91568136 -0.56968927 3.3276808
-1.5388136 -0.95517361 3.1008101
-1.3135433 -0.91361213 3.1516347
-0.82067114 -0.83379221 3.5446641
-1.39465 -0.33261302 2.9515991
-1.0724906 -0.44280857 3.1889791
-1.0738298 -0.52371401 3.2802153
-1.4051696 -0.32063419 2.9487476
-1.4833915 -0.36308384 2.9471848
-1.1173348 -0.43486306 3.1947732
-1.1152161 -0.46358377 3.2252371
-1.3749163 -0.23248462 2.9978666
-1.4032484 -0.32805997 2.9458799
-0.97969663 -0.56474322 3.3336067
-1.9222386 -0.423015 3.2955341
-1.8024447 -0.67560095 3.0795152
-1.8641868 -0.76484668 2.9271727
-1.1270394 -1.0786864 3.2814548
-0.96148092 -0.5479545 3.3048508
-1.1722779 -1.2388778 3.25542
-0.885638 -0.58167756 3.331845
-1.8102282 -0.87923521 2.8509359
-1.0049002 -0.40534481 3.1371088
-1.4056205 -0.43402678 3.2406602
-1.2341717 -1.2683966 3.2842453
-1.0392662 -0.38124475 3.1249392
-1.5452365 0.0052050897 3.8822215
-0.93487692 -0.53293532 3.2836509
-0.88323873 -0.5815174 3.3295753
-1.021822 -0.46857566 3.2231698
-0.93485594 -0.55595672 3.3033605
-0.95902807 -0.53624582 3.3045218
-0.99101472 -0.54102457 3.2806172
-1.7520216 -0.7794435 2.9904675
-1.7141733 -0.83176684 2.9667044
-1.6958855 -0.81133097 2.9509919
-1.690744 -0.93003643 2.9573908
-1.7177581 -0.83998835 2.9755476
-1.6907347 -0.83695006 2.987221
-1.1188611 -0.43351468 3.2036474
-1.0621613 -0.54582787 3.3323712
-1.0983754 -0.54442281 3.3349741
-1.4318309 -0.37843841 2.9629557
-1.4198457 -0.43024933 3.1882839
-1.4366183 -0.42736095 3.2523129
-1.5463523 -0.97889078 3.0771601
-1.6861625 -0.90987027 3.0273409
-0.88979483 -0.820171 3.5105908
-1.108953 -0.39538601 3.146615
-1.5485529 -1.0163649 3.0911257
-1.4962417 -0.39179757 2.981416
-0.87039405 -0.86887717 3.504817
-1.5280017 -0.98639208 3.0341344
-1.5286263 -1.0067805 3.0299616
-1.5619795 -1.0422131 3.0880871
-1.5027696 -0.38730472 2.9734128
-1.5463867 -0.93619072 3.0958126
-1.8391514 -0.88821161 2.8616295
-1.3923444 -0.43581951 3.2544906
-1.4322689 -0.42349768 3.1638885
-1.4459853 -0.4304477 3.2511168
-1.4608003 -0.38925225 2.9771581
-1.4292943 -0.38054571 2.9619899
-1.7129173 -0.84393495 2.9900804
-1.1647745 -1.107776 3.2616885
-1.0795138 -0.54043555 3.326077
-1.4599166 -0.3864153 2.9690821
-1.453545 -0.85922599 3.1047089
-1.758907 -0.87623078 2.8458314
-1.927925 -0.71133733 3.0499959
-0.95094806 -0.53228158 3.2857852
-1.7209754 -0.95022297 2.9496562
-1.7078211 -0.83390236 2.966229
-1.2693933 -0.47773546 3.2730389
-1.0935608 -0.55160725 3.265676
-1.4740847 -0.89983487 3.1877999
-1.8984717 -0.70130575 3.0079558
-1.8930445 -0.69896835 3.0096366
-1.3939461 -0.4367924 3.2694755
-1.440647 -0.4237783 3.2028508
-0.91976398 -0.57296723 3.3424087
-2.2845473 -0.73186588 3.3904102
-1.7248412 -0.94045275 2.9579651
-1.3619192 -0.74495763 3.1526294
-1.6002102 -1.1611018 3.1348987
-1.7191429 -1.1685851 3.1159742
-1.7445475 -1.2089163 3.1715658
-1.7351053 -1.1912631 3.1481116
-1.7507417 -1.1851844 3.1418631
-1.4335781 -0.3805075 2.9760218
-1.6767268 -1.1104726 3.1438115
-2.0424862 -0.76141077 3.1454225
-1.6939852 -0.90145278 3.1394966
-1.9315765 -0.79920828 2.9345829
-1.1082691 -0.51121116 3.27508
-0.92209119 -1.0465791 3.513562
-1.7194866 -1.0851315 3.1813042
-1.590048 -1.1813025 3.1424997
-1.7416499 -1.1609184 3.1479397
-1.7591054 -1.2111403 3.220897
-1.7365372 -1.1537825 3.1351686
-1.7430521 -1.2022941 3.2323422
-1.7242028 -1.1569663 3.1696258
-1.6763823 -1.1106781 3.1490076
-1.6666011 -1.1130594 3.1468186
-1.7023654 -1.1451508 3.2068369
-2.0776446 -0.68578815 3.2056427
-2.2790923 -0.57301146 3.5401564
-2.1378796 -0.58278531 3.3642545
-1.6738907 -1.031148 3.3729627
-2.1231096 -0.54042464 3.360364
-2.1458092 -0.53924102 3.3936582
-1.723634 -0.93613499 3.2141047
-2.0516269 -0.50478941 3.294251
-1.7019262 -0.91786546 3.1619408
-2.3254194 -0.88158453 3.306989
-1.705038 -0.84458911 3.0078373
-1.0052971 -0.46396694 3.2095056
-1.8217952 -0.74667656 2.9630365
-1.5045481 -0.95506579 3.1493924
-1.6831981 -0.95780301 3.0331962
-1.5095567 -0.38873836 2.9874802
-1.8520508 -0.72246808 3.0005202
-1.0893902 -0.3800852 3.1075511
-1.7035981 -1.0435542 3.2040486
-1.6678332 -1.0196612 3.1747859
-1.6006384 -1.1663457 3.126646
-1.5696862 -1.1443794 3.1019964
-1.6151352 -1.1531126 3.1329317
-1.6473875 -1.0918987 3.1058984
-1.2452717 -1.4143411 3.2873876
-1.2168605 -1.3379205 3.1780217
-1.2281002 -1.2916936 3.2479405
-1.6693996 -1.006197 3.184695
-1.5197791 -0.45195016 3.2462418
-1.2436129 -1.2992892 3.3001263
-1.6987836 -0.9057883 3.2271686
-0.7880435 -0.59398764 3.3187764
-1.167425 -1.2589866 3.1451778
-1.1645634 -1.2594656 3.1491642
-1.1701229 -1.2544243 3.1641893
-1.1598569 -1.2169811 3.1623502
-1.1736521 -1.2139847 3.2115009
-1.6967255 -0.90408671 3.1461372
-1.7339343 -0.87127048 3.1850553
-1.77949 -0.96105993 3.3755338
-8.3161631 -1.9799396 8.157032
-8.4985838 -1.6495763 7.8637967
-8.2582817 -1.0718776 7.024333
-8.0546312 -1.8847231 7.6761498
-7.8177481 -1.8442012 7.4732881
-8.2035494 -1.6116354 7.6231799
-8.1895609 -1.9497342 7.998735
-1.5255839 -1.0827296 3.0335035
-8.1905499 -1.9424307 7.9941769
-2.2697718 -0.74206197 3.373234
-7.4544997 -2.0542138 8.1202497
-8.2323999 -1.5661387 7.5859075
-7.0378857 -2.2144322 8.0788574
-7.8206844 -1.8250525 7.53088
-1.8207002 -0.77457488 3.0175333
-8.759552 -1.8640066 7.3738766
-8.4707623 -1.9434795 7.4215579
-8.2592268 -1.880803 7.8061934
-8.755764 -1.6855392 8.0947542
-8.4133711 -1.6149161 7.7824721
-0.94664955 -0.47763151 3.2251239
-2.3155005 -0.7382102 3.4174597
