# .PCD v0.7 - Point Cloud Data file format
VERSION 0.7
FIELDS x y z
SIZE 4 4 4
TYPE F F F
COUNT 1 1 1
WIDTH 334
HEIGHT 1
VIEWPOINT 0 0 0 1 0 0 0
POINTS 334
DATA ascii
-0.62470061 -1.2747418 3.2242112
-0.68535477 -1.3217994 3.1580162
-0.53506827 -0.60838747 3.3653626
-0.44270992 -0.61019272 3.284519
-0.67082489 -1.2544682 3.2626226
-0.73041242 -1.3397306 3.2349718
-0.61970067 -0.42744794 3.1012638
-0.20753559 -0.76714557 3.4246402
-0.064013489 -0.58063167 3.1230948
-0.25649041 -0.80431366 3.4892488
-0.72789061 -1.1906697 3.3726063
0.1083488 -1.0108365 3.5989904
-0.055160604 -0.70406634 3.2356434
-0.66178018 -0.5785529 3.2973237
-1.1291972 -0.7597391 3.1532235
-0.84362692 -0.54405606 3.2828786
-0.5552972 -0.42646837 3.0820665
-1.0726981 -0.32917985 3.0050673
-1.4303945 -0.48275825 3.3486307
-1.2696099 -0.93940681 3.0538645
-1.4824356 -0.82120144 3.1068554
-0.17671522 -0.54557526 3.139461
-0.10130928 -0.92911386 3.6044323
-0.21202764 -0.92873788 3.4235411
-0.65103334 -1.1203791 3.2557702
-1.2003082 -1.0857892 3.2096264
-0.26547152 -0.86626643 3.4766958
-0.57946217 -1.141294 3.3044944
-0.66659731 -0.44092467 3.1270847
-0.65171522 -0.48592833 3.1821592
-0.35917532 -0.59882164 3.2749479
-0.71932441 -0.4272919 3.1203401
-1.0804209 -0.37894157 2.960794
-0.6266048 -1.2776668 3.1717072
-0.7290501 -1.3394718 3.232532
-0.39226544 -1.0646189 3.2745502
-0.53266078 -0.53275704 3.2161455
-0.71961904 -0.43074152 3.1209147
0.03129084 -1.1538683 3.5784659
-1.2544721 -0.95888835 3.1917377
-0.10975996 -0.93230671 3.607127
0.05194186 -1.0053409 3.5984278
-0.17954823 -0.54865694 3.136162
-0.41009936 -0.85562778 3.5030267
-0.19488604 -0.77291971 3.4252532
-0.61845076 -1.1243227 3.2284803
-0.019696739 -0.80603957 3.3666735
-0.56172961 -0.49861696 3.1780348
-0.97360438 -0.39867532 3.0429828
-1.4591336 -0.51774782 3.3309779
-1.0804352 -0.77014661 3.1594267
-1.0997158 -0.43798274 2.9767318
-1.1131068 -0.32141331 2.9971647
-0.8510164 -0.54767382 3.276999
-0.35097769 -0.81574333 3.5193582
-0.66255188 -0.57239002 3.2419534
-0.14479348 -1.0813348 3.4957125
-0.95777702 -0.51417458 3.2646751
-1.2681506 -0.94019079 3.0404758
-1.1115774 -1.091176 3.0940604
-0.53140104 -0.42908826 3.0704005
-0.53670025 -0.50393009 3.1838586
-0.11961425 -0.69437701 3.2494781
-0.13439369 -0.8269819 3.4962313
0.06729728 -0.98005235 3.631881
-0.39649987 -1.0790116 3.3104227
-1.0884109 -0.76373953 3.1529782
-0.71896619 -0.43324542 3.1218328
-1.0160635 -0.35191497 3.0137677
-0.57918632 -0.57489651 3.2148616
-0.53209573 -0.43264002 3.0748968
-0.32073182 -0.64485884 3.3001721
-0.44722974 -0.62747496 3.3023984
-1.5483335 -0.86743534 3.1139338
-0.11515994 -0.97834802 3.5845339
-0.1416927 -1.0911344 3.5110435
-0.62965101 -1.2823092 3.1758361
-1.073609 -0.33332443 2.9984357
-1.4513513 -0.54760092 3.3121977
-0.23766501 -0.8776477 3.509099
-0.29941055 -0.88763589 3.4494483
-0.23700176 -0.77118218 3.4145603
-0.19028148 -0.6700815 3.2870944
-0.2906684 -1.0875188 3.4824753
-0.47713283 -0.80825549 3.3213134
-0.43397969 -0.81049329 3.3161309
-1.0018946 -0.49130538 3.1496825
-0.42348653 -0.80074733 3.256963
-0.41418955 -0.81950855 3.2895336
-0.39118975 -0.62061226 3.278969
-0.13914801 -0.8126635 3.4574177
-0.40341464 -1.0052117 3.4520993
-0.26387936 -0.96657377 3.376698
-0.24527432 -1.0131475 3.3714795
-1.4120457 -0.87547261 3.0797415
-0.56387091 -0.42993465 3.082881
-1.3761873 -0.77968174 3.1460524
-0.83081114 -0.57629085 3.2740993
-0.57105535 -0.56420535 3.2356038
-0.54455668 -0.52537817 3.2070279
-0.72880465 -1.3368689 3.2315621
-0.70942152 -1.215812 3.3483968
-0.05037139 -0.61289239 3.1186109
-1.1375854 -1.1696069 3.1610262
-0.62512076 -0.55884153 3.2554128
-1.0733683 -0.33239052 2.9940798
-1.3090932 -0.91213542 3.1959896
-0.68226737 -1.3109218 3.137023
-1.4613612 -0.53917575 3.3216982
-0.55573779 -0.50066638 3.181788
-0.65197438 -1.216251 3.2549479
-1.2818285 -0.93443179 3.0265131
-0.6169247 -0.51729721 3.2143979
-1.0436088 -0.77672881 3.1645508
-0.35515171 -0.817141 3.5270257
-0.28458047 -0.93490171 3.487818
-0.20031762 -0.85272259 3.5037277
-0.56802303 -0.55031002 3.2173762
-1.0360787 -0.5240773 3.1056266
-0.013316045 -0.80728465 3.3656151
-1.5130485 0.011503456 3.7851541
-1.0977917 -0.49032593 3.1153281
-0.090400554 -0.69422644 3.2114129
-0.42778659 -0.94740534 3.3022106
-0.30243567 -0.94244808 3.5009725
-0.25948328 -0.85263741 3.5058417
-0.67022943 -0.43083689 3.1135609
-0.15121286 -0.65389061 3.1873178
-0.6683746 -1.1492718 3.2193651
-1.0186985 -0.34599221 3.0102849
-0.27289703 -0.85831732 3.4462881
-0.33526325 -0.61206323 3.2519908
-0.47603655 -0.59647548 3.2867727
-1.0860146 -1.035702 3.1339035
-0.86073494 -0.9742766 3.1569932
-0.62417209 -1.2748239 3.1746986
-1.6242428 -0.80672556 3.3008738
-1.1390238 -0.37851128 2.9886615
0.06178806 -0.98588628 3.6476977
-0.52411354 -0.57737559 3.2787182
-1.071659 -0.9627248 3.2147584
-0.62406904 -0.55760103 3.2472422
-1.3656883 -0.94596136 2.9448121
-0.33182749 -0.85135931 3.4870152
-0.030487597 -0.80281883 3.3537171
-0.014208052 -0.7418679 3.2611768
-1.4483895 0.06288106 3.7418699
-1.0117207 -0.50012589 3.3123448
-0.643318 -1.3762298 3.1419544
-0.20027345 -0.78570646 3.4112992
-1.3736569 -0.78009915 3.1460381
0.00052677456 -0.71269906 3.2954879
-0.20780726 -0.94393551 3.4132147
-0.66146404 -0.44503573 3.12395
-0.69534749 -0.50845188 3.2111306
-0.089810096 -0.62097526 3.1443396
-1.0267113 -0.39876929 2.9712608
-0.53900337 -0.59727043 3.300632
-1.0785218 -1.0095199 3.1665702
-0.26324812 -0.8712616 3.4434431
-0.64568835 -1.122236 3.2606726
-0.52605885 -0.57888162 3.2700565
-0.065253645 -0.56310874 3.0725272
-0.71310544 -1.2126428 3.3435721
-0.15967716 -0.59677005 3.176075
-0.60242331 -0.44047338 3.1107712
-1.0846767 -0.4636623 3.0081141
-0.44249663 -0.60658115 3.2831299
-0.03752419 -0.69420528 3.204586
-0.44802722 -0.72172797 3.3915067
-1.103125 -0.43709791 2.9794595
-0.64002967 -0.41951874 3.1032484
0.10151295 -1.0397778 3.5804801
-0.22913876 -0.83339697 3.4468246
-0.17818321 -0.79977477 3.4354231
0.071090311 -1.0379868 3.5802588
-0.23699021 -0.77778596 3.4356754
-0.4426927 -0.60536391 3.284492
-0.12531018 -0.66499013 3.2278605
-0.061274741 -0.58409971 3.1186221
-0.049126409 -0.63856035 3.1774142
-0.25894237 -0.91621733 3.4317441
-0.25178882 -1.0705141 3.4907215
-0.089632541 -0.69637078 3.2098842
-0.7037729 -0.478894 3.1713521
-0.63967878 -0.49929363 3.1919825
-0.15519945 -0.66778535 3.2873411
-0.15759332 -0.66341519 3.2624183
-0.40161496 -0.92827845 3.4685609
-0.49922338 -0.58447373 3.2651844
-0.18197584 -0.55331141 3.1390665
-0.62340522 -0.94118476 3.1796021
-0.63791895 -0.51059252 3.2126493
-0.59482163 -0.50005913 3.1896155
-1.3259735 -0.87954038 3.0529866
-0.19272177 -0.80564493 3.4088297
-0.65395021 -0.48752531 3.2181432
-0.54866648 -0.42712113 3.0690389
-1.2886151 -0.93676436 3.0331867
-0.61661756 -0.43716794 3.0983381
-0.70451236 -0.48360351 3.228677
-0.6223284 -0.58578795 3.3098421
-0.65791953 -0.58762407 3.3169212
-0.5287618 -0.4238691 3.0687132
-1.0455661 -0.49361211 3.2721653
-1.0039525 -0.50238234 3.2125578
-0.92295182 -0.64726484 3.2093325
-0.59045732 -0.57780379 3.2856529
-0.70495731 -0.43985376 3.1331975
-0.63964403 -0.44008657 3.1025918
-0.57145476 -0.47136778 3.1122148
-0.70232016 -0.42650309 3.1183321
-0.706532 -0.4501678 3.1222908
-0.075236484 -0.9449746 3.6316204
-0.59701151 -0.44221792 3.1148114
-1.0914364 -1.0975041 3.1247327
-1.065478 -0.48565215 3.032012
-0.66844559 -0.43046105 3.1099641
-1.108567 -0.4706026 3.0172246
-0.20007777 -0.76146168 3.4153082
-0.38282144 -0.89068389 3.4531875
-0.69522917 -0.50344908 3.2137611
-0.6664167 -0.5008266 3.207572
-0.54189682 -0.42626801 3.0621417
-0.65556133 -0.46532431 3.1474667
-0.62910384 -0.44159579 3.1071355
-1.0885811 -1.0279182 3.1107502
-1.0198593 -0.49673098 3.1899726
-1.2350783 -0.99923998 3.1863742
-1.2389811 -1.0428157 3.2890246
-1.2725139 -1.113385 3.0693564
-1.0458119 -0.45339316 2.98981
-0.64073676 -0.58195662 3.3058105
-0.56252789 -0.56309766 3.2917821
-1.0746757 -0.46198234 3.000561
-1.498438 -0.82748973 3.1346617
-0.51940405 -0.56230372 3.2500322
-1.2600573 -1.0313122 3.0237288
-1.2804905 -0.92980242 3.0227876
-0.84052861 -0.53637499 3.2774527
-0.14210376 -0.81554687 3.4658017
-0.13905162 -1.0116307 3.5090256
-0.47795096 -0.60012597 3.3018503
-0.47968835 -0.67077941 3.3981235
-1.8067598 -0.88025349 3.5162852
-1.6988544 -0.83211207 3.4138308
-1.2534146 -0.95247358 3.1854084
-1.2483966 -0.95375204 3.1765091
-1.0373644 -1.1021743 3.321852
-1.6030542 -0.55722201 3.4692132
-1.5144339 -0.54695719 3.3568664
-1.2581235 -1.3068939 3.2263782
-0.64311469 -0.43790293 3.1143014
-1.0483047 -0.4537577 3.0042634
-1.5894281 -0.67114824 3.3428352
-0.67807734 -0.5553413 3.2591312
-0.31683788 -0.4604291 3.0416691
-1.0987055 -1.0870219 3.0631144
-0.36024243 -1.1197217 3.531651
-0.41712335 -1.0723028 3.4660335
-0.13773835 -1.1018466 3.5468159
-0.16097578 -1.0670452 3.460959
-0.29525787 -0.97024506 3.5021451
-0.49290091 -0.65492666 3.3263781
-1.1166022 -1.1087205 3.109962
-1.2661827 -1.3104795 3.2770994
-1.0600364 -1.2011813 3.162169
-1.5649769 -0.65844047 3.3076899
-1.1045486 -1.0879755 3.0829186
-0.58863598 -0.49900159 3.1819215
-0.3375566 -0.45524997 3.0417783
-1.2368823 -1.051108 3.0846384
-0.14765158 -0.60901755 3.2082837
-1.4676412 -0.76501 3.1187901
-0.61120856 -0.43014196 3.1109848
-0.69183117 -0.42281175 3.0922089
-0.76609814 -1.1794693 3.3708098
-1.0571308 -0.90514636 3.0903633
-0.58590096 -0.49630129 3.1602638
-0.72440732 -1.3883018 3.165905
-0.73436797 -1.357733 3.256305
-0.73090947 -1.3433633 3.2372503
-1.0935947 -0.53299838 3.2821541
-0.73908257 -1.3523885 3.2908547
-0.34885144 -0.60927361 3.261847
-1.111923 -1.1044831 3.0852089
-0.66571683 -1.3032725 3.2128685
-0.17524786 -0.78580415 3.5165162
-0.67698103 -1.2616674 3.1460671
-0.67172885 -1.3629308 3.3317313
-1.207732 -1.1587042 3.1846039
-0.68644553 -1.2999543 3.2169557
-0.66947657 -1.2619607 3.2607186
-1.393736 -0.47637069 3.3013747
-0.20900041 -0.93542659 3.4396527
-0.16570707 -0.83275318 3.4734826
-0.62542826 -1.3041741 3.1990921
-0.98172742 -0.40136331 3.080097
-0.55463022 -0.42578846 3.0738883
-0.6866082 -1.3052237 3.12819
-0.68324208 -1.3054512 3.1317854
-0.65216607 -1.2656955 3.2590814
-0.68849492 -1.261053 3.1953323
-1.2409595 -0.99897653 3.1990492
-1.2808943 -0.97170711 3.2481318
-1.2757952 -0.96966797 3.2426782
-0.65474254 -1.4578685 3.2267098
-0.36529526 -0.89219016 3.3871119
-0.99309921 -0.50401586 3.2873497
-1.0777704 -0.36695114 2.9621434
-0.68934345 -0.52518958 3.213114
-0.64625055 -0.54647475 3.2307136
-0.66796559 -0.59498692 3.2952147
-1.0871373 -0.38039955 2.9746144
-1.0783411 -0.38274333 2.9554307
-0.70116544 -1.225045 3.1921923
-0.31547233 -0.64969242 3.302547
-1.272907 -0.94623655 3.0626645
-0.12031633 -0.61988151 3.1882038
-0.057696603 -0.63449746 3.1719058
-0.67234671 -1.4162419 3.2092891
-1.2892064 -1.0634398 3.4361892
-0.72897673 -0.62546211 3.3602395
-1.086457 -1.0778451 3.1095502
-1.0700341 -1.1614709 3.0638857
-0.65836132 -1.2184186 3.2214692
-1.099015 -0.53472805 3.2973633
-1.0055208 -0.93725067 3.1398644
1.0689311 -6.3275476 8.6830626
-0.82409173 -0.31683409 2.9647558
-0.1229104 -0.96720058 3.5536613
-1.0191299 -1.0006129 3.2414985
-0.44004738 -0.70133227 3.3878231
-0.7064687 -1.2163945 3.3256238
