# .PCD v0.7 - Point Cloud Data file format
VERSION 0.7
FIELDS x y z
SIZE 4 4 4
TYPE F F F
COUNT 1 1 1
WIDTH 479
HEIGHT 1
VIEWPOINT 0 0 0 1 0 0 0
POINTS 479
DATA ascii
0.42679465 -1.0259644 3.0591106
-0.015258843 -0.44553927 3.2556159
0.32640597 -0.16522308 2.7995262
0.41315874 -1.0261618 3.1209807
0.40774539 -1.133636 3.1187618
-0.50751072 -0.56231135 3.3765271
0.39501074 0.50762248 2.9820342
0.31270736 -0.17901619 2.7833457
0.56957167 0.63292831 2.7181573
1.2400433 -0.54863513 2.6145537
1.105654 -0.30978787 2.5790288
0.41405243 -0.98166323 3.2530499
1.0451785 -0.43594512 2.6407692
1.0455204 -0.4575066 2.7296419
0.51386565 -0.3652606 3.0847659
-0.11974953 -0.40655252 3.2136064
-0.18346152 -0.89220583 3.4258256
0.95795673 0.75991225 2.6119325
-0.059110269 -0.53847951 3.3905699
1.2189701 0.017097602 2.4608243
-0.055525787 -0.53518546 3.3934388
0.1127197 -0.18453605 2.890677
-0.47412753 -0.54162681 3.3698673
-0.38450623 -0.78716969 3.8184714
-0.39439109 -1.1937004 3.4950235
-0.38170734 -1.1422662 3.5957472
-0.11863293 -0.86360145 3.373071
0.23930638 -0.20762879 2.8727443
1.0225263 -0.23400073 2.7009099
0.59216505 -0.26266843 2.8751028
0.2800914 -0.16369322 2.7569666
1.0559878 -0.30141985 2.6386003
-0.10566989 -0.3885307 3.1879508
0.18580355 0.4417392 3.1194568
-0.14741813 -0.40720782 3.2182782
-0.1714659 -0.59374952 3.5175369
1.013871 -0.10452253 2.6855211
0.38833481 0.43775678 3.0276871
0.27961516 -0.16890952 2.7565863
0.4408856 -0.23878506 2.8058319
1.049931 -0.31816652 2.6807392
0.19241595 0.44250852 3.1221931
-0.12098388 -0.86083812 3.3740938
0.23730047 -0.21236302 2.8713412
0.35212207 -0.89895254 3.0903387
1.0755948 -0.40624934 2.5829492
-0.14605694 -0.87314492 3.3982191
0.2512992 0.082407087 2.7914364
-0.031654622 -1.165644 3.2999392
0.59994084 -0.28847483 2.8867841
0.40704358 -0.33169469 3.0604229
0.63532621 -0.33938143 3.0573397
1.0440116 -0.24152116 2.766283
0.94086128 -0.36688039 2.9420545
0.28499982 -0.78523785 3.0053692
-0.15806207 -0.87356728 3.3996139
-0.42403397 -0.52786249 3.3366823
1.0292203 -0.37015432 2.67453
1.0183239 -0.18858014 2.6944096
1.0619551 -0.49511117 2.7746494
1.0619551 -0.49511117 2.7746494
1.0296103 -0.20216635 2.787842
0.2859143 -0.16772212 2.7645442
0.13576223 -0.3841247 3.136245
0.45183134 -0.23555924 2.7966127
0.45183134 -0.23555924 2.7966127
1.0352328 -0.53374314 2.7056594
0.76953506 0.5225724 2.9928927
-0.03260399 -0.81500196 3.2943482
0.94591689 -0.47737503 2.8786364
1.038905 -0.45218754 2.7426279
0.86004257 -0.0041420339 2.500154
1.0545048 -0.51244706 2.7657106
1.0089951 -0.20269847 2.6789901
0.4709734 0.45021075 2.869339
0.57154679 -0.054969344 2.5822654
0.52852279 -0.36652768 3.0777526
0.86392319 0.0019954895 2.5185037
0.60092062 -0.3384271 3.0338991
0.95809156 -0.3007822 2.9833338
-0.3892599 -1.1407492 3.585535
-0.083491229 -0.84515446 3.3448451
-0.39361778 -1.1422465 3.584223
0.4390887 -0.24085884 2.800781
-0.30827352 -0.77244282 3.7366152
0.29399505 -0.43728447 3.2141953
-0.040305026 -0.40987158 3.2107153
0.33650252 -0.1936278 2.764406
0.0087642642 -0.38869539 3.1716411
-0.41761652 -1.237615 3.450633
0.5866459 -0.28658465 2.8884451
0.23049755 -0.49219513 3.2631004
1.0830081 -0.44198352 2.5642529
0.017839558 -0.40573511 3.2072678
0.27496558 -0.2048748 2.861587
-0.11822406 -0.85761458 3.3779731
1.0838312 -0.25180092 2.687665
1.3230314 -0.50031686 2.4984388
1.3230314 -0.50031686 2.4984388
0.52240664 -0.44369867 3.219038
1.0464464 -0.32472834 2.8351576
1.0827656 -0.44607136 2.7261848
0.33089679 0.20418949 2.7427337
0.065489106 -0.405725 3.1723447
-0.41148064 -1.2511332 3.4293439
1.2071707 -0.22826183 2.6032302
0.44846022 0.53869593 2.8859317
0.56082225 0.636473 2.8090389
-0.40249166 -0.63493073 3.3114817
1.035225 -0.26639441 2.7530501
-0.40734756 -1.1967361 3.5241964
1.0357432 -0.53727055 2.7647445
1.0039542 -0.29831943 2.9326305
0.75184834 0.45378268 2.9919128
-0.12153346 -0.38510078 3.1820827
0.33241242 -0.19508339 2.7652032
0.33126694 -0.94810438 3.1089692
0.38983291 -0.26821667 2.9271288
-0.36570129 -1.151974 3.5346813
-0.43725845 -0.64859968 3.348263
0.91496789 -0.36792946 2.952028
0.91496789 -0.36792946 2.952028
-0.33061987 -1.1299171 3.4662588
0.18596087 -0.37927389 3.1583612
-0.397228 -1.1880671 3.4839246
-0.46077159 -0.59253561 3.4463482
0.45412117 -0.25234765 2.8459849
1.2244488 -0.5339492 2.6869996
-0.33513302 -1.1308886 3.4631522
-0.42519569 -1.3297008 3.4337475
0.23465376 -0.20056581 2.8419924
-0.43909124 -0.60978383 3.4721434
-0.49578354 -0.62103939 3.3879366
1.0399944 -0.23360983 2.7695374
-0.41282371 -0.67831153 3.3819218
-0.0032715998 -1.0139251 3.3939445
0.34673136 -0.23087947 2.8252454
0.32199308 -0.23510946 2.8381844
-0.43743548 -1.2823265 3.5405068
-0.039283328 -0.40582681 3.2095668
-0.42084545 -0.57772684 3.2978461
0.59390336 -0.2937341 2.8903334
0.42639509 -0.92543501 3.246134
-0.35075575 -1.1952385 3.3915341
-0.43546775 -0.65785939 3.4432786
-0.15738526 -0.58361548 3.5288374
-0.38631231 -1.0903845 3.6207809
-0.48532543 -0.79708743 3.8531561
-0.43462524 -1.2854366 3.4633381
-0.39188632 -0.81166703 4.0624809
-0.27804482 -1.095165 4.1766262
-0.014298015 -1.157163 3.2732747
0.019212011 -0.96776551 3.3064823
-0.40874553 -1.2045738 3.5438037
-0.0099641997 -0.39393327 3.1742609
-0.42034623 -0.47614488 3.3491857
-0.19582662 -0.75270194 3.4808552
-0.43101355 -1.295161 3.4450281
-0.49053949 -0.61771822 3.3913157
0.28900093 -0.19131112 2.7903583
0.36243188 -0.97813916 3.1064
-0.45591342 -0.59179211 3.4489336
0.53312081 -0.017492993 2.5290251
0.45194858 -0.28702888 2.9336219
0.83242112 -0.013105274 2.5216026
-0.14847124 -0.59041739 3.5285931
-0.39765245 -0.63523054 3.3151617
-0.43275154 -1.2950997 3.4443526
-0.053139087 -0.80449694 3.341083
-0.36184511 -1.2642058 3.3653717
-0.19768901 -0.73730069 3.4848583
-0.1506348 -0.72818106 3.4428964
-0.15446462 -0.40456638 3.2185652
-0.5144304 -0.71473491 3.7277188
-0.38031662 -0.78661984 3.8204966
0.52631015 -0.086300515 2.5955784
0.004069048 -1.016925 3.4251027
-0.36735868 -0.66079777 3.3573179
0.033082794 -0.42066342 3.1970947
-0.46716899 -0.57951885 3.443625
-0.48969159 -0.79859573 3.8484414
-0.49090424 -0.61528319 3.3909435
-0.39509732 -0.97748023 3.6853991
0.21740939 -0.76119018 3.0941904
0.059439156 -0.40439108 3.1990159
-0.44551566 -0.65369773 3.3472707
-0.033927646 -0.44141856 3.2550788
-0.0028237277 -1.0179105 3.4224291
-0.43829718 -1.3099066 3.4547334
-0.44162312 -1.3009592 3.4810448
0.5403499 0.37940603 3.2290587
-0.01038694 -1.1079769 3.3060975
1.0197568 -0.35064474 2.903542
1.0747347 -0.49553832 2.7921617
1.1792694 -0.56028074 2.6073122
-0.42239094 -1.2500956 3.5843737
0.44621682 -0.2539551 2.8417001
-0.37624305 -0.78218371 3.8221979
0.39609426 -0.29619065 2.9728143
0.41192788 -0.33340526 3.0573704
0.50971365 -0.25008166 2.8881938
-0.40133321 -1.1502953 3.5990257
0.50695854 -0.1214281 2.6934779
0.52738082 -0.34617332 3.0457301
0.33935392 0.4452635 2.9914532
-0.013740224 -1.1187886 3.2978754
0.4863053 0.41241291 3.1191616
-0.50581908 -0.79857427 3.9024799
-0.49031046 -0.56583017 3.4170892
1.1653272 -0.50122458 2.5501087
-0.41677454 -0.66143823 3.3422256
-0.46170291 -0.25374261 3.0655458
-0.047783617 -1.1796266 3.2882526
-0.18469405 -0.8528626 3.4525731
-0.43732986 -1.3094006 3.4546878
-0.22531426 -0.88267499 3.95875
-0.37437794 -0.80138046 4.0869827
-0.24525739 -0.86566496 3.9405117
0.20777327 -0.3713395 3.1327975
0.38161919 -1.0554366 3.0056963
-0.43773478 -1.3452427 3.463495
-0.39697477 -1.1871136 3.4845741
-0.18168803 -0.84493083 3.4565926
-0.36639926 -1.281279 3.4273524
0.55260432 -0.455989 3.0875144
-0.45600435 -0.64331615 3.4187427
0.51629204 -0.024841221 2.5341034
-0.40839234 -1.2490808 3.4302411
-0.39529815 -1.1880846 3.4841199
-0.30454054 -0.84931237 3.9012003
-0.42571113 -1.2292981 3.5614409
0.86131692 -0.0040011383 2.4322629
-0.38539958 -1.3254069 3.3885753
0.87500113 -0.07642056 2.4731674
-0.50966692 -0.71121019 3.7330272
1.0335094 -0.3052986 2.642113
-0.37744567 -0.9679262 3.6982048
0.56716263 0.48993102 3.0059931
0.57106161 0.48435867 3.0072694
-0.36307669 -1.2762028 3.3727937
-0.40767094 -0.67915523 3.3854656
0.97340667 -0.13384806 2.7102308
0.6622538 0.48565084 2.9976733
0.64126211 0.47286409 3.0037079
1.2188486 -0.55070132 2.5989447
-0.410629 -1.2055756 3.5433922
0.31014878 -0.80737484 3.0121644
-0.0029806735 -1.0962878 3.325248
-0.017241158 -0.5523681 3.3679512
0.0841223 -0.38354152 3.1467633
-0.43842885 -1.3334756 3.4769206
0.30033463 -0.22246405 2.8863301
-0.3874045 -1.1424897 3.587934
-0.21108027 -0.61062616 3.5218072
0.14904104 -0.41908348 3.2258735
-0.43661347 -1.3340591 3.4779956
-0.19489269 -0.85970318 3.2977264
0.12138977 -0.43066329 3.2052343
-0.44021294 -1.2920593 3.4959564
0.26347378 -0.16773297 2.8185775
-0.42942747 -1.3015698 3.4822342
0.45366102 -0.9211998 3.2469501
-0.43701917 -1.3093277 3.4552541
-0.047444932 -1.1672852 3.2844343
-0.31523454 -1.0409261 3.5682254
-0.41500926 -1.2219689 3.5697103
0.38951629 -0.29287124 2.9740136
-0.43135712 -1.25578 3.4666386
-0.31935149 -1.0430388 3.5677242
0.46227366 -0.18366858 2.730351
-0.016135551 -1.135325 3.303803
-0.013462526 -1.1342404 3.3029656
-0.51310551 -0.62927896 3.386543
0.0081931921 -1.0932173 3.3392076
-0.44225383 -1.2749522 3.5331414
-0.54728377 -0.78206754 3.8509443
0.11755453 -0.38131109 3.1514831
-0.34975976 -1.1311933 3.4574544
0.32403475 -0.89024442 3.1554697
0.29923254 -0.23252678 2.8791263
-0.35467812 -1.2059247 3.3553846
-0.43807104 -0.84078532 3.932343
-0.438656 -1.348575 3.4990804
-0.42188704 -1.2562263 3.549726
0.45318407 -0.26181683 2.8519499
-0.45354706 -1.2555075 3.4613597
-0.35901505 -1.2076411 3.6449249
-0.39215329 -1.2145548 3.4230428
-0.4488301 -0.59857714 3.4673204
1.4799719 -0.43676886 2.4540105
1.4692601 -0.44075873 2.4556696
0.014581955 -0.37720084 3.1500652
-0.38885087 -1.2155994 3.425139
-0.38775265 -1.2086748 3.4355969
0.1255258 -0.4354392 3.2624848
0.1062479 -0.42738268 3.231178
0.19570608 -0.36049223 3.1785789
0.25003669 -0.35517257 3.134006
0.23494233 -0.32372677 3.0383584
0.23022841 -0.3865495 3.1505609
-0.46459523 -0.64167714 3.4157524
-0.35843784 -1.1990666 3.392664
0.37345973 -0.92558318 3.1655064
-0.56230021 -0.79019976 3.8387394
0.47096729 -0.97469527 3.1797278
-0.36550134 -0.8915965 3.9978719
0.44422242 -0.24942853 2.8330011
0.53991371 -0.28104383 2.9027355
-0.42859492 -1.2877846 3.4648356
0.66744208 -0.25671446 2.8817098
0.83441979 -0.12136247 2.7330739
1.1512753 -0.48947978 2.4568737
-0.01806516 -1.0497007 3.3502409
0.94868374 -0.40502504 2.8815298
0.89410466 -0.44161174 2.8979018
0.46811253 0.30894858 3.2625928
1.2154129 -0.4697288 2.4468644
-0.32560492 -1.2382846 3.341403
-0.36427364 -0.91703659 4.0090265
-0.36174688 -1.150744 3.5433798
-0.48979938 -0.79852867 3.8489394
-0.4285565 -1.2730048 3.4870164
-0.45153704 -1.2630426 3.4923482
0.6536724 0.48209208 3.002696
-0.44277373 -1.2739159 3.5329916
-0.4286004 -1.2818041 3.5398641
0.07152722 -0.46154106 3.3201039
0.36765417 -0.98153907 3.1004753
0.11674171 -0.40138587 3.1437893
-0.30320701 -0.77036303 3.7383583
-0.44818133 -0.64656794 3.4395108
0.0048297197 -1.0162736 3.4234626
-0.19552991 -0.9515152 3.9891627
-0.40627703 -1.2178795 3.4496956
-0.40546671 -1.1835881 3.5198512
0.079072192 -1.081181 3.4368811
0.0031841062 -0.38289231 3.1698811
0.00027663007 -1.1565908 3.2742584
-0.4389689 -1.2904387 3.4949951
1.0884365 -0.14999759 2.6131926
0.90335333 0.56028324 2.982964
-0.43534085 -1.3330935 3.4762917
-0.16652553 -0.6701318 3.628264
-0.45944458 -0.64308482 3.4186766
-0.16899695 -0.58256638 3.4725177
-0.16309936 -0.6663332 3.5369477
0.27910769 0.045510944 2.8519294
0.38852486 -0.2696093 2.9267075
0.35625306 -0.27778676 2.8276451
0.36909389 -0.43933412 3.1523304
0.32002497 -0.47291842 3.1592259
0.18305214 0.35845092 3.2695112
0.19905071 0.3645238 3.2656717
0.86010802 -0.016880315 2.4148054
0.86432618 -0.047298659 2.4315023
0.57764226 -0.41619617 3.0400341
0.94280517 -0.060875874 2.5068786
-0.13175122 -1.3278081 4.2878184
0.36013171 -0.16136885 2.8096333
-0.38855842 -0.9488948 3.7160051
0.83939677 -0.05973649 2.4349756
-0.2330365 -1.2918862 4.1865516
-0.19225757 -0.60016704 3.5031989
-0.36816788 -0.87607521 4.0145764
-0.42605218 -1.2510405 3.5831127
-0.42060974 -1.2520753 3.586478
-0.10769768 -0.38980195 3.1885006
0.34602436 -0.97415453 3.0774987
0.2624234 -0.79947364 3.0006876
0.41952509 -1.1120439 3.155086
0.37421972 -0.94138819 3.25067
0.4093864 -0.93477887 3.2510817
0.73236197 -0.031584553 2.6700225
1.0801065 -0.49834517 2.5018644
0.95305169 -0.45873433 2.5997345
1.1493797 -0.33998433 2.5374448
0.94228816 -0.022461712 2.5256474
1.2018429 -0.48961049 2.5442026
1.225796 -0.5393225 2.5790861
3.9463973 0.67867947 0.80681163
-0.12075053 -0.39114645 3.1927111
0.35459521 -0.95225137 3.0778766
0.33409145 -0.44436017 3.1939001
0.21701774 -0.32878894 3.0585935
0.26457027 -0.22810896 2.8272305
-0.39221394 -1.0315673 3.6638567
0.57874262 -0.087777123 2.6775811
0.56101269 0.3251299 2.8415685
-0.13374425 -1.1294929 4.4034176
0.88463944 -0.072307132 2.4897161
1.0658062 -0.11322851 2.6738188
0.84915739 -0.1433018 2.6747947
-0.16756858 -1.2648563 4.2848034
-0.11340675 -1.2991945 4.3253407
-0.15157747 -1.2671 4.3012815
0.89456409 -0.99795252 4.1224828
1.2529677 -0.65047908 3.5877721
0.69327849 -0.66083324 3.3750844
1.1138266 -0.72608757 3.6820743
0.90184963 -0.85477263 3.7763722
0.98796147 -0.60978127 3.4259343
1.2250181 0.031959556 2.4616404
1.4772924 -0.082604162 2.6787047
1.4157494 -0.042162247 2.6933746
1.2437972 0.15800288 2.5659084
0.7552399 0.54066837 2.9817626
1.1446408 -0.42869774 2.5335553
1.086872 -0.25196403 2.5971098
1.0463859 -0.24648456 2.6873896
0.91617185 -0.34816071 2.9597864
-0.1164232 -0.87661618 3.3933346
-0.17396034 -0.59023851 3.4690852
-0.045621317 -1.1618401 3.2694259
0.38403201 -1.0837156 3.1417267
-0.020256232 -0.45142782 3.2493308
0.32542524 -0.42419636 3.1905019
0.32542524 -0.42419636 3.1905019
0.3353534 0.27322203 2.6905661
0.3051804 -0.34493068 3.0775764
4.3084173 0.83263284 1.0126926
4.4835448 0.88467938 1.069487
4.9201736 1.2782484 1.0450045
4.7600336 0.82699573 0.89072299
4.5027447 1.1500264 1.1676767
3.9116812 1.2421559 1.2448442
4.5716705 1.2246348 1.2263467
4.7078323 1.0883225 1.1167091
3.8266697 1.2666224 1.1714393
0.076222964 -0.94923788 3.308068
3.9480858 1.2097715 1.3165798
0.35724702 0.29891133 2.6807449
4.5739932 1.0093975 1.0387203
5.0239177 1.3237569 1.199439
4.4003596 0.92629677 1.0985378
3.9715075 0.74925679 1.0224164
4.5250015 0.96357268 1.0273581
0.46352509 0.30007449 3.2677472
3.8732266 1.2737992 1.0997554
3.872062 0.60515225 1.0938779
4.7139111 0.79545146 0.90551579
0.35501203 -0.99453026 3.0761545
4.5651202 0.83322364 0.81094319
4.4629941 0.60823685 0.77464408
4.357614 0.84360862 0.99919766
0.35232389 -0.8940751 3.1362081
3.9997482 0.72007459 0.82126778
3.9103718 0.71732432 0.83196622
1.1193814 -0.27513638 2.5707104
3.9231813 0.77310354 0.86099339
3.9456673 0.73034966 0.80430818
0.25429595 -0.35508931 3.0987234
3.7065873 1.0897238 1.2468966
4.0999174 0.92260236 1.0418806
3.3093209 0.93055332 1.4543912
4.1016254 1.1493038 1.2298021
0.32629144 -0.99942583 3.0795307
3.5300267 0.9325431 1.4498417
4.1324816 1.4504764 0.99078161
1.1468203 -0.02376762 2.4852138
4.7920785 1.2695403 1.0599841
3.936903 0.70426565 0.90197402
3.8138554 0.60869235 1.0183334
-0.43921539 -1.3247902 3.5426412
-0.42892015 -0.65321356 3.4432278
5.8246861 1.5150332 0.75131935
0.29642415 0.27018139 2.7437625
4.9225192 1.1694499 1.0306985
0.33747193 -0.8771258 3.0885231
3.7687123 0.77928776 1.1917458
4.3308973 0.77494943 0.8038975
3.8605983 0.82613128 1.1386636
3.8811102 1.3013394 1.0033
4.7744966 0.67032611 0.7845965
4.1281228 0.6901502 0.98640203
4.7277894 0.79080057 0.69811368
4.6258745 0.7620194 0.59925985
3.3713102 1.6986109 0.54302627
1.8927743 -0.38858482 3.1377523
1.493232 0.47627723 3.041409
