# .PCD v0.7 - Point Cloud Data file format
VERSION 0.7
FIELDS x y z
SIZE 4 4 4
TYPE F F F
COUNT 1 1 1
WIDTH 364
HEIGHT 1
VIEWPOINT 0 0 0 1 0 0 0
POINTS 364
DATA ascii
0.39993978 -1.0023141 3.0431535
-0.055257909 -0.43583202 3.2500641
0.26406273 -0.14646077 2.7835574
0.30370647 -0.93330926 3.0918179
0.38612282 -1.1102914 3.103687
0.31561491 0.52905875 2.9617505
0.47848192 0.65886641 2.6926253
1.0413308 -0.28043577 2.5360851
1.1842518 -0.50053889 2.5741935
1.0356742 -0.1146082 2.5968437
0.39120105 -0.95761079 3.2372222
0.98660183 -0.39417985 2.6055107
0.20142843 -0.33697039 3.0863557
0.4659341 -0.33900723 3.0640779
-0.16211231 -0.40047228 3.2108865
0.037567437 -0.44956797 3.2767286
0.9877668 -0.22027841 2.667212
0.99571139 -0.24373029 2.7664688
-0.20384125 -0.88702416 3.4264817
0.16615999 0.43376914 3.1347136
1.1402856 0.063525721 2.4191821
0.053771436 -0.17236666 2.8807671
-0.50733006 -0.5464018 3.3775465
0.47698519 0.66549242 2.7745116
-0.40272039 -1.1949627 3.5026364
1.1360213 -0.37263188 2.4919965
0.95642114 -0.15078178 2.7388952
-0.047087424 -1.0547943 3.3369732
0.81995356 -0.012096272 2.4030416
0.83137667 -0.047329608 2.4728417
0.98787826 -0.39235511 2.607847
0.98787826 -0.39235511 2.607847
0.89813852 -0.42937487 2.8394382
0.97408497 -0.18452567 2.7364659
-0.53065008 -0.52498627 3.4287224
-0.18960227 -0.40201327 3.2163393
-0.51167107 -0.600793 3.3385754
0.94568735 -0.063769147 2.6499922
0.93870044 -0.13481914 2.7225587
0.38103026 -0.21620499 2.7868824
-0.12505092 -0.37561044 3.2097228
0.95775455 -0.2621581 2.834506
0.36742795 0.47010008 2.8696053
0.36742795 0.47010008 2.8696053
0.55387181 -0.25930667 2.8692226
0.5856601 -0.30928266 3.0331469
-0.18514369 -0.40622187 3.2158813
0.32700276 -0.24401473 2.7854772
0.18945235 0.10306188 2.7746761
0.55660629 0.56665027 2.9745722
-0.50969505 -0.55176908 3.3722944
0.8997727 -0.43453106 2.8445981
0.8997727 -0.43453106 2.8445981
0.98227286 -0.32962415 2.6400383
0.76771581 0.027169375 2.3858173
0.89547622 -0.43780392 2.8462245
0.98372912 -0.41017577 2.7075608
1.3206142 0.10485805 2.5169137
1.0019432 -0.46979097 2.7304006
0.30038029 -0.50670111 3.0597341
-0.37276173 -1.2761511 3.3789811
0.4804222 -0.33982396 3.056658
0.55059689 -0.30955791 3.0106833
0.53527057 -0.26606736 2.8703043
-0.39679193 -1.1414787 3.5927851
-0.10778561 -0.83707595 3.3425517
0.3791613 -0.21835847 2.7818913
-0.35686448 -1.0544431 3.9245932
0.25227198 -0.4176313 3.1999056
0.53054583 -0.2588442 2.8655131
0.37202647 -0.96350753 3.0963011
-0.024856808 -0.3951757 3.2006652
0.21571696 -0.18750595 2.8471806
-0.14114588 -0.85052294 3.3766892
1.2623125 -0.45003366 2.4556181
0.94972795 -0.22890233 2.8577392
-0.43721163 -0.63720614 3.3149097
0.2548123 0.22265008 2.7253957
0.37658557 -0.18034373 2.7236698
-0.36377409 -1.16211 3.473361
0.472177 0.66251796 2.783705
0.27008089 -0.17625736 2.7491813
0.28834206 -0.21431053 2.8478644
0.33439982 -0.24676523 2.9096718
0.25199571 -0.26706314 2.881851
-0.48183483 -0.58892041 3.4522889
0.6697681 0.52622581 2.9977937
0.37691554 -0.9626388 3.0968688
-0.001531673 -1.0070243 3.4213781
0.14086381 -0.36343431 3.1469438
-0.49016502 -0.59651262 3.453794
0.39582708 -0.22915189 2.8266923
0.41287509 -0.25208977 2.8591602
-0.10771868 -0.29535225 3.0348771
1.1702241 -0.48605669 2.6469996
-0.091967575 -0.31937665 3.0843589
-0.46721348 -0.61292893 3.4790261
-0.39512175 -0.86549127 4.0050831
0.26303688 -0.21628538 2.8225641
-0.36198226 -1.1955208 3.397963
-0.46282405 -0.66098505 3.4502356
-0.3617633 -1.0478908 3.9199321
0.2837702 -0.88457847 3.1530809
-0.49654573 -0.79998714 3.8618314
-0.44079173 -1.2881048 3.4724135
-0.39683503 -0.81058723 4.0684848
-0.36770827 -0.92624563 3.9997265
-0.094351143 -0.40241733 3.2024438
-0.053949609 -0.38443467 3.1684158
-0.52062321 -0.62289602 3.3997102
0.22729261 -0.17379978 2.7755382
0.33539361 -0.95641768 3.0920763
-0.47819585 -0.6522032 3.342761
0.40039662 -1.0066375 3.1042304
0.36341423 -0.24269325 2.8687146
0.33939639 -0.23707461 2.8613679
-0.51010472 -0.58064574 3.4305081
0.75679821 0.020941058 2.4909468
-0.37519404 -0.86855114 4.0217366
-0.3794786 -1.2668035 3.4226561
-0.21576412 -0.31349987 3.1043689
-0.19672091 -0.39960286 3.2168159
-0.43064979 -0.63034266 3.3085976
-0.32856804 -1.0404257 3.5718706
0.46769789 -0.1901837 2.8246706
-0.39289656 -0.78622752 3.8261859
0.45545721 -0.061920065 2.573781
-0.012407115 -1.0055351 3.4208949
-0.39709666 -0.66206467 3.3623979
-0.49706075 -0.58372432 3.4512079
-0.44292292 -1.3527223 3.5093861
0.016427923 -0.39250556 3.1912382
-0.074059784 -0.43232745 3.2500398
0.27242932 -0.20232004 2.7908666
0.37074187 -1.0749574 3.1274014
-0.19984087 -0.88306177 3.9822092
1.4477801 -0.39548635 2.3861539
-0.41039956 -1.1974605 3.5364604
0.38786259 -0.23103607 2.8226376
0.34285802 -0.27432004 2.9552579
0.36227512 -0.31062779 3.0394607
0.45247874 -0.22488241 2.8673077
0.62714314 0.050163899 2.5117154
-0.52137589 -0.57091665 3.4252889
-0.49877492 -0.6550777 3.4214196
-0.44686919 -0.66438925 3.3487082
-0.42713794 -0.63516068 3.3143785
-0.30919504 -0.83692712 3.9033773
-0.20561443 -0.84762645 3.4531183
-0.2352494 -0.60597706 3.519438
-0.25199446 -0.86028302 3.9426126
-0.10921913 -0.83675736 3.3076134
0.33766076 -0.19663706 2.7666948
-0.30337006 -1.2624379 3.7107875
-0.37538671 -0.85696119 3.8719409
-0.068484597 -1.1228919 3.3143353
0.39581707 -0.22783524 2.7908704
-0.32655355 -1.040416 3.5739913
0.44170162 -0.0010899619 2.512403
0.96742213 -0.48223549 2.6880982
0.97068715 -0.2639811 2.6067355
0.95247245 -0.26573136 2.8370209
0.48886028 0.51712054 2.9809027
-0.43597722 -0.68161023 3.3917344
1.1627064 -0.50336617 2.5591958
0.20799181 -0.15928316 2.7351513
0.24233541 -0.20414691 2.8712583
-0.39885777 -1.0926651 3.6245155
0.060675845 -0.46261191 3.2971461
-0.23799302 -0.60608548 3.522239
0.38560668 -1.0381645 3.0859787
0.10718333 -0.40413788 3.2156069
0.16303053 -0.35344815 3.125205
0.20180704 -0.15094797 2.8043854
-0.4345378 -1.3039767 3.4912105
-0.44262525 -1.3120965 3.4644821
-0.42646044 -1.2327782 3.5731051
-0.326603 -1.0393604 3.5730519
-0.42388868 -1.2385186 3.4597859
0.33621079 -0.2712127 2.9566309
0.39846653 -0.16074635 2.7106397
0.33951756 -0.91050142 3.1375113
0.31435513 -0.95539343 3.09571
0.084138855 -0.39426595 3.144105
0.29552183 -0.86961532 3.1419084
-0.41864556 -1.2213109 3.5774665
0.24136275 -0.21427158 2.8641229
-0.39187247 -1.1386749 3.5913405
0.39942166 -0.1626869 2.7126803
0.47587577 -0.33222672 3.0751541
0.79173553 -0.0079732025 2.3883467
-0.47744703 -0.60206836 3.4744418
-0.28255713 -1.209224 3.704298
1.4052457 -0.38590389 2.4085362
0.62004453 0.48558277 2.7795238
-0.30696878 -0.60248148 3.3652329
0.085256055 -0.42109573 3.2529233
-0.47993353 -0.6587646 3.3503184
-0.49322933 -0.64588565 3.4234869
-0.57407987 -0.7956875 3.8495688
-0.36966243 -0.88988978 4.0034313
0.27442509 -0.92859757 3.1524894
0.49069858 -0.25813743 2.8571537
0.48407665 -0.25477508 2.8810973
-0.44850495 -0.58422941 3.3053451
-0.427798 -1.3760846 3.5232444
-0.36728635 -0.91522729 4.0146341
-0.44735476 -1.2765542 3.5422294
0.95619297 -0.21503867 2.795366
-0.12537892 -0.35000774 3.132066
-0.49184516 -0.60098213 3.4544854
0.033784367 -0.44870156 3.3121321
0.065710977 -0.46282706 3.2984624
-0.47600266 -0.65013266 3.4467895
-0.21446845 -0.58829951 3.4814553
-0.36585706 -1.1662135 3.8439386
-0.39986098 -1.1523267 3.6128025
-0.041299514 -0.3729881 3.1636288
-0.032436635 -1.1478373 3.2723145
-0.38788611 -1.4398021 3.5894196
-0.44190159 -1.3267934 3.5533175
0.92871439 -0.1354948 2.6062024
-0.48795509 -0.64711106 3.4262695
-0.19825582 -0.57687688 3.4716859
-0.43436977 -1.3083797 3.461827
-0.37348551 -0.80830592 4.0897841
0.23762488 -0.22417416 2.8264716
0.21135429 0.062836729 2.8365521
0.20812327 -0.16240929 2.7381997
0.29837146 -0.25786293 2.8112085
0.28684279 -0.27275664 2.7981455
0.11683252 0.37427589 3.2556033
0.13801059 0.45532259 3.1421671
0.78158343 0.017610429 2.3834243
0.78726643 -0.012580481 2.4000998
0.4506653 -0.23136452 2.8888443
0.77987373 -0.032891497 2.4798481
0.77139491 -0.4813967 2.8670821
0.92663503 -0.26714319 2.8999448
0.72973347 -0.14087638 2.6616776
0.86823553 -0.023251511 2.4732778
-0.50795799 -0.57778043 3.4285393
0.29791415 -0.14145988 2.7926955
-0.39873213 -0.9491384 3.7225254
0.32626304 -0.24369752 2.804251
0.82697845 0.017734881 2.3748982
-0.14964686 -0.85217917 3.3757076
-0.15132749 -0.38344526 3.1853933
0.31805864 -0.95309848 3.0636358
0.046918381 -0.44608951 3.3080432
0.22663693 -0.78158575 2.9886162
0.37981123 -1.0430516 3.0930328
0.40008771 -0.99541378 3.1788235
0.30474803 -0.14047493 2.7963953
0.37948966 -0.21775833 2.7857859
0.66160899 -0.00016019592 2.6421933
0.98799258 -0.24656971 2.5975904
0.86698365 0.015206388 2.4919217
1.142171 -0.44310397 2.5047464
0.86717916 0.79631823 2.5763571
0.86230272 0.79177785 2.5841932
3.7969575 0.80689645 0.68661129
-0.39697447 -1.0163289 3.6791444
-0.15813793 -0.4004623 3.2093823
0.3464812 -0.8712222 3.1255257
0.31380993 -0.92094207 3.1357069
0.20512997 -0.21121742 2.813211
0.28067708 -0.21580367 2.8462291
-0.40113178 -1.0321125 3.6707847
0.51019257 -0.061321512 2.6542761
-0.40610078 -1.3661751 3.6247244
0.35746837 -0.31374148 3.0417864
0.98041558 -0.19551463 2.6649451
0.99753141 -0.070819966 2.6368589
0.78210115 -0.10796964 2.6440506
-0.36622727 -0.93136418 4.0027509
-0.10830227 -1.197336 4.3637362
0.36900672 -0.18817739 2.8310416
-0.39755815 -1.0849282 3.6393349
-0.13767777 -1.1699369 4.3508396
-0.11131068 -1.3158703 4.2881861
-0.10519118 -1.3217946 4.1571436
0.66283333 -0.91284901 4.000113
0.99102855 -0.65460825 3.5788522
0.77262717 -0.55825216 3.251698
1.3909039 -0.39144155 3.1185296
0.94963866 -0.57131928 3.4196482
0.98289043 -0.20458038 2.6514289
0.55591065 -0.31153786 3.0181119
0.97117603 -0.33997577 2.7309723
-0.1999002 -0.85501933 3.4515398
-0.42010257 -1.1956407 3.5215633
0.25553045 0.29156396 2.6728866
0.30537397 -0.84045011 3.1188474
4.8735647 1.476932 1.0375392
4.8570843 1.5121753 1.0383912
4.6073151 0.98215014 0.74702215
4.3474288 1.297781 1.030017
4.4154859 1.3748617 1.0864627
4.8483233 1.4871591 1.0548316
4.5529213 1.2426074 0.97349453
4.3641949 0.84719026 0.78161824
3.6682594 1.3921826 1.0524553
3.7955074 1.3399715 1.1943061
3.9114413 1.235384 1.1176456
4.8632965 1.4886276 1.0464654
3.8257806 0.87919581 0.90117848
-0.36129782 -0.76211303 3.784348
3.7331719 0.73222321 0.97591096
4.5626879 0.94917655 0.76321852
4.8052106 1.3434548 0.91175359
4.4101386 0.98164254 0.6727531
4.2077727 0.98604333 0.86675113
0.32336935 -0.87260097 3.1218696
3.9805086 0.75730306 0.82018793
3.9071832 1.2335848 1.1213712
3.7110095 0.93394279 0.68616176
1.0534819 -0.23133296 2.5328355
3.7944593 0.85850364 0.68395239
3.7729468 1.400678 1.0854232
0.2066649 -0.33728385 3.085319
3.8514421 0.6748901 0.7573837
3.9789968 0.76223081 0.83183938
3.7526798 1.3308675 1.0305411
3.9489198 1.0567379 0.9164176
3.1703885 1.0405805 1.3510425
3.9484534 1.284189 1.1034383
0.29923189 -0.97899354 3.0663104
3.3906946 1.0497793 1.3402604
4.0789094 1.3689435 1.0914643
4.1903601 0.7111153 0.6987285
-0.36771712 -1.1069669 3.8874898
1.0702317 0.020425422 2.4457378
3.738503 0.84403747 0.9459042
-0.37588051 -0.80241984 4.0888591
3.789304 0.83257163 0.78191543
3.8819087 1.339416 1.0816478
3.6957147 0.90287209 0.60288346
3.8245759 0.79575896 0.69269741
-0.40147603 -1.4044909 3.5888617
3.687299 1.4718076 0.7455954
-0.45643666 -0.65612757 3.4499841
3.7646234 0.84676361 0.73728257
3.8764834 0.8437289 0.84416044
3.79248 1.3419734 1.0388106
3.82021 1.6266642 0.78034288
4.7623248 1.330349 0.88118285
3.7287765 1.0604072 0.78088593
3.6334169 1.4972967 0.86891073
3.9015789 0.85792238 0.79288507
3.557003 0.99357933 0.66489625
3.6719987 1.5643231 0.8072558
4.6239324 0.82557815 0.64106727
3.6996756 0.92661357 0.68569857
3.6931765 1.4845682 0.73092759
3.4970787 1.2693802 1.0871609
4.4259892 1.0663013 0.48799187
3.733824 0.94723701 0.6532867
3.5299127 0.81619501 1.0410256
3.8113787 0.91692054 0.92089981
3.6785665 1.0669159 0.74112189
-0.047089994 -0.35345623 3.1254339
3.7807562 0.70576537 0.82883519
3.6878858 1.0560571 0.57845306
