# .PCD v0.7 - Point Cloud Data file format
VERSION 0.7
FIELDS x y z
SIZE 4 4 4
TYPE F F F
COUNT 1 1 1
WIDTH 554
HEIGHT 1
VIEWPOINT 0 0 0 1 0 0 0
POINTS 554
DATA ascii
0.2453046 -1.0842592 3.1020234
-0.18730208 -0.49223855 3.2844565
0.15260586 -0.2311257 2.8158281
0.23236901 -1.0822896 3.1640129
0.22560568 -1.189702 3.1653328
0.23156716 0.446327 2.975703
0.13855577 -0.24525809 2.8002532
0.13855577 -0.24525809 2.8002532
0.92711455 -0.40680853 2.5864604
0.42694849 -0.35445255 2.9075418
1.0592908 -0.63186574 2.6333933
1.0592908 -0.63186574 2.6333933
0.92791951 -0.23919329 2.6423788
0.23530741 -1.0335728 3.2945547
0.86614025 -0.51592505 2.6580746
0.86722285 -0.53461385 2.7475898
0.076319516 -0.40974361 3.1227152
0.85028613 -0.44187024 2.6895926
-0.095656037 -0.50932008 3.3131871
-0.24574451 -0.36756843 3.0860136
-0.23076499 -0.5802173 3.4228189
-0.19496906 -0.8598631 3.3287582
-0.19496906 -0.8598631 3.3287582
1.0434568 -0.071159214 2.461673
-0.22710788 -0.57687825 3.4255402
-0.060256127 -0.24477722 2.9098849
-0.55433559 -0.81083804 3.8620741
-0.57289702 -1.2274231 3.5520806
-0.29448754 -0.90495253 3.4165034
0.065824836 -0.27004081 2.8913274
0.6029101 -0.44402349 3.1155055
0.84472072 -0.26763836 2.7839313
0.72899538 -0.16650806 2.5128164
0.86745799 -0.51409179 2.6603813
0.86088228 -0.30219331 2.7827821
0.22820735 -1.1259767 3.225363
-0.57815659 -1.2283353 3.5736704
0.22022741 -0.33871931 2.9994385
0.2247164 -1.1893454 3.1626949
0.60890567 -0.20894992 2.7571094
-0.096739233 -0.4238185 3.1788468
-0.096739233 -0.4238185 3.1788468
0.26623356 -0.30589345 2.8232605
0.88034022 -0.36724326 2.8205359
0.84682429 -0.25942644 2.7084641
0.82707095 -0.27188754 2.7453499
0.28221941 0.38245422 2.8862262
-0.20389201 -0.8607828 3.3321218
-0.29679248 -0.90212804 3.4174616
-0.58395296 -1.2254335 3.5575731
0.78065205 -0.56855476 2.9682934
0.72702825 -0.43031597 2.9982905
-0.53141719 -1.1877844 3.8948874
0.35454464 -0.40297189 3.0720565
0.87629312 -0.56238848 2.5871232
0.28685635 -0.26157215 2.7486901
-0.24212261 -0.37029174 3.0894656
0.46225506 -0.40079224 3.0757537
0.8690173 -0.52971566 2.7542446
0.8690173 -0.52971566 2.7542446
0.83938098 -0.27820429 2.788625
0.86879313 -0.31755805 2.7772353
-0.33373341 -0.91355652 3.4437838
-0.59611696 -0.56671119 3.3726051
-0.23782773 -0.3725712 3.0925756
0.1364775 -0.38945252 3.084136
0.21103761 -0.33129367 2.82166
0.88370121 -0.57095402 2.7936087
0.85512352 -0.27734926 2.7976651
0.11169279 -0.23423663 2.78139
0.84100246 -0.44785002 2.7274954
0.47516635 -0.56352174 2.9935048
0.45509517 -0.4410103 3.0662835
-0.3450186 -0.63347542 3.55037
0.86082101 -0.52879554 2.7604682
1.2237862 -0.035084039 2.5614631
0.87593681 -0.58847308 2.7853174
0.87593681 -0.58847308 2.7853174
-0.10344281 -0.42500263 3.1812201
0.39661112 -0.13105136 2.592448
0.42253292 -0.35586408 2.9064727
-0.49285251 -1.0748044 3.6185088
0.30920437 -0.21675521 2.6524384
-0.54454345 -1.313437 3.431344
0.35536307 -0.42590868 3.0981998
0.68892682 -0.079886742 2.5236859
-0.61586392 -0.64321727 3.5083678
-0.55824459 -1.1826458 3.5332153
-0.5704788 -1.1731352 3.6395545
0.26435411 -0.30810595 2.8182993
-0.52789754 -1.0768504 3.9706485
0.12154106 -0.48924899 3.2394147
-0.21241343 -0.45772135 3.2387011
0.41231963 -0.35285217 2.9057806
0.32724205 -0.33305475 3.0553198
0.21827516 -1.042713 3.1535316
1.1415479 -0.58837187 2.5148759
0.72822559 -0.53229511 2.9404333
-0.57899785 -0.67439193 3.3480151
-0.26376233 -0.89270985 3.4442677
-0.049557392 -0.42587307 3.1718957
0.26448283 -0.27172732 2.758986
-0.55515599 -0.66857654 3.3812547
-0.2130468 -0.87393594 3.358325
-0.25304034 -0.58594322 3.4462514
0.67557472 -0.21791732 2.6763463
0.39698505 0.56742042 2.7968268
-0.58555865 -1.2293524 3.5814767
-0.23013571 -0.46409053 3.2384739
-0.21496622 -1.1090187 3.3830254
-0.40032133 -1.3926183 3.9208291
-0.40032133 -1.3926183 3.9208291
-0.29364929 -0.4328571 3.210171
0.15785439 -0.26215047 2.7824261
0.21619901 -0.33075038 2.945997
-0.41936737 -0.78669238 4.2965889
-0.61069757 -0.68683487 3.3882315
-0.62371624 -0.6201793 3.4831338
-0.32514969 -0.71027446 3.569562
-0.63240486 -0.62734503 3.4847014
-0.58256727 -1.2294003 3.5853584
-0.22971834 -0.35588965 3.0644519
0.77713668 -0.48414496 2.9426048
1.0447003 -0.61465603 2.705492
-0.51323354 -1.1664282 3.5175476
-0.60606879 -1.3649256 3.495579
0.060911648 -0.26391405 2.8604157
-0.6106481 -0.64402676 3.5108032
0.95356339 -0.18459167 2.7002604
0.17240995 -0.29617184 2.8434355
-0.61651325 -1.3139837 3.6008763
0.24826351 -0.97775793 3.2856882
-0.40332177 -1.2840784 3.9890063
-0.40332177 -1.2840784 3.9890063
-0.60794502 -0.69304967 3.4834716
0.30512047 -0.34366456 2.9179087
0.30704665 -0.34466147 2.9208543
-0.65487009 -0.81835228 3.8981609
-0.61461586 -1.3196146 3.5238225
-0.61722159 -1.3185576 3.5234013
-0.53313482 -0.67730224 4.2113676
-0.58683097 -1.2365357 3.6013412
-0.18229322 -0.44335252 3.2014208
-0.11533893 -0.49641955 3.2754502
-0.19979984 -1.097353 3.4119186
0.11478046 -0.25701874 2.8079185
-0.6040765 -0.67175215 3.4817312
0.18207639 -1.0341218 3.1484404
-0.41533765 -1.045543 4.1332603
-0.41533765 -1.045543 4.1332603
-0.57704955 -1.3824342 3.46262
-0.62500191 -0.68629193 3.3749573
0.12425464 -0.35265705 2.8157902
-0.65121102 -0.61128968 3.4606156
0.65727812 -0.094478711 2.527616
-0.57130718 -0.67504323 3.354284
-0.53409576 -1.1793362 3.5447719
-0.53111452 -0.93382275 4.0483913
-0.53946131 -0.88757318 4.0621314
-0.54631639 -1.4708036 3.6509981
-0.32402372 -0.76695693 3.4822545
-0.35769224 -0.87733811 3.507266
-0.32640266 -0.45071733 3.2476218
0.35112432 -0.41319618 3.0662246
-0.49302891 -1.0743966 3.6182444
-0.44978508 -0.41766247 3.2693529
0.35333496 -0.28267521 2.8618686
-0.43889061 -0.88241297 4.3614388
-0.55011684 -0.81027645 3.8640344
-0.55784553 -1.0035899 3.7428322
-0.62054127 -1.3947904 3.5686002
-0.65430176 -0.81819397 3.8982272
-0.27398568 -0.37557179 3.1172106
-0.49480841 -1.0750916 3.6172287
-0.66344148 -0.65148199 3.4303946
0.039611761 -0.81585556 3.1308
-0.11274818 -0.45388725 3.2257419
-0.57410526 -0.71118921 3.4265337
-0.20888853 -1.2112641 3.3408701
-0.41165683 -0.77722281 4.3124657
-0.41165683 -0.77722281 4.3124657
-0.61902773 -0.69185704 3.387495
-0.53322798 -1.2469493 3.6454718
-0.49319887 -1.0744139 3.6188235
-0.34755307 -0.93275744 3.4871747
-0.081873111 -0.46378559 3.2290866
0.89915204 -0.3538813 2.6231384
0.89667213 -0.57097882 2.8109848
-0.6005764 -1.2805494 3.6435101
-0.54596984 -0.80583984 3.8655469
-0.61869341 -0.68116641 3.3732424
0.22263195 -0.35731474 2.9924929
0.23896214 -0.391983 3.0780313
0.33584559 -0.31540266 2.9051883
-0.5781247 -1.1806041 3.6546934
0.3268159 -0.36035943 2.8708479
-0.66194165 -0.60122359 3.4549179
0.87708271 -0.44113365 2.7838175
-0.64309961 -0.68638635 3.4538493
-0.59044325 -0.70012033 3.3823893
0.73346025 -0.16213062 2.5134411
-0.56883454 -0.67281437 3.3476098
-0.4627395 -0.85808021 3.9478524
-0.47010773 -0.86238921 3.944145
-0.51207131 -1.2496302 3.4324114
-0.3595064 -0.89081949 3.4963329
-0.61771369 -1.3438087 3.5159824
-0.60434103 -0.6206497 3.3388627
-0.17860729 -1.1060486 3.3946791
-0.54134244 -0.81651562 4.1307783
-0.63279748 -0.61551732 3.482209
-0.41469204 -0.88712078 3.9850628
0.19916691 -1.1148617 3.0500877
-0.61846083 -1.3793403 3.525949
-0.57551742 -1.2211442 3.5414526
-0.53659427 -0.88035727 3.9120884
-0.60223061 -1.4219781 3.5763099
-0.23260877 -1.1758581 3.3679338
-0.59247041 -1.28642 3.4878738
-0.47421047 -0.87129235 3.9458926
0.69852251 -0.15985741 2.4807932
-0.57073915 -1.1794819 3.6595852
-0.62280965 -1.296792 3.5565729
0.84161049 -0.60059243 2.7427628
-0.5508678 -0.99545151 3.7476511
0.85878396 -0.44218785 2.6929591
0.40374807 0.42723307 2.9983399
0.40759224 0.42165571 2.9997532
-0.5891 -0.63213456 3.5170848
-0.65059531 -0.634049 3.3731208
0.49867889 0.42148033 2.9891248
0.47760078 0.40916216 2.9957991
1.0378968 -0.63416469 2.6180918
0.14007075 -0.99298912 3.1057138
-0.088403225 -0.43504745 3.1725755
-0.61885762 -1.3671387 3.5389936
-0.53535002 -0.94197106 4.0572329
0.092342183 -0.37511703 3.0742245
0.12681544 -0.28520399 2.9047189
-0.56648594 -1.1218907 3.6710601
-0.073508881 -0.52278149 3.334384
-0.38211694 -0.64616233 3.5579746
0.22864507 -1.1181709 3.1455796
-0.023035852 -0.46884263 3.2520804
-0.051059853 -0.48072967 3.2321301
-0.61991501 -1.3251113 3.5566974
0.089867353 -0.23222131 2.8356371
-0.60940379 -1.3351952 3.5431731
-0.6173957 -1.3437215 3.5165424
-0.5995093 -1.2620713 3.6231492
-0.59301496 -1.253006 3.6278641
0.21610942 -0.35387516 2.9936557
-0.61094505 -1.2899109 3.5261254
0.20987394 -1.0923144 3.0623229
-0.68488848 -0.73987925 3.7701964
-0.68591386 -0.6827814 3.4312458
0.18749841 -0.98713046 3.1926224
-0.19614057 -1.1800463 3.3549507
-0.19346403 -1.1790234 3.3540497
-0.68586206 -0.66532934 3.4266922
0.24536528 -1.1713779 3.2017815
0.22602391 -0.99008816 3.1309123
-0.63700032 -0.65345961 3.4319117
0.1255078 -0.29547885 2.897857
0.14424589 -0.1328986 2.7537253
-0.56102341 -1.1691136 3.6393359
-0.61901993 -1.381512 3.5616317
-0.60054064 -1.2877996 3.6090755
0.10900397 -0.50137341 3.2178004
0.27876863 -0.32758126 2.8699627
-0.63318831 -1.2895271 3.5210834
-0.7230584 -0.8111304 3.8910353
-0.6645959 -0.8221373 3.9561393
-0.54976749 -0.59338266 3.3315489
0.69260716 -0.12790148 2.4265308
-0.62030202 -0.63285863 3.5057268
1.2880062 -0.53208393 2.4686067
0.53676635 0.38401636 2.8003604
-0.15781821 -0.42772147 3.1764295
-0.70359391 -0.64267504 3.4569952
-0.046334807 -0.4837102 3.2894566
-0.62324262 -0.69298124 3.3832364
0.22295482 -1.1888509 3.142988
-0.030085873 -0.4330779 3.2052791
-0.065865256 -0.47642273 3.2581179
-0.052701175 -0.48264709 3.2714589
-0.51473159 -1.1685426 3.5421143
-0.47629055 -1.2561972 3.7605011
0.16309698 -0.53262061 3.1966705
-0.64049798 -0.62951583 3.3758171
0.077693269 -0.40921262 3.157095
-0.63718063 -0.67739451 3.4557562
-0.53817445 -1.2365412 3.4495621
0.19442044 -0.97983247 3.2056906
-0.59407121 -1.4199036 3.5052149
0.1214113 -1.0018595 3.2069192
0.36582422 -0.34626094 2.9203935
-0.58772522 -0.62126529 3.3367476
0.23034115 0.43591484 2.9697447
-0.71826053 -0.81141013 3.8941071
0.8574301 -0.44928715 2.7892351
-0.60312456 -1.4214985 3.5886338
-0.65105724 -0.61138225 3.4599898
-0.59739 -1.3268448 3.4725728
-0.61939114 -1.2967134 3.5571585
-0.53354907 -0.93474287 4.0565004
0.26947552 0.36370641 2.8755991
-0.65940899 -0.81987178 3.8940423
-0.62627965 -1.3144025 3.6006329
-0.60768026 -1.3135946 3.6001205
-0.60975236 -1.3997319 3.571579
-0.5350098 -0.9341296 4.0590434
-0.61796778 -1.3025018 3.5013404
-0.63429648 -0.63171315 3.4854887
-0.099995077 -0.50725412 3.3484766
0.18718892 -1.0377768 3.1425722
0.16052456 -1.040082 3.1474237
-0.068511598 -0.52318269 3.3357973
-0.55066943 -1.4888749 3.6256499
-0.056042168 -0.45339099 3.1698244
0.23245953 -0.89616519 3.1178832
-0.17235444 -1.0574763 3.4704585
-0.33149359 -0.62684453 3.5028183
-0.5867821 -1.4495043 3.5599031
-0.60262406 -1.4158256 3.5602989
-0.58356512 -1.2163762 3.5766878
-0.61498988 -1.2949654 3.5591986
-0.54055822 -1.1904116 3.8930454
-0.56998217 -1.1817641 3.6610274
-0.58030993 -0.69570267 3.391005
-0.18032765 -1.2024598 3.3259325
-0.52991599 -1.3283139 3.8135774
-0.57059908 -1.4700468 3.646028
-0.6188404 -1.3558407 3.6057575
-0.53373533 -1.1888734 3.8946292
-0.64154106 -0.67225599 3.4522069
-0.5647344 -0.58933985 3.3431931
-0.53389877 -1.080811 3.9657807
-0.63201499 -0.67877251 3.4586678
-0.51943207 -1.3832164 3.4663754
-0.63225317 -0.5490396 3.4186344
-0.37259349 -0.65371799 3.4960868
-0.3921901 -0.66616225 3.4880445
-0.60893714 -1.3404558 3.5139339
-0.53618813 -0.82550639 4.1284628
0.048696972 -0.4092913 3.1587543
-0.53602928 -1.07636 3.9651101
-0.65462476 -0.81957304 3.8971579
0.21486919 -0.33213913 2.9456353
0.096779682 -0.24587734 2.7699289
0.1959033 -0.49424437 3.176832
-0.57815212 -0.71187866 3.4206436
-0.46127063 -1.2674315 3.7646236
0.037082545 0.31494224 3.2659469
-0.45137545 -1.2941244 3.9239626
-0.75859809 -0.60002506 3.5153735
-0.57806373 -1.4499222 3.5613317
0.40343577 -0.47738639 3.0615742
-0.60315287 -1.3971469 3.503036
-0.1554255 0.16369893 3.1309121
-0.52937144 -1.1927394 3.5185423
-0.57929426 -1.2275122 3.5770845
-0.091389976 0.25601229 3.1315248
0.46467474 -0.33370808 2.8891897
-0.57977372 -1.2282991 3.5478835
0.64281833 -0.58579028 2.9180489
-0.52861851 -1.488714 3.6677847
0.86471438 -0.40472525 2.9051375
-0.50539392 -1.2258335 3.7063701
0.80699086 -0.37781098 2.9476461
0.62005109 -0.24988198 2.7023454
0.82828879 -0.22733313 2.7038937
0.16167879 -0.89062095 3.1630106
0.29143304 -1.1631387 3.1965442
-0.055977419 -0.51591402 3.3338251
0.035849929 -0.42377609 3.1567876
0.18648888 -0.22737615 2.8254361
0.17830823 -1.101226 3.1119282
-0.56154257 -0.97571683 3.7649462
0.038613394 0.34565854 3.4175808
0.66269636 -0.1439622 2.4424725
0.65662032 -0.20483138 2.7332928
0.41773078 0.35174617 3.0088816
0.40559399 0.4068166 2.9227901
1.9157876 -0.35889155 2.2541764
1.2634823 -0.5435288 2.4804339
-0.30249858 -0.9001196 3.4201152
-0.3762584 -0.74503344 3.5649815
-0.36027369 -0.82101864 3.5206659
-0.42814818 -0.86763835 4.3570271
-0.17433043 -1.1370864 3.3684218
-0.43014923 -0.40750346 3.2482376
-0.56762046 -1.469231 3.6462293
-0.36337867 -0.63654804 3.5388329
-0.40721646 -0.76509726 4.4443507
-0.33333418 -0.70561326 3.616751
-0.52835202 -0.93160719 4.0684061
-0.53687471 -0.89357775 4.0607638
-0.42534792 -1.0355208 3.9024866
-0.44268426 -1.044578 4.2432456
-0.53587723 -0.82904613 4.1266561
-0.30120996 -1.0583844 3.4343572
-0.40654877 -1.0339407 4.1476278
-0.50527704 -0.93486124 4.1284571
-0.59879601 -1.2824829 3.6456578
-0.32332605 -0.440548 3.2157454
-0.27980074 -0.43752423 3.2165861
-0.2068457 -0.45250991 3.2389727
-0.55194181 -1.2295491 3.5090137
-0.077530093 -0.49002656 3.3062384
-0.086689211 -0.50535107 3.3445556
-0.60553128 -1.3143922 3.6511507
0.1597788 -1.0491048 3.1524301
-0.59959251 -1.4216794 3.5756218
0.160519 -1.1395741 3.2350516
-0.11386281 -0.53313261 3.3004181
-0.55084419 -1.4150732 3.7147715
-0.047912676 -0.48496339 3.2591281
-0.58367878 -1.2484614 3.6618032
0.19595008 -0.9928931 3.2913079
0.231198 -0.98672086 3.2911212
-0.63206893 -0.64692324 3.429795
-0.45656273 -1.265141 3.7518737
0.19329664 -0.22658971 2.8292305
-0.61667472 -1.2931209 3.6487319
0.30988598 -0.29518038 2.9787548
0.26026434 -0.30498707 2.8566275
-0.59429705 -1.2943082 3.6549406
0.23080978 -0.39208189 3.0815477
0.5586862 -0.10689374 2.6776402
0.87437946 -0.55990571 2.7998216
0.97033995 -0.42467433 2.5505667
0.7670601 -0.10509376 2.530761
0.62596351 -0.58161551 2.9132848
-0.30941457 -0.90669608 3.4791787
-0.29282063 -0.43856657 3.2209802
-0.28777742 -0.45351395 3.2409198
-0.17519405 -0.40505204 3.2044797
-0.18098706 -0.28487486 3.030261
-0.070462748 -0.22988091 2.9401679
0.16629626 -1.0103993 3.1263816
-0.10931826 -0.50243604 3.3488643
0.1964296 -0.94856715 3.1796567
0.20268886 -0.944381 3.1775434
-0.047498826 -0.50698739 3.3288126
0.11967697 -1.0055312 3.2050333
0.16131467 -0.49748346 3.2189224
0.047681239 -0.38637036 3.0814362
0.090317026 -0.29229611 2.8462272
0.18916416 -1.0496205 3.2427642
0.16501027 -0.2992847 2.8807333
0.1462685 -0.33666909 2.9090374
0.083196782 -0.41735116 3.0899701
0.20538783 -1.0972173 3.0620589
0.25668097 -0.43938175 3.1749899
0.19033875 -0.41376111 2.9661448
-0.083909705 0.21763977 3.2749636
0.32564902 -0.43235007 3.0920498
0.40448102 -0.16085908 2.6886911
0.39122289 -0.1852389 2.7036231
0.51313925 0.44688115 2.9923015
0.39370385 0.25731003 2.8394125
-0.40256333 -0.88612652 4.2421441
0.23398106 -0.39480999 3.0803564
-0.086545646 0.20813549 3.2633092
0.41496935 -0.36172524 2.9111528
1.0736259 0.026036562 2.3510118
1.2425489 -0.51404274 2.5706182
0.89111966 -0.19259885 2.6804345
0.67414147 -0.21987267 2.6847496
-0.16585614 -1.0585135 3.4778132
-0.29189864 -0.33589762 3.1471837
0.18264915 -0.91391653 3.1230733
0.23838854 -0.29169717 2.7653868
-0.53772688 -0.68215877 4.2152715
0.43547583 -0.82832664 3.8425021
0.60630977 -0.72135043 3.2994142
0.96773112 -0.6591509 3.4570701
1.1217579 -0.75677174 3.6907418
1.0194536 -0.71542114 3.6263666
1.6541526 -0.47498628 3.1112499
1.3317822 0.13928005 2.8702352
1.5908436 -0.044926375 3.7183788
0.70875561 -0.13029103 2.5089276
0.69196266 -0.059968986 2.4885817
1.0244429 -0.16233636 2.6260529
0.76224798 -0.4376246 2.9466043
-0.35410571 -0.89850289 3.495069
0.15285987 -0.47733125 3.2149682
0.23549038 -0.92456013 3.1674867
0.15687197 -0.91619909 3.1713605
4.6466799 1.0868 1.1819319
4.8446932 1.1693249 1.10832
4.5480108 0.54131812 0.7699731
3.7718866 1.0423615 1.2560627
4.3260961 0.97773409 1.0967424
3.7371261 1.0797977 1.1773393
4.4071417 0.76059264 0.97786522
4.6001496 0.49783373 0.72251546
4.3267136 0.51979554 0.86156833
3.8101895 0.52224499 0.93485242
3.7739387 1.0492824 1.2496836
4.3941393 0.83212942 0.97163469
4.8496985 1.1457686 1.1171705
3.8636882 0.92594624 1.1923157
4.2201829 0.75321019 1.0360036
3.8182924 1.0406626 1.2359533
4.344461 0.78658772 0.96229744
3.784276 1.0144228 1.2657937
3.6974237 1.1072344 1.0317311
3.6879456 0.43881401 1.0475112
4.129622 1.0385672 1.1643056
0.1741128 -1.0513835 3.118824
0.28181192 0.23704369 2.7965755
3.7613029 0.68780375 1.0576634
3.6798189 0.63279033 0.75180244
0.9415226 -0.35841247 2.5820415
3.7581263 0.63631231 1.0311464
3.7818458 0.99556798 1.1915745
3.7559874 1.1077358 1.1387299
0.081553318 -0.41032055 3.1217835
3.9372785 0.45360985 0.90715045
3.7335227 1.0373292 1.0854894
3.1333807 0.782781 1.4034292
4.475327 1.1894604 1.0235374
3.5506423 0.54597473 1.1054534
3.9257281 0.98410553 1.1632365
0.14537412 -1.0558028 3.1226704
4.0217037 0.6762833 1.0211172
3.9575868 1.2770029 0.91427064
-0.54047972 -1.1298966 3.9348578
3.6988249 0.54935682 1.0144479
3.7518263 0.53086042 0.85180318
3.6289351 0.44065624 0.97253209
4.1430101 0.53941733 0.80867147
0.25990674 -0.31649289 2.8526897
-0.58257014 -1.4341956 3.6442215
-0.60134161 -0.6884914 3.4831991
3.773638 1.0468842 1.0941646
5.6476378 1.3123244 0.65437442
4.7445002 0.98740327 0.95463032
0.19899698 0.11344475 3.0294204
4.2463803 0.94943649 1.1832649
3.6797163 0.66124928 1.0852439
3.7045531 1.1315496 0.93435448
4.7296386 0.64161956 0.55925769
-0.55879915 -1.0000503 3.7474747
3.6860986 1.1847336 0.78060311
3.4744849 0.9889856 1.1391627
-0.3346498 -0.71582359 3.5663528
-0.55814284 -1.2393956 3.6724322
-0.17331573 -0.41397703 3.1577098
3.7168124 0.3377327 0.87761593
1.301456 -0.59923345 3.3958967
