# .PCD v0.7 - Point Cloud Data file format
VERSION 0.7
FIELDS x y z
SIZE 4 4 4
TYPE F F F
COUNT 1 1 1
WIDTH 449
HEIGHT 1
VIEWPOINT 0 0 0 1 0 0 0
POINTS 449
DATA ascii
-0.17898834 -0.22913782 2.7455788
-0.088957757 -1.0589886 3.054162
-0.19331184 -0.24406943 2.7310324
0.013183289 0.57768041 2.6234703
0.03112107 -0.4948248 2.9884367
0.50413197 -0.2115065 2.5853286
-0.023450077 -1.119694 3.1054461
-0.36899525 -0.524589 3.2584119
0.66910928 -0.011461001 2.323705
-0.67756915 -1.3883291 3.7869933
-0.77960587 -1.2725296 3.527642
-0.70521522 -1.3719834 3.7820172
-0.76081097 -1.2176422 3.6255488
0.52749896 -0.25494778 2.6560929
0.06844531 -0.43448907 3.0339868
-0.59774739 -1.3474214 4.1028104
0.016450282 0.58422583 2.6190908
-0.12929133 0.38252181 2.9526534
0.50492388 -0.21285316 2.5835106
0.05306213 -0.38887113 2.9834888
0.5197469 -0.37137696 2.5292718
0.55002934 -0.32400268 2.5120432
0.10785552 -0.38892439 2.9653504
-0.5904392 -0.66530794 3.5133879
0.43924883 -0.24312533 2.6350768
-0.3523407 0.25545284 3.2019541
0.31671467 -0.049792539 2.3956466
0.48460689 0.19304511 2.4670312
-0.80298001 -1.4453342 3.5478873
-1.1760783 -0.75050956 3.7187316
-0.76930797 -1.2168056 3.6160235
-0.062770918 -0.29887602 2.7385192
-0.32141688 -0.42418501 3.0881872
0.020169087 -0.32076028 2.9695992
0.53246671 -0.47001687 2.4966826
-1.173919 -0.7383157 3.720928
-0.80348426 -1.3031372 3.6047575
-0.74317843 -1.2396582 3.4953048
-0.78974867 -1.2753805 3.5579264
-0.56825936 -1.4279552 3.8800943
-0.91175359 -0.7262466 3.4272206
-0.099121228 -0.32506025 2.8694062
-0.22029434 -0.4333131 3.1231401
-0.72852331 -0.93539757 4.0382771
-0.59555435 -0.8260197 4.2617135
-0.70586896 -0.90122253 4.2197542
-0.59764802 -0.89081073 4.3550253
-0.10775922 -0.31777784 2.7870049
-0.51255989 -0.40148994 3.0714066
-0.85717714 -0.69254243 3.4948118
0.60575038 -0.131358 2.5675943
0.44643763 -0.35838664 2.9124649
-0.82880718 -0.70494366 3.4549289
-0.60652024 -1.145873 4.1933017
0.10195831 -0.34121072 2.8150375
-0.70284635 -1.5261625 3.5879416
-0.57267076 -1.3201075 3.949286
-0.71641636 -1.1147887 3.9382124
-0.5883162 -0.6614846 3.5068724
-0.85946184 -0.8709237 3.8828399
-0.81754625 -1.3670667 3.5019219
-0.5703392 -1.401035 4.080936
-0.60878533 -1.1486475 4.1934509
-0.6126799 -1.1523062 4.1875968
-0.82023853 -1.3661757 3.5017173
-0.72238666 -0.72372353 4.1867409
-0.21561608 -0.2573477 2.7404423
-0.58820206 -1.0834147 4.0962148
-0.71715224 -0.97892231 4.0217729
-0.90390009 -0.79379892 3.75858
-1.1795241 -0.74011093 3.7213235
-0.0090454035 -1.2340214 3.0355725
0.027607379 -0.26802641 2.7751615
-0.60380417 -0.92305404 4.327023
-0.75846344 -0.85607117 3.8406286
-0.75846344 -0.85607117 3.8406286
-0.73298204 -0.62095773 4.262989
-0.5746178 -0.67002195 4.4941387
-0.58722019 -0.8161453 4.2770181
-0.75449723 -0.85138643 3.8418498
-0.062143896 -0.38526893 2.9986665
0.015705833 -0.30197719 2.8194251
-0.77961415 -1.2265617 3.6307712
-0.031952482 -0.34416178 2.8643634
-0.66187525 -0.89857572 3.9168487
-0.52557188 -0.93700838 3.4207301
-0.56573069 -1.4276029 3.8802865
-0.72817874 -0.86284286 4.1057801
-0.60929394 -0.92466015 3.9498844
-0.58279485 -0.67787319 4.3681407
-0.22457178 -0.41536731 3.1030684
-0.74933892 -0.85261959 3.8374646
-0.66647691 -1.3331326 3.7308152
-0.78345138 -1.2663859 3.5173116
-0.7367847 -0.92534983 3.8868225
-0.57862794 -0.92651999 4.2057471
-0.67261064 -0.91248149 3.9156797
0.33305186 -0.12196249 2.3691735
0.52710134 -0.39442059 2.5654387
0.71144295 -0.57432491 2.4749167
-0.37761271 -0.44942522 3.1183519
-0.33285969 -0.49288958 3.1743536
-0.23976359 -0.23429713 2.7702661
-0.79826099 -1.3090912 3.6002688
-0.79199684 -1.2996514 3.6045394
-0.048225135 -1.0859631 2.9788957
-0.048989672 -0.24262893 2.6649325
-0.79093796 -1.4684238 3.5639141
-0.72150797 -1.1199918 3.9395628
-0.043105304 -0.31761003 2.7887037
-0.92831957 -0.86801708 3.8811843
-0.74617398 -1.5127969 3.6178551
-0.44682625 -0.44653803 3.1277387
-0.21522562 -0.41303131 3.0900493
-0.8858391 -0.72729999 3.4417272
-0.7922678 -1.465771 3.4808342
-0.79455596 -1.4682823 3.5646892
-0.71887302 -0.98002863 4.0300403
-0.095437504 0.37166309 2.8013804
-0.81386083 -1.3345151 3.5621967
-0.76956296 -1.4916277 3.532033
-0.8834877 -0.68165088 3.4715562
-0.3706423 -0.52294862 3.2939515
-0.60109663 -0.93682212 4.1552963
-0.5696584 -1.4246849 3.8776374
-0.79666328 -1.4624721 3.5364561
-0.72095579 -0.85788393 4.0951161
-0.77093792 -1.2272284 3.6364319
-0.7307902 -0.93416876 4.0357089
-0.45530209 -1.3785033 4.1766195
-0.5913552 -0.91681838 4.3244677
-0.68293071 -1.4686817 3.5578949
-0.75458694 -1.5149039 3.6188912
0.5616585 -0.18053038 2.4911737
-0.71721965 -1.125448 3.9382982
-0.63121361 -1.316928 3.7371297
-0.88038224 -0.72835916 3.4442096
-0.72266841 -0.87147856 4.1029825
-0.71967262 -1.1211386 3.9378386
-0.23723985 -0.24721497 2.7040954
0.10652936 -0.24137785 2.7724905
-0.29259542 0.30662709 3.2083876
-0.62500495 -1.3329158 3.8881483
0.31719512 -0.094631277 2.3279474
-0.70408273 -1.1138965 3.5862393
-0.7812776 -1.4935913 3.5349219
-0.60109013 -1.3445742 4.1580729
-0.73466563 -1.531263 3.5948343
-0.4495796 -1.3748118 4.1000209
-0.80238318 -0.49542862 3.324506
-0.43974733 -1.3025395 4.3419623
-0.36653087 -1.3611038 4.3503838
-0.53391838 -1.1032717 4.3591428
-0.48111954 -1.3886188 4.1704316
-0.44104585 -1.3702544 4.2966127
-0.47048643 -1.2928604 4.3135428
-0.58874655 -1.3388238 4.1621842
-0.5109517 -0.36953706 3.0182474
-0.44213265 -0.45287982 3.154685
-0.3274681 -0.52873516 3.2757933
-0.66612798 -1.1683973 3.5204923
-0.90160978 -0.65938282 3.4461226
-0.26134303 -0.43522513 3.1237779
-0.81929141 -0.7597084 3.3751523
-0.19114676 -0.29257074 2.8297515
-0.046115313 -0.30923426 2.778336
-0.12624598 -0.42087075 2.8927655
-0.76473588 -1.4661573 3.4650595
0.29336873 -0.10821617 2.3339467
0.35468501 -0.064184472 2.2996867
-0.44585124 -1.4001496 4.2448907
-0.90352666 -0.7077387 3.4163592
0.069236703 0.44350645 2.822036
-0.71686161 -1.1170036 3.9259076
-0.62767857 -1.4756354 3.974606
-0.58492577 -0.68021542 4.3672643
-0.60966158 -0.69029683 3.5099273
-0.38522342 -1.0639557 3.3479254
-0.55809236 -1.3998241 4.0869513
-0.55266672 -1.3424578 4.2040262
-0.63004166 -1.4761873 3.9745071
-0.60728115 -0.68225604 3.5397882
-0.76567793 -1.2199907 3.6288705
-0.75165904 -1.5139015 3.6188641
-0.60942668 -0.6694926 3.5033081
-0.77270573 -1.5239682 3.5579181
-0.689026 -0.97073942 4.0199146
-0.72443569 -0.93917578 4.0349293
-0.72443569 -0.93917578 4.0349293
-0.72854853 -0.94366324 4.0361948
-0.57217121 -1.1742932 4.0465035
-0.7127471 -1.3555299 3.7768831
-0.58962816 -1.4365351 4.0563507
-0.60674292 -1.0846428 4.2080193
-0.72227955 -0.87498391 4.1011248
-0.68302941 -0.90688133 3.9096766
-0.78030223 -1.2946634 3.637676
-0.1377292 -0.22208248 2.755769
-0.72008055 -0.7218433 4.1856585
-0.55185241 -1.34298 4.2060876
-0.79698759 -1.4632604 3.5368526
-0.7667886 -1.0896547 3.6993701
-0.61492211 -1.3658724 4.1424685
-0.41129774 -1.3763566 4.1507106
-0.580661 -1.328488 4.1486063
-0.80227059 -1.3339292 3.4673514
-0.63862675 -1.4843304 3.9740281
-0.80162227 -0.83027524 3.9434078
-0.13210125 -1.0056733 3.1290667
-0.7821874 -1.4943123 3.5343001
-1.0790762 -0.79609621 3.7702847
-0.61144167 -1.7194635 3.8454318
-0.77112466 -1.1057088 3.6916404
-0.80386955 -0.83211845 3.9481852
-0.17125158 -0.33525494 2.8380277
-0.87116903 -0.86264741 3.9330099
-0.052400362 -1.0911399 2.9789414
-0.094897822 -1.1115507 2.9989054
-0.71654582 -1.5316705 3.6362143
-0.32014298 -1.4475435 4.2631001
-0.33556953 -1.4555762 4.246347
-0.44335154 -1.1690558 4.4071107
-0.51034248 -1.0483621 4.4118242
-0.29338807 -1.4511358 4.2547731
-0.32611072 -1.4552943 4.2428122
-0.45224017 -1.1288766 4.4195929
-0.59321505 -0.88093489 4.3572578
-0.27496427 -1.4518265 4.2836642
-0.45839396 -1.1229647 4.4347825
-0.39857125 -1.0404973 3.3864353
-0.35345277 -1.1450735 4.4841132
-0.29000947 -1.4260358 4.1889892
-0.26714373 -1.4456698 4.2126265
-0.27962434 -1.4582266 4.2089858
-0.43315527 -1.4456993 4.1333327
-0.34583822 -1.1395231 4.5118184
-0.34571058 -1.1309144 4.5132556
-0.54178166 -0.63684118 4.4719143
-0.28674895 -1.4449941 4.1836309
-0.39712551 -1.4651018 4.1567831
-0.34256551 -1.0686864 4.5467329
-0.73672646 -1.5317721 3.5950174
-0.35501021 -1.0715277 4.5404501
-0.42096397 -1.0471114 3.3545001
-0.56468326 -0.60202366 4.4255877
-0.8007949 -1.4430462 3.4789805
-0.71676111 -1.3436654 3.7645323
-0.90316588 -0.74066997 3.4358261
-0.20418088 -0.39420822 2.7587302
0.11490971 -0.20069018 2.6053138
0.34388465 -0.11689 2.3846846
-0.60192513 -1.2484231 4.1288319
-1.0508533 -0.39799723 3.5781057
0.51721615 -0.22070964 2.5663724
-0.71230137 -1.2446973 3.8520031
0.7097277 -0.12268756 2.5982835
0.70348537 -0.57195514 2.4832137
0.54892009 -0.18516754 2.5074856
0.65008175 -0.43035871 2.3688166
0.50919402 -0.41002151 2.5666018
0.56390095 -0.4110924 2.5427377
0.54255909 -0.14323233 2.5526855
-0.74927342 -1.1607374 3.6525204
-0.32452402 -0.49023175 3.1745269
-0.71820974 -0.99642193 4.0184836
0.47884402 -0.27112579 2.5648682
-0.50780612 -1.0801541 4.3774443
-0.89141977 -0.61012638 3.3654556
-0.39526489 -1.3506901 4.3568563
-0.31601146 -1.463129 4.3176222
-0.37273592 -1.3298049 4.3720646
-0.31279022 -1.4754812 4.3490419
-0.37390909 -1.2966366 4.3807945
-0.43354979 -1.2487955 4.3689876
-0.45324424 -1.1806363 4.39147
-0.27179819 -1.4812367 4.3849421
-0.33086449 -1.395195 4.1307216
-0.53776884 -1.0070032 4.4217725
-0.37637925 -1.1777653 4.440063
-0.38886085 -1.1631052 4.4439344
-0.32425252 -1.4559501 4.2665486
-0.46355137 -1.1083587 4.4244347
-0.29801428 -1.4224045 4.1379595
-0.18885243 -1.4103957 4.1385174
-0.54956526 -1.2569654 4.2696261
-0.81973767 -0.88747281 3.9684281
-0.76836222 -1.2873377 3.6357574
-0.6739946 -0.53984004 3.2237499
-0.86038792 -0.72995216 3.3623078
-1.0034198 -0.38770562 3.5835092
-0.51546967 -0.49722472 3.199784
-0.92354172 -0.61450368 3.448889
-0.018324455 -0.97157747 3.0934134
-0.099244006 -0.94059229 3.115063
0.40133661 -0.71344316 2.8941805
-0.12003084 -0.92919546 3.0632017
-0.081724845 -0.90990669 3.0432346
-0.63231111 -1.1512766 3.5175402
-0.81542116 -0.68787235 3.3436871
-0.64829725 -0.51124984 3.21789
-0.25250089 -0.97993392 4.6903806
-0.21749559 -0.97628343 4.7140398
-0.91068786 -0.70848036 3.4105799
-0.45311657 -0.48733988 3.2313998
-0.30057499 -1.1291177 3.1385028
-0.28328559 -0.66169083 4.847024
-0.21909915 -0.62478137 4.8923311
-0.11711832 -0.77496892 4.874238
-0.089136198 -0.89000326 4.8886547
-0.76839566 -1.159184 3.6612377
-0.083718993 -0.968898 3.1409626
-0.78703511 -1.3398914 3.6318915
-0.0066766827 -1.1292115 2.9474511
-0.093834206 -0.28393069 2.687973
-0.71237361 -1.101084 3.9510214
-0.46420142 -1.2222699 4.3572903
-0.48028976 -1.3093188 4.2953138
-1.0494922 -0.82045555 3.8248439
-0.80580926 -1.0109963 3.9155858
-0.42100093 -1.3396775 4.3316331
-0.34583479 -1.444944 4.2974024
-0.54101604 -1.0984025 4.3574033
-0.36252093 -1.3998836 4.3505435
-0.46229646 -1.2697098 4.3458958
-0.34411469 -1.4345584 4.346365
-0.71386445 -1.2379739 3.8535542
-0.62992543 -1.7126477 3.8337796
-0.41247341 -1.3334323 4.3610058
-0.72633952 -0.72887796 4.1909504
-0.43408775 -1.309064 4.3459187
-0.79273945 -1.2968992 3.6050849
-0.42806724 -1.378347 4.1328921
-0.58742255 -1.2069113 4.0294814
-0.40295044 -1.0456476 4.5075254
-0.60595721 -1.0750721 4.0760231
-0.24091685 -1.4169469 4.1668205
-0.4606542 -1.0213554 4.4689727
-0.47671801 -1.3722694 4.2983055
-0.50892538 -1.3929653 4.1474361
-0.65564239 -0.81312007 3.7530913
-0.52126473 -1.061337 4.408412
-0.25580043 -1.428704 4.1452098
-0.47142646 -1.0796843 4.4755106
-0.35302782 -1.1254679 4.5207491
-0.33692202 -1.0685799 4.5500426
-0.78966826 -0.76374358 3.4173634
-0.076021515 -1.0275741 3.0625923
-0.075171068 -0.90525812 3.1078458
-0.59878004 -1.2096506 4.1489992
-0.01689294 -0.89097863 4.8241897
-0.2233936 -0.53436977 3.1688223
-0.12193988 -0.34728003 2.8782246
-1.0076444 -0.62065488 3.5376344
-0.71433246 -1.5040703 3.5627294
0.26792926 -0.72720897 5.0876222
0.42541572 -0.17373024 2.8487537
-0.11915481 -0.4814859 2.9137845
0.63076699 -0.55982351 2.6805375
0.33108246 -0.55555767 2.631072
0.42468101 -0.6686998 2.6937981
0.62534767 -0.5405581 2.5981715
-0.4387323 -1.369136 4.2964716
-0.43956685 -1.3290478 4.3232012
-0.62278968 -1.1069866 4.1826653
-0.4689233 -1.0972667 4.4233313
-1.1763097 -0.74167353 3.7184174
-0.71918052 -1.1723821 3.9065099
-0.56400669 -0.38825178 3.0863461
-0.40542421 -1.1719279 4.4330502
-0.88801998 -0.73666674 3.4447584
-0.86413515 -0.68490058 3.4869504
-0.34758008 -1.1340833 4.5141268
-0.40503561 -1.2569219 4.4046259
-0.50633049 -1.0438908 4.4484105
-0.36243942 -1.3985405 4.350275
-0.17806216 -0.26654086 2.8221507
-0.70982283 -1.2472055 3.8455684
0.71031171 -0.60318059 3.3146417
0.79963923 -0.62011665 3.3823261
0.73208833 -0.78603709 3.6819954
1.2578 0.046037372 3.488034
-0.41533282 -0.42272618 3.1098073
-0.61231923 -1.3450085 4.1204891
-0.43804529 -1.4670385 4.1941767
-0.5871768 -0.93014681 3.4565539
-0.79579163 -1.2730823 3.5476055
-0.13156438 -0.47647783 3.1411846
3.218832 1.28511 0.91032064
3.153285 1.2362412 0.79330319
3.2624114 1.2793809 0.8930546
3.1556861 0.67125368 0.70998788
3.2137916 0.92435515 0.71659714
3.1119249 0.86554289 0.41762981
3.1646323 0.77765286 0.4430663
3.1884894 1.3427634 0.80166906
-0.21411714 -0.41374591 3.0545347
3.1300597 0.98369837 0.51206613
3.391669 0.70243275 0.55052984
3.1663501 1.271293 0.74972534
-0.10990477 -1.0538708 3.0444765
2.8295658 0.99091959 1.0872705
3.5955672 0.65213948 0.40595463
-0.7231288 -1.1747242 3.9075432
3.1979148 0.76797891 0.51069939
3.0909145 0.66965473 0.6399194
3.0922427 0.83220977 0.33616748
-0.76889753 -1.4798781 3.6183629
3.0809801 1.4041322 0.46617913
-0.84730834 -0.7362119 3.4661539
3.2884626 0.78225821 0.56723529
3.2125916 1.5622483 0.48922223
3.0341663 1.4315406 0.59194446
3.310112 0.79569286 0.51421434
3.1672053 0.77499068 0.45841321
3.1196055 1.3641075 0.60221642
2.9557374 0.92174566 0.40446064
3.0675762 1.4977896 0.52654338
4.0224423 0.77333182 0.3193419
2.9336669 1.2448711 0.72339487
3.0856984 1.4166472 0.45089394
2.9550898 0.75291663 0.78547078
-0.59256721 -1.2902576 4.1214356
3.4679523 0.67188293 0.50463253
3.226661 0.85602355 0.64612639
3.8533263 0.85197943 0.14596318
3.1542475 0.99048364 0.48679778
3.5016158 1.3754369 -0.011847378
-0.46459475 -0.43372822 3.1104271
-0.36891592 -1.4255514 4.138051
-0.34593475 -1.1210387 4.5240726
3.1032095 0.81344634 0.28740555
-0.72339201 -0.72901344 4.1981812
3.1947944 0.64219099 0.56091917
0.36853233 -0.12868266 2.4010608
-0.70581585 -1.2586839 3.6542096
3.1156604 0.72150791 0.36668468
2.9572458 1.4495192 0.3682631
3.0669084 0.94001448 0.16728066
2.9318397 1.5285285 0.44351122
5.5821185 -1.1068144 5.3389187
3.0795913 1.4090577 0.47521862
3.1187685 0.69189006 0.49181768
-0.79075062 -1.4896259 3.5791197
3.0968978 0.89287049 0.15589029
3.5445807 1.1006302 0.10500939
-0.47181827 -1.1443416 4.3985071
-0.70142412 -1.475475 3.6277423
0.58609319 -0.58808446 3.303339
0.88984364 -0.11235172 2.4756882
