# .PCD v0.7 - Point Cloud Data file format
VERSION 0.7
FIELDS x y z
SIZE 4 4 4
TYPE F F F
COUNT 1 1 1
WIDTH 335
HEIGHT 1
VIEWPOINT 0 0 0 1 0 0 0
POINTS 335
DATA ascii
0.51615912 -0.47390059 2.4528956
-0.64242303 -1.4140493 3.7576795
0.0098164836 -1.2631959 2.9777498
0.3136358 -0.10052545 2.267616
-0.24197108 -0.25231072 2.6745207
-0.73411095 -1.3142824 3.5310514
-0.5504263 -0.69858938 3.4948926
-0.13884445 0.35979488 2.9223912
-0.3733598 -0.46763921 3.0975201
0.48380673 -0.22059545 2.512002
0.056771696 -0.40888584 2.9331098
0.52039421 -0.51829875 2.3800471
-0.4629274 -0.64303726 3.3553751
0.5328303 -0.48889253 2.5474706
-0.53430474 -0.97888577 3.3784559
0.43332708 -0.0013700929 2.286757
0.50057429 -0.40876183 2.4880657
0.50523263 -0.23916194 2.5988533
0.13249855 -0.54592502 2.9078135
-0.23486926 -0.25579983 2.6812251
0.52233291 -0.57098764 2.5193043
-0.55310225 -0.70229536 3.4928141
0.25836936 -0.063362889 2.2561355
-0.80395454 -0.80030471 3.3954036
-0.032586332 0.2211782 2.6380811
0.28331903 -0.058240611 2.3366454
0.12843984 -0.54777038 2.8471534
-0.43681893 -0.49314815 3.1259522
-1.1255261 -0.79949778 3.7279334
-1.0302912 -0.69411576 3.5508993
-0.53813809 -0.44031978 3.0600011
-0.71769482 -1.2578503 3.5974357
-0.060747955 -1.2050116 2.9022074
0.022135921 -0.34114471 2.9219089
-0.33966318 -0.28036946 2.7701185
-1.1234405 -0.78729928 3.7301748
0.069390722 -0.42930835 2.9534988
-0.10654174 0.4620713 2.7727435
0.5103485 -0.30346361 2.5641208
-0.74031043 -1.3160121 3.5397308
-0.4995667 -1.4690349 3.8475542
-0.87586695 -0.74526244 3.4194765
-0.18694811 -0.27991906 2.6754827
-0.10226616 -0.3461068 2.8281708
-0.51567346 -0.8724618 4.2381248
-0.80188292 -0.79665011 3.3618431
-0.73683608 -1.3158789 3.5431848
-0.7614255 -1.4514592 3.4537807
-0.82000035 -0.73358917 3.4881246
-0.29689056 0.19455065 2.6435039
-0.16182742 -0.31359252 2.7331586
-0.79361814 -0.74502933 3.4466228
-0.074044563 -1.0505555 2.9906089
-0.52535212 -1.191565 4.1661115
0.014717005 -0.50603765 2.9646304
-0.50193053 -1.3621505 3.9183228
-0.64921182 -1.1590519 3.9176853
-0.55139023 -0.69835669 3.4862466
-0.071514681 -1.1736774 2.9251833
-0.52756292 -1.1943774 4.1663437
-0.22652768 -0.27866477 2.7065222
-0.05442531 -1.0529727 3.0150685
-0.51322252 -1.1276042 4.0690322
-0.55762428 -1.7544931 3.8019414
0.010856853 -1.2643123 2.9761105
-0.6475687 -1.0242761 4.0029807
-0.6475687 -1.0242761 4.0029807
-0.8999005 -0.84899861 3.857512
0.053413745 -0.41926137 2.9275136
-1.1289881 -0.78918946 3.7308447
-0.48473328 -0.71908063 4.4711742
-0.55748993 -0.71024305 3.5108662
-0.1789225 -0.30536619 2.7168407
-0.72704512 -1.2679558 3.6125798
-0.54456276 -0.96738362 3.9261773
-0.71918577 -1.2663178 3.6164894
0.48343655 -0.47372991 2.4632676
-0.74022228 -1.3247141 3.5592668
-0.058509082 -1.0534059 3.0096226
-0.47375828 -0.41698116 3.0759463
-0.7382006 -1.5091096 3.5431838
-0.39218557 -0.54524887 3.1327703
-0.71307784 -1.2548909 3.595417
-0.68993443 -1.55343 3.5940609
-0.64129692 -1.2680671 3.8365679
-0.86247396 -0.9149698 3.8777611
-0.74177361 -1.5090362 3.5441525
-0.86920774 -0.70352632 3.4439044
-0.77172697 -1.3854964 3.5183194
-0.6499809 -1.0250593 4.0140395
-0.84768283 -0.72283161 3.4664533
-0.49965459 -1.3593208 3.9201539
-0.50114554 -1.4657571 3.8452194
-0.74547857 -1.5029062 3.5161526
-0.3631621 -1.1526009 4.3938699
-0.38649088 -1.3778033 4.255713
-0.34682348 -1.4136193 4.2580872
-0.38502425 -1.4235986 4.1337872
-0.38636038 -1.428943 4.1333647
-0.63067925 -1.5075512 3.5314109
-0.69824636 -1.5556852 3.595516
0.44923583 -0.2174558 2.4580638
-0.57178813 -1.3572487 3.7096519
-0.84532583 -0.76913631 3.4383559
-0.17830639 -1.5037634 4.2387571
-0.65038598 -0.91796452 4.085803
-0.89508003 -0.64559489 3.4412658
-0.79855543 -0.91802865 3.8722374
-0.25021979 -0.26842576 2.6715193
-0.59024656 -1.3467737 3.7039714
-0.55725861 -1.3750311 3.8598967
-0.72971904 -1.5337517 3.5133827
-0.51875216 -1.3896945 4.1279812
-0.38468072 -1.3637426 4.2598429
-0.34846452 -1.3473798 4.3035526
-0.27400786 -1.4048579 4.3072715
-0.44464251 -1.1498872 4.3284011
-0.24630615 -1.435761 4.0880895
-0.51632661 -1.3895887 4.12923
-0.50629634 -1.3837981 4.131505
-0.42750299 -0.48301303 3.1295946
-0.24892081 -0.46206012 3.0893304
-0.49936116 -1.3833332 4.0801549
0.25760743 -0.11625275 2.2755003
-0.50165963 -0.7278434 4.3449049
-0.46797669 -1.3873757 4.1713109
-0.52384412 -1.1907355 4.1653147
-0.56824344 -0.71984315 3.5198452
-0.69533992 -1.5546354 3.5953462
-0.48645428 -0.85436177 4.3825283
-0.64235663 -1.0221535 4.0225115
-0.65474945 -0.98482066 4.0170383
-0.62061024 -0.9502914 3.8902006
-0.50353485 -1.1155545 4.0824203
-0.67388409 -1.5003636 3.6624787
-0.072636254 -0.31703773 2.6997213
-0.74576902 -1.5037045 3.5165551
-0.7418794 -1.51176 3.4698455
-0.73064965 -1.5344794 3.5128009
-0.055183802 -1.1718869 2.9192638
-0.74659413 -1.3033075 3.4882574
-0.65907848 -1.572053 3.6105592
-0.49855697 -0.96937078 4.1793933
-0.24720688 -1.4975039 4.2004743
-0.35063413 -1.214801 4.3705854
-0.41912988 -1.0952713 4.3804827
-0.27007037 -1.3459364 4.3543682
-0.44819391 -1.2118645 4.3370786
-0.2379563 -1.4970251 4.196444
-0.35946038 -1.1749303 4.3840613
-0.50737649 -0.92852867 4.3326635
-0.88021475 -0.7629506 3.4191761
-0.51278281 -0.93465686 4.3285031
-0.18475595 -1.4932474 4.2345538
-0.87737262 -0.7513715 3.4067726
-0.36488271 -1.1693097 4.3996353
-0.23333089 -1.4998014 4.1857195
-0.38118696 -1.0709518 4.4291759
-0.17719701 -1.4644614 4.0960999
-0.30169016 -1.1198068 4.409708
-0.37074089 -1.4236842 4.1305161
-0.25382972 -1.5009558 4.141933
-0.35084301 -1.4877813 4.092967
-0.24805105 -1.1764282 4.4718742
-0.5095377 -0.72000092 4.4157243
-0.31331471 -1.5068939 4.1142006
-0.65532368 -1.3857033 3.7412164
0.23321359 -0.11807702 2.4872475
-0.52263379 -1.2932093 4.1001186
0.5890376 -0.5524435 2.5305777
0.49528369 -0.22803678 2.4941287
0.68769294 -0.12733394 2.5170407
0.52323812 -0.19125102 2.4341173
0.49020556 -0.41744125 2.4922464
0.51865989 -0.14999522 2.4801505
-0.56552678 -1.7570714 3.8063107
-0.24473152 -1.4878662 4.2581463
-0.51728272 -1.6199054 3.9203362
-0.13515782 -0.60212332 3.0510473
-0.12479274 -0.49993038 3.1080077
-0.31766111 -0.60177958 3.1025357
-0.10093685 -0.29592618 2.7243211
-0.24262105 0.033114474 2.7077425
-0.64853072 -1.0417478 3.9995182
-0.41794756 -1.1265836 4.345593
-0.86238515 -0.65011626 3.3618956
-0.30251136 -1.3949908 4.3154063
-0.34027818 -1.3535881 4.308548
-0.40514022 -1.1766959 4.3472071
-0.27952537 -1.373938 4.3296704
-0.34165871 -1.2938869 4.3309274
-0.17441817 -1.5392129 4.315032
-0.17571992 -1.5238734 4.335115
-0.28186762 -1.2228434 4.3997993
-0.21602342 -1.4623716 4.090693
-0.3133586 -1.2043101 4.4081111
-0.64444602 -1.5659468 3.605139
-0.29747158 -1.1506042 4.442667
-0.71460652 -1.3286005 3.6161432
-0.96596861 -0.43228763 3.5885746
-0.88992351 -0.65605903 3.4468567
-0.14783281 -1.0262034 4.6457858
-0.11167172 -1.022287 4.6675916
-0.87769109 -0.74932742 3.4066598
-0.5499329 -1.3303704 4.109344
0.024504988 -0.93615109 4.8362546
0.033759005 -0.93032813 4.834785
-0.37160918 -0.2366164 4.0716147
-0.062423222 -0.99297512 3.0898595
-0.732647 -1.3813956 3.6125741
-0.37329793 -1.2677137 4.321238
-0.7238043 -1.5267313 3.5554862
-0.39133653 -1.3542247 4.2590461
-0.74127758 -1.0564375 3.9012516
-0.32972747 -1.3840781 4.2917414
-0.25488716 -1.4876812 4.2521424
-0.45300668 -1.1560427 4.3222175
-0.36132565 -1.3120942 4.311398
-0.25070894 -1.4778854 4.3010783
-0.64929605 -1.2811062 3.8313665
-0.55922621 -1.7540797 3.8007793
-0.65154141 -0.77655852 4.1757455
-0.74044037 -1.3381673 3.586689
-0.44316739 -1.105135 4.3607059
-0.30682358 -1.0920297 4.4703488
-0.15755391 -1.4563577 4.1165385
-0.34938687 -1.1337531 4.4263649
-0.36687607 -1.0681878 4.4352574
-0.078850389 -1.4384735 4.1339045
-0.56047511 -0.91197884 3.455003
-0.20855761 -1.4704108 4.0681677
-0.67085713 -0.46286193 3.2357972
-0.47176912 -1.0502608 4.3825264
-0.32883197 -1.3862467 4.289928
-0.80266154 -0.82182264 3.3899064
-0.46946311 -1.1892151 4.3048534
-0.52792978 -0.97303772 3.4102154
-0.29670823 -1.2556007 4.4087577
-0.43001777 -1.1083766 4.3774838
-0.24265838 -1.5016856 4.1914907
-0.22440527 -1.4518512 4.0907903
-0.17338987 -1.4680808 4.0955968
-0.37638217 -1.1267602 4.4415774
-0.29752123 -1.1219647 4.4849224
-0.28307343 -1.1124866 4.4882808
-0.23047861 -1.5073092 4.2674556
-0.23826817 -1.1144274 4.5089731
-0.75564414 -0.80271405 3.4062386
-0.8429563 -0.8435567 3.4155195
-0.058028027 -1.0505298 3.0104103
-0.13110451 -1.0009253 4.6586246
-0.36325601 -0.24842796 4.0786333
-0.12423469 -0.36880049 2.8378944
-0.66122776 -1.5434991 3.5374377
-0.31100598 -1.4071059 4.2929077
-0.71245974 -1.4825773 3.6321864
0.41801715 -0.18609586 2.7816083
-0.11748091 -0.50338042 2.8714523
-0.27825025 -1.3711921 4.3322048
-0.5088681 -1.6044008 3.9387872
0.31806588 -0.56662762 2.5641651
-0.67364508 -1.43759 3.6808848
-0.50699621 -0.96771783 4.1837664
-0.44145975 -1.0951093 4.3617759
-0.68723661 -1.310468 3.6420245
-0.4462325 -1.0664159 4.3760562
-0.37306103 -1.3550842 4.2731009
-1.1259102 -0.79066336 3.7277508
-0.33585203 -1.1729598 4.4196429
0.075138927 -0.90270847 4.7548137
-0.23569854 -1.455004 4.1291227
-0.41323462 -1.0911962 4.4168596
-0.50542116 -1.1223886 4.0688343
-0.18451647 -0.2882778 2.7859812
-0.53159577 -1.1309336 4.1855354
-0.64554578 -1.2901704 3.8230536
0.43108782 -0.42451748 2.7760305
-0.57718331 -1.2001581 3.4853592
-0.22933942 0.18621103 2.5996244
-0.74693191 -1.3136821 3.5297787
3.0324922 1.3703817 0.65063131
3.0808358 1.3418201 0.71671581
3.0165303 0.72959256 0.51182014
3.1873488 1.2385942 0.63240379
3.039572 0.85437423 0.21375744
3.020052 1.3291789 0.55897671
2.8408954 1.2044123 0.68300623
3.0567632 1.432718 0.58035314
3.0465338 0.82948297 0.31187862
3.1538458 1.3429596 0.59495515
2.9175878 1.4641786 0.28219351
3.0477901 1.6240929 0.30030426
2.9779301 1.0549849 0.31588992
2.8771563 1.489246 0.41063249
2.7749739 1.2593166 0.64485097
2.9726193 0.94050431 0.18947583
3.7927027 0.96600002 -0.0029922221
2.9460943 0.86706907 0.10062639
2.9982238 1.051538 0.29332602
2.9393218 0.87622136 0.094582535
-0.64820939 -0.77673733 4.1828065
3.0480461 0.70303982 0.36050168
0.33656254 -0.13634725 2.3382304
2.7881043 1.5087928 0.19163243
2.8946948 1.003688 -0.021727325
3.1113696 1.6403142 0.20719832
2.7655473 1.5864303 0.26918119
5.7143989 -1.0671835 4.9805112
2.9145029 1.0466871 0.11947661
3.030381 0.633789 0.33704892
2.8532712 0.98154593 0.012605439
3.1223593 1.3155494 -0.2219785
4.1290498 2.4258153 -0.65432817
2.7708092 1.3344485 -0.15192308
2.2952418 0.92268455 0.29354337
2.7150898 1.3186963 -0.036702238
-0.66852582 -1.4985228 3.6603138
2.8220122 1.5850722 0.097274937
2.5773122 0.90219784 -0.0079748249
2.7792761 0.93622631 -0.15471809
2.7518666 1.7100736 -0.085693166
2.7861683 1.168084 -0.1806007
2.7382958 1.780543 -0.03290109
4.6149235 3.0815196 -1.5493146
2.8178537 1.2091012 -0.23197404
2.8856344 1.503024 0.20507312
2.8246613 1.0682044 -0.21862008
2.9247551 0.9571802 -0.03533195
2.7750127 1.3232241 -0.16390532
2.7368903 1.2345774 -0.27450868
2.7901769 1.1677485 -0.17752202
2.6352661 1.4755017 -0.25940108
2.8278677 0.98989254 -0.0061880392
-0.33292904 -1.1682758 4.4167981
-0.16187736 -1.5375847 4.3301268
