# .PCD v0.7 - Point Cloud Data file format
VERSION 0.7
FIELDS x y z
SIZE 4 4 4
TYPE F F F
COUNT 1 1 1
WIDTH 492
HEIGHT 1
VIEWPOINT 0 0 0 1 0 0 0
POINTS 492
DATA ascii
-0.2423733 -0.19016598 2.6715989
-0.54165816 -1.386631 3.7288144
-0.6513139 -1.2902296 3.5088081
-0.5157907 -0.66195792 3.4766576
0.2395612 0.12592426 2.1601517
-0.076883443 -0.32441622 2.9237335
-0.51828128 -0.66581887 3.4746315
0.23517038 -0.58914936 2.8957093
0.1829797 0.052995704 2.214618
-0.76556975 -0.78073788 3.3870897
0.16445202 -0.10065281 2.4835541
0.21133162 0.058620676 2.2939596
-0.35138595 0.065935642 2.6696267
-0.77305442 -0.73787791 3.311578
0.10752071 -0.30339155 2.8613617
-0.655967 -1.4627073 3.5032017
-1.0699127 -0.80968684 3.7342532
-0.72595888 -0.71054775 4.0454321
-0.22041078 -0.21466748 2.7607224
0.00037880454 -0.25291875 2.8849137
-0.38991016 -1.3498837 4.0538268
-0.58683109 -0.65441811 4.2329869
-1.0686326 -0.79740566 3.7366428
0.1045697 -0.67092097 2.9626031
-0.13997434 -0.79406238 2.8763673
-0.39094949 -1.4322376 3.8107641
-0.22430611 -0.2034281 2.6498437
-0.12768476 -0.2656309 2.797019
-0.43244767 -0.84522253 4.2137475
-0.43244767 -0.84522253 4.2137475
-0.41760612 -0.9239834 4.2829652
-0.65684706 -0.46164516 3.0535765
-0.76539505 -0.77637321 3.3535504
-0.81041241 -0.70334882 3.4607854
-0.62284011 -1.4691459 3.4258015
-0.37057459 0.26191497 2.63273
-0.756908 -0.72571284 3.4388857
-0.039459258 -0.96860588 2.9435561
-0.42187467 -1.1628932 4.1357722
-0.5454703 -1.5349736 3.5302644
-0.63051116 -1.0604852 3.6857467
-0.39782634 -1.32704 3.8837311
-0.55963492 -1.1355951 3.8941302
-0.51718485 -0.66165268 3.4680727
-0.682064 -1.384972 3.4616451
-0.6725924 -0.94504374 3.9433999
-0.42385688 -1.1658671 4.1360507
-0.57488012 -0.7531569 4.1553626
-0.26232749 -0.2056731 2.6827207
-0.07433109 -0.95299166 2.9693809
-0.4192189 -1.096576 4.0395565
-0.42979038 -1.7204412 3.7621057
-0.43763876 -0.68000501 4.3508286
-0.8053149 -0.70188183 3.4624293
0.26510072 0.030306067 2.2934134
-0.56389064 -1.0025324 3.9819868
-0.79231954 -0.82875943 3.7452607
-1.0739859 -0.79971814 3.7375329
-0.64572239 -1.47946 3.4345672
-0.4253068 -0.94422734 4.2761664
-0.63428909 -0.87945205 3.810209
-0.63470638 -1.0688663 3.6827655
-0.63329256 -1.2927878 3.5686805
-0.4235017 -0.83501446 4.228477
-0.40824094 -1.0787121 4.0572462
-0.40560439 0.57338446 2.7405298
-0.63065106 -0.87445486 3.8111897
-0.64378488 -1.2448828 3.5908444
-0.68286031 -1.4091735 3.4532747
-0.63588953 -1.2427254 3.5944145
-0.75773174 -0.7820909 3.3896956
0.65717083 -0.42923 2.3153486
-0.3670592 -0.42134368 3.0680387
-0.31011415 -0.5092091 3.2201505
-0.65223956 -1.3181137 3.5634706
-0.10627934 -0.17378637 2.5915344
-0.19602616 -0.30442533 2.6927507
-0.6403423 -1.4849904 3.5171423
-0.081110746 -0.25101948 2.7114413
-0.58652383 -1.5264108 3.56479
-0.51430041 -1.3059014 3.6732476
-0.54756939 -1.242326 3.8105247
-0.6438601 -1.4852017 3.5182784
-0.56465077 -1.0040014 3.9903409
-0.65665853 -1.4643714 3.5037565
-0.56570226 -1.0036808 3.9931281
-0.81145239 -0.70797563 3.4616737
-0.39568114 -1.3240783 3.8855112
-0.39287794 -1.4290488 3.808573
-0.64935499 -1.4788966 3.4906135
-0.57091314 -0.88425332 4.0594769
-0.63454998 -1.2448921 3.5955858
-0.57995534 -0.95959002 3.9987485
-0.2530756 -1.3801347 4.0960851
-0.2522358 -1.1156989 4.3564372
-0.12899028 -1.4102966 4.0801935
-0.2664333 -1.3831542 4.0921898
-0.2673879 -1.3885759 4.0917211
-0.54598141 -1.3866836 3.7312489
-0.59456563 -1.5293082 3.566586
-0.66589671 -1.4232116 3.5411427
-0.5705958 -0.8981427 4.0670009
-0.28837362 -0.19665439 2.6490812
-0.40243277 -1.3592968 4.0933418
-0.55229717 -1.5430814 3.5791528
-0.57583654 -1.5431515 3.5401134
-0.25341693 -1.1669317 4.3236437
-0.36262521 -1.3374758 3.6628413
-0.17164871 -1.4491482 4.1922092
-0.25557607 -1.3739938 4.0194707
-0.20372616 -1.3399644 4.2492466
-0.76271033 -0.51141965 3.3137872
-0.2433801 -1.2666403 4.2693934
-0.22749199 -1.3072748 4.2615771
-0.33675331 -1.1180105 4.2949228
-0.40753073 -0.98316634 4.2536511
-0.089848407 -1.3620912 4.0365014
-0.20606889 -1.372161 4.0694652
-0.27838862 -1.3924215 4.0921555
-0.22740003 -1.3736517 4.214273
-0.26171735 -1.2997468 4.2367134
-0.39029363 -1.3525417 4.0963984
-0.39190429 -1.3725466 4.0815892
-0.85003382 -0.76578283 3.4210358
-0.54780889 -1.1737546 3.4718778
-0.25257066 -0.39665392 3.0623372
-0.14421864 -0.32458031 2.9321525
-0.38808924 -1.3514924 4.0469785
-0.08589913 -0.24269609 2.7017205
-0.38589507 -1.3506924 4.0447998
0.18707971 -0.00012063653 2.2329144
-0.35259438 -1.3587446 4.1408572
-0.48130193 -1.1251051 3.9689827
-0.10102516 -1.4433619 4.1004677
-0.43590435 -1.4875585 3.909025
-0.3499403 -1.353901 4.1342859
-0.43820664 -1.4883227 3.909143
-0.42047256 -1.1619394 4.134923
-0.1488201 -1.4433254 4.2063441
-0.63075626 -1.2370123 3.5877922
-0.5917567 -1.5280404 3.5663021
-0.39772677 -0.82741386 4.3569646
-0.6179533 -1.538453 3.5074458
-0.53694201 -0.99175334 3.977618
-0.55791527 -1.0003535 4.0012913
-0.57329416 -0.96397007 3.9971669
-0.5768404 -0.96884733 3.9986806
-0.57008898 -0.90154922 4.0649939
-0.54796487 -0.92484277 3.869601
-0.40981835 -1.0840598 4.0527196
-0.78107846 -0.71515435 3.4779983
-0.57117766 -1.4734488 3.6334496
-0.10651951 -0.23225915 2.6679435
-0.57287335 -0.75104582 4.1541214
-0.34887603 -1.3543983 4.1362367
-0.41584069 -1.3813746 4.0784678
-0.41579807 -0.93419367 4.2784476
-0.44603741 -1.497206 3.9092412
-0.66882086 -0.86034578 3.9176064
-0.28895715 -1.393242 4.0796447
-0.26229879 -0.34899843 2.9574745
-0.27387118 -0.24518466 2.7229211
-0.41136065 -1.7255099 3.7705386
-0.67039436 -0.86250824 3.9225175
-0.20145479 -0.28161725 2.7726521
-0.67979306 -0.61222601 3.2919292
-0.66662526 -1.2795041 3.4668782
-0.55361158 -1.5429389 3.5794427
-0.41103622 -0.93956923 4.1523147
-1.0705403 -0.50905365 3.5984931
-0.11411741 -1.4364299 4.1590333
-0.23626262 -1.1763812 4.3313279
-0.3128843 -1.0625175 4.3468566
-0.2450321 -1.1808605 4.3263612
-0.11147265 -1.4463722 4.1463838
-0.34616232 -1.0128257 4.3551145
-0.34047195 -0.99870318 4.3550544
-0.1871483 -1.3221352 4.2969279
-0.41546544 -0.90209228 4.3066311
-0.23351671 -1.1472459 4.3570647
-0.84315753 -0.74962276 3.4151623
-0.42059618 -0.90853828 4.3026042
-0.056924675 -1.4392515 4.1820307
-0.2524316 -1.1325845 4.3619347
-0.058204964 -1.4076513 4.0439906
-0.083816752 -1.4125639 4.0902724
-0.56448334 -1.4650432 3.6231201
-0.056996435 -1.4306045 4.1108222
-0.2523573 -1.3821115 4.0882525
-0.083893843 -1.4115145 4.0880299
-0.13204831 -1.1321236 4.4284663
-0.57781434 -1.5438524 3.5404832
-0.40500259 -0.62355971 4.381361
-0.63424581 -1.0678209 3.686636
-0.44005212 -1.4933318 3.909035
-0.089903973 -0.32489169 2.9226615
-0.66105998 -1.4584835 3.4345403
0.070631973 -0.21385092 2.7062821
-0.55740553 -1.3590609 3.7135546
0.063853174 -0.26430014 2.7263463
0.56187838 -0.41442046 2.4632499
-0.99158645 -0.44370446 3.5940969
-0.47038507 -1.5511825 3.5730672
-0.55283225 -1.2623495 3.8035083
0.62794173 0.017065763 2.4537842
0.45947582 -0.017602731 2.424391
-0.43725991 -1.7236791 3.7667866
-0.19394098 -1.3552907 4.0840836
-0.083729357 -1.4105278 4.0886841
-0.14403515 -1.0944834 4.4620104
-0.39389023 -1.585217 3.8812029
-0.30508137 -0.45850512 3.1172016
-0.13070337 -0.52711225 3.0159225
-0.12521861 -0.42540336 3.0744081
-0.41833019 -1.4715967 3.913698
-0.31003454 -0.54134423 3.0758927
-0.13509038 -0.21375017 2.6942663
-0.20621337 -0.26164785 2.720542
-0.15198065 -0.30032602 2.8438361
-1.059471 -0.7972762 3.6964872
-0.30143979 0.10395187 2.691052
-0.18591316 -0.27133539 2.669136
-0.56371897 -1.0199661 3.9782174
0.40896875 -0.15108071 2.4384422
-0.25352737 -1.2553473 4.2750244
-0.31106415 -1.0930605 4.3113184
-0.22450572 -1.3107134 4.261692
-0.17761405 -1.3514928 4.2702932
-0.2186362 -1.312934 4.2660561
-0.093111195 -1.4551374 4.2195001
-0.15559332 -1.3290162 4.2838922
-0.085604727 -1.4679327 4.2499971
-0.25500357 -1.2314143 4.2822185
-0.1110168 -1.4740013 4.2274461
-0.10453627 -1.4335861 4.1650577
-0.15881126 -1.2963282 4.2938352
-0.4350588 -0.9480356 4.2550793
-0.34402329 -1.0637201 4.3300881
-0.22336388 -1.2538905 4.2896886
-0.15190507 -1.2701521 4.3108101
-0.34640437 -0.99730849 4.3547878
-0.040804226 -1.4708018 4.2814131
-0.13300198 -1.3841449 4.037466
-0.080399789 -1.4116453 4.0884871
-0.1790345 -1.1663798 4.362721
-0.39143586 -1.4301195 3.8089998
-0.25989953 -1.1182573 4.352663
-0.17982201 -1.2022423 4.3520842
-0.062570922 -1.4432276 4.185739
-0.53975099 -1.5356606 3.5734692
0.0098481439 -1.3864148 4.0305414
-0.7843067 -0.81099075 3.3979187
-0.39944404 -0.82407612 4.3580585
-0.38708663 -1.3510221 4.0442319
-1.0692089 -0.50779098 3.5987263
-0.34775358 -1.2701749 4.2021613
-0.32538456 -1.3691341 4.1491699
-0.94495291 -0.4292348 3.5950983
-0.25378183 -1.3340576 4.2173414
-0.85942781 -0.64424372 3.4454417
-0.34125495 -0.40668353 3.056313
-0.51612896 -1.1535275 3.4661632
-0.7565521 -0.70467073 3.3275194
-0.6734792 -1.4297997 3.4711351
-0.38873386 -1.4244454 3.8076046
-0.031378325 -0.96871138 4.6055055
-0.42608851 -0.44671384 3.1899483
-0.84225816 -0.73563963 3.4028223
0.014002933 -0.7932741 4.7278676
0.001873394 -0.81399471 4.7215767
0.099737965 -0.7659235 4.776938
0.13916644 -0.87822539 4.7845159
-0.64094532 -1.3584068 3.5887871
-0.6510669 -1.4209681 3.5685875
-0.55553675 -1.1219056 3.9069378
-0.25728858 -1.2300081 4.2820268
-0.27183282 -1.3165698 4.2189956
-0.92741281 -0.87036115 3.8247445
-0.27121451 -1.3138875 4.219986
-0.33415115 -1.0654967 4.3303118
-0.6624102 -1.4593505 3.5033674
-0.65974778 -1.0399232 3.88412
-0.20667391 -1.3422581 4.2481556
-0.12634614 -1.4392655 4.2029924
-0.2159366 -1.2669491 4.2840505
-0.14144453 -1.3972911 4.2590547
-0.25234935 -1.276768 4.2688689
-0.46326789 -0.8276 4.1676555
-0.13758364 -1.3955251 4.260087
-0.1205528 -1.4300092 4.2518687
-0.55481994 -1.2558398 3.8054388
-0.43147269 -1.7201298 3.7610285
-0.19577339 -1.3360012 4.2767301
-0.5779072 -0.75875795 4.1597648
-0.22089951 -1.3133495 4.2647223
-0.25435087 -1.2327777 4.2833891
-0.65316421 -1.3154562 3.564182
-0.33704859 -1.0738243 4.3280292
-0.46144864 -1.397629 3.7410328
-0.41429719 -1.2177477 3.9688561
-0.48153746 -1.457427 3.6574309
-0.56775028 -0.74291015 4.1693182
-0.55869997 -0.75926393 4.184288
-0.84147191 -0.71940452 3.3414636
-0.038255319 -1.3984406 4.0636487
-0.23834738 -1.0964197 4.3886294
0.039648969 -1.3749906 4.077673
-0.028074691 -1.4207375 4.0948753
-0.090347171 -1.415468 4.0174417
-0.40188178 -0.83576941 4.3550725
-0.35969242 -1.1586893 4.2717657
-0.11651113 -1.3430681 4.2704492
-0.10739482 -1.4177932 4.0422983
-0.47709355 -0.9324761 3.3854399
-0.088244304 -1.4433553 4.1297731
-0.02937622 -1.3990984 4.0231042
-0.054168373 -1.4109654 4.0432363
-0.39454216 -1.7353554 3.7733741
-0.13901511 -1.1275645 4.4368353
-0.60221082 -1.5251611 3.5192971
-0.09983848 -1.45726 4.2167425
-0.1251176 -1.0701969 4.4663234
-0.27630967 -1.3958033 4.0534616
-0.63940895 -0.68809366 3.3065813
-1.0626234 -0.47037065 3.5947685
-0.75711411 -0.75622928 3.3486719
0.20422947 -0.87092018 4.7131772
0.16597308 -0.88637388 4.68257
-0.39264709 -0.39448407 2.864337
-0.14741407 -0.29007107 2.8072956
-0.93312126 -0.66034847 3.5418613
-0.561396 -1.5133997 3.5070996
-0.18626048 -1.363831 4.2479749
-0.42642045 -1.5345246 3.5616119
-0.40006253 -1.3566605 4.0918512
-0.12908061 -0.42430967 2.8377485
-0.15440488 -1.3262254 4.2864199
0.18982179 -0.074858002 2.4573915
0.59700131 -0.4274216 2.5283632
-1.0878766 -0.53480315 3.6155131
-0.21976982 -1.3734392 4.0675516
0.40385768 -0.55508846 2.5583308
0.58148664 -0.40665615 2.4476614
-0.24840622 -1.2627105 4.282279
-1.0108048 -0.56787193 3.6667252
-0.36285129 0.16431069 2.5687399
-0.10894914 -0.16777235 2.5387175
-0.63075364 -0.89147127 3.813077
-0.46365115 -1.3379014 3.8171294
-0.77569681 -0.64027238 3.4292693
-0.41117752 -1.3757041 3.8389182
-0.3658123 -0.50861996 3.2401006
-0.55859351 -1.0186241 3.9734805
-0.41935426 -0.93862867 4.1571107
-0.2538045 -1.3060571 4.2311697
-0.25964472 -1.2998421 4.2376003
-0.21378298 -1.3747305 4.0695515
-0.30321625 -1.412569 4.0508509
-0.22687675 -1.3331705 4.2419877
-0.17731874 -1.354847 4.2565598
-0.40683892 -1.0700731 4.0742979
-0.80695873 -0.70603293 3.4635258
-0.3863048 -1.3602829 3.6737211
-0.20456731 -1.3576152 4.0027647
-0.59955812 -1.2847749 3.6175203
-0.20936863 -1.3590931 4.0019383
-0.24525993 -1.1887977 4.3183227
-0.98534113 -0.44833988 3.5937381
-0.98322898 -0.43612242 3.5917242
-0.086514771 -1.3965912 4.0725183
-0.039668199 -1.3778678 4.0814819
-0.34223565 -1.0357089 4.3442931
-0.43610132 -0.9541297 4.2564468
-0.21922204 -1.2081773 4.322041
0.020869514 -1.3423564 3.9950609
-0.26632109 -1.1076819 4.3524833
-0.25288785 -1.3162909 4.2321591
-0.048427951 -1.3900813 4.0623765
-0.22015375 -1.4230502 3.9772115
-0.52037191 -0.75048566 4.2286463
-0.23168248 -1.0664096 4.4034576
-0.074930124 -1.408951 4.001286
-0.50729609 -0.80322999 3.416795
-0.48122644 -0.91821837 3.3977461
-0.12946332 -1.1024622 4.4559593
-0.56044775 -0.37677872 3.0568979
0.18319434 -0.8397072 4.7014933
-0.74430227 0.0064113401 3.6668115
-0.74424052 -0.032264102 3.6473162
-0.73995328 0.0013437618 3.6341851
-0.7413184 -0.0079498542 3.6371264
-0.29958224 -0.33507892 3.0178373
-0.24461068 -0.28706872 2.7507534
-0.2175041 -0.26044393 2.7227519
-0.2967658 -0.22078848 2.6968279
-0.23215272 -0.3846648 2.8726327
0.045519948 1.1555768 2.6786346
-0.45961225 0.4993993 2.8144529
-0.45141086 0.47522077 2.8113635
-0.17427863 -1.1903145 4.3616896
-0.19934881 -1.1650279 4.3684912
-0.81379426 -0.76247865 3.4335783
-0.41875756 -1.3866771 4.0690813
-0.41126701 -0.69355798 3.4854138
-0.44885904 0.46603462 2.795774
-0.0022726159 0.13108157 2.2090552
0.2016762 0.075497083 2.2049823
0.1475812 0.023704369 2.2346535
0.17247386 0.0040956265 2.2410979
0.17470466 0.26556844 2.0057011
0.49150732 -0.04031419 2.4541357
0.44117391 -0.11280065 2.4354982
0.28043139 -0.18795225 2.4795411
0.18953307 0.2746056 2.0069773
0.034997251 0.060371932 2.204756
-0.56191194 -1.0134761 3.9731627
-0.14631431 -1.3977568 4.2556701
-0.1415107 -1.3959397 4.2588263
-0.42196941 -0.83413839 4.2264724
-0.41184476 -1.0907865 4.0390997
-0.40673867 -1.6338023 3.8340979
-0.10859561 -0.18625376 2.5839183
-0.21593794 -0.21344057 2.7599139
-0.20789756 -0.24611081 2.7185836
-0.62040794 -1.4679749 3.6140213
-0.44922638 -1.1078615 4.1439114
-0.5508123 -1.2644553 3.7967761
-0.57417035 -1.470471 3.6262288
-0.41736728 -1.3598098 4.0570717
-0.2990033 0.25322986 2.5006101
-0.11854046 -0.42622536 3.06529
2.7867179 1.2113013 0.063451812
-0.56409568 -1.1950979 3.8622327
2.7161891 1.0743659 0.29638118
2.6719537 1.2439955 -0.00019952272
-0.61191261 -1.4957447 3.5686955
2.6232498 1.8089818 0.14994606
-0.77130872 -0.75882411 3.4508128
2.741945 1.977896 0.16520101
2.5873067 1.8287749 0.28062117
2.6790044 1.7692457 0.27999416
2.6252468 1.8222609 0.13470778
2.7124648 1.2925562 0.044092294
2.6872122 1.218843 -0.044897649
2.7347329 1.4034344 0.14887339
-0.16725229 -1.4180477 4.0474992
-0.13204114 -1.1225876 4.4395862
2.6794956 1.2275614 -0.050429963
-0.5742346 -0.75880492 4.166657
0.27023986 -0.0152819 2.2914572
2.708123 1.1351789 0.023993487
2.4865983 1.8452636 0.066473395
2.5917649 1.4387645 -0.16443886
2.6199772 1.3532569 -0.16189951
2.3041503 1.1342877 0.28000641
2.7995837 2.0004127 0.069571584
2.6223612 1.8135283 0.15924352
2.6433215 1.3952379 -0.020929769
2.7266464 1.1028124 0.14709683
2.5820143 1.327491 -0.12612437
2.8139498 1.6846654 -0.36618406
-0.6367147 -1.5064635 3.5315125
3.7134466 2.8745306 -0.8224408
2.301018 1.7222425 -0.44704545
0.064131401 -1.3991157 4.114193
-0.65173435 -1.4468055 3.4919038
2.0440836 1.2221597 0.17936444
2.5377469 2.1516836 -0.29882374
1.7719257 2.0904586 0.017639896
2.4240611 1.5422776 -0.46785498
2.5101638 1.9254528 -0.027792182
2.0140707 1.5325667 -0.33422172
2.6002836 1.5108691 -0.14311002
0.32913238 0.05948713 2.2328475
3.0851579 2.7175753 -0.89012384
2.4221971 2.0478966 -0.20468895
2.4496996 1.5854075 -0.54161066
2.5180583 1.5558305 -0.36408576
2.4169035 2.0445423 -0.19436771
2.3988876 1.8591583 -0.763264
2.5359402 1.4156381 -0.35394171
0.18305852 0.26180005 2.0017719
2.6527157 1.309374 -0.17784193
-0.31475428 0.33364716 2.5865641
3.0725803 1.5586429 -0.26588446
2.4334714 1.5758666 -0.40225589
1.8842707 1.3586066 -0.4002369
-0.91532129 -0.83216196 3.8158512
2.9708521 2.1997118 -0.81044519
2.0123594 1.4691435 -0.55280203
2.6872001 1.2602221 -0.022290424
2.5738497 1.3918937 -0.11707612
