# .PCD v0.7 - Point Cloud Data file format
VERSION 0.7
FIELDS x y z
SIZE 4 4 4
TYPE F F F
COUNT 1 1 1
WIDTH 365
HEIGHT 1
VIEWPOINT 0 0 0 1 0 0 0
POINTS 365
DATA ascii
-0.28516501 -0.49694389 3.086184
0.42278993 -0.29283467 2.11939
-0.3337 -1.3677222 3.6029644
0.061430443 -0.28481054 2.6808383
0.1267986 0.15637669 1.9225202
0.11309764 0.1116697 2.0549157
0.15528888 0.01061394 2.048135
0.11055779 -0.075774573 2.1761496
0.082807519 0.081556767 1.985396
0.13903223 -0.42144176 2.738162
-0.28614169 -0.84595513 3.0806072
-0.3707833 -0.42991728 2.963779
0.41803214 -0.18376938 2.0298696
-0.47563046 -1.4534065 3.3973699
-0.88461548 -0.80644 3.6829913
-0.31443116 -0.43038508 2.9445336
-0.17037573 -1.4040939 3.662219
-0.1836824 -0.81326669 4.0615315
-0.50755298 -1.3862979 3.3858688
-0.64322829 -0.71565831 3.3879659
-0.63533926 -0.78126186 3.2922585
-0.21985425 -0.22663864 2.5494266
-0.16766582 -1.1312422 3.9857583
-0.17209741 -1.2981714 3.7344375
0.029682361 -1.0596774 2.6811042
-0.16942358 -1.1343094 3.9863529
-0.54371375 0.54300308 2.6210871
0.10537923 0.076719284 2.0887272
-0.33908826 -0.98105311 3.8531249
-0.1621698 -0.91070002 4.1231194
-0.44041505 -0.86469668 3.6924815
-0.13927194 -0.050795741 2.2573082
-0.17323197 -0.8023625 4.074688
-0.38626796 -0.65945995 3.3599112
-0.43694541 -0.85950243 3.6928692
-0.095356867 -0.26729226 2.6503956
-0.46240574 -1.2337912 3.4802637
-0.16795079 -1.4033886 3.661798
-0.16517195 -0.665142 4.167141
0.14106418 0.020926677 2.0272322
-0.6292485 -0.78097034 3.2938831
-0.13546143 -0.15344334 2.4028893
-0.45695901 -1.4746139 3.4090583
-0.088874571 -0.22723334 2.5184779
-0.59161937 -0.90064925 3.7729998
-0.33527958 -1.2225524 3.6833303
-0.58612692 -0.89993376 3.7743614
-0.46025562 -1.4749874 3.4107025
-0.3385348 -0.9824177 3.8615129
-0.47614303 -1.4550945 3.3980358
-0.17277277 -1.4010464 3.6603072
-0.34099078 -0.86199957 3.9297187
-0.35479659 -0.93871975 3.8716779
0.05129844 -1.3296311 4.0389075
0.0079559404 -1.2983288 4.0426326
0.051444914 -1.3288714 4.0364861
-0.67317736 -0.75423348 3.3432789
-0.3388297 -0.87572473 3.9372406
-0.30565426 -0.18470421 2.4868538
-0.30173126 -1.2945634 3.541656
-0.2357306 -1.3180511 3.6875722
-0.1441689 -1.3270704 3.9427238
0.060056865 -1.1620497 4.1397686
0.12064619 -1.2648818 4.1047955
0.073936164 -1.2948691 4.0674543
0.12008013 -1.3426293 4.0603499
0.033797573 -1.2233593 4.0925541
0.050520208 -1.2632459 4.0828533
-0.062644362 -1.0793374 4.1302071
0.047226068 -1.3303208 4.0366616
0.11883093 -1.3386475 3.8497863
-0.14157851 -1.3266574 3.9434807
-0.13209207 -1.3196467 3.9438958
-0.71669364 -0.76892102 3.338335
-0.13722104 -1.3193218 3.8946834
-0.25285643 -1.0994014 3.8292112
-0.19740096 -1.4599905 3.7665346
-0.0866028 -1.3182795 3.9754324
-0.19961676 -1.4608705 3.7669978
-0.1664566 -1.1302317 3.9847028
-0.3482146 -0.94277626 3.8691719
-0.33844113 -0.87913406 3.9352119
-0.68876505 -0.72317719 3.31797
-0.32735282 -1.3679554 3.6168981
-0.46050856 -0.84774077 3.8087251
0.050007656 -1.1021479 4.1767187
0.031254105 -1.0884024 4.1841888
-0.33133668 -1.529049 3.4481752
0.0045402683 -1.3421897 3.9157786
0.16058818 -1.0891368 4.2305541
0.15989605 -1.0806011 4.2322431
0.16275908 -1.0186594 4.2662721
-0.076503478 -0.24586114 2.5355074
-0.35296932 -1.3412641 3.589941
-0.24037699 -0.32572496 2.5260572
0.39046651 0.028887812 2.1527607
-0.20696163 -1.6982399 3.6282151
-0.21763918 -1.4984947 3.462059
-0.46138617 -0.85448182 3.8046975
-0.078403749 -0.50032449 2.8294556
-0.18021174 -1.4430659 3.76842
-0.15276271 -1.3283876 3.8698721
0.074108511 -1.2492464 4.1001916
0.053670827 -1.2665232 4.0825582
0.10343292 -1.3046759 4.084527
0.060227465 -1.2683637 4.0860295
0.18499786 -1.4046648 4.0227828
0.12597473 -1.2808657 4.0945253
0.022311691 -1.1885684 4.1066294
-0.45615599 -1.0651646 3.5716918
0.055862781 -1.2092515 4.10956
0.1760039 -1.3627985 3.8909354
-0.17122842 -1.4020338 3.6605265
0.087368287 -1.1166306 4.181747
-0.34662494 -1.5190629 3.4504044
-0.72890085 -0.64763325 3.3627465
-0.16906816 -1.3962522 3.6586964
-0.57461894 -0.90937114 3.8061337
-0.33545396 -1.1010891 3.7787592
0.01995129 -1.1872854 4.1067638
0.00097429228 -1.2755371 4.047359
0.0015866612 -1.2728101 4.048223
-0.48215008 -1.4503844 3.3984528
0.14889896 -1.3908117 4.01121
0.063071154 -1.2220027 4.1030087
0.13996257 -1.3487296 4.0684991
0.020771002 -1.1926944 4.1070094
-0.2218301 -0.79804152 4.0203271
0.16129594 -1.3804426 4.0586119
0.16033433 -1.3790448 4.0584469
-0.34246361 -1.2365066 3.6794922
-0.20228021 -1.6944947 3.6216347
-0.33990717 -0.73535305 4.02879
0.05781851 -1.268918 4.0850477
0.023201175 -1.1898763 4.1077037
-0.068618946 -1.0099506 4.1659536
-0.94840062 -0.45060685 3.5163248
0.13290678 -1.2602859 4.1217914
-0.18173102 -1.18845 3.8200572
-0.28099793 -1.4365182 3.5241494
-0.16855921 -0.9339481 3.9855976
-1.0060357 -0.29091635 3.4517186
-0.13098192 -0.78752995 4.2010803
0.029260505 -1.3204644 3.8230765
0.20175703 -1.3806934 3.9185889
0.088066123 -1.1142273 4.1783028
0.093467996 -1.2613269 4.0990849
0.1206258 -1.3635437 3.8896701
0.047144979 -1.0511119 4.2081842
0.023751432 -0.9882406 4.2217374
0.074482583 -1.3412768 4.0476589
0.15070136 -1.4033251 3.9490449
0.10757 -1.0327505 4.2558255
0.16897909 -1.0177672 4.2680969
0.28838894 -0.89131641 4.3966036
0.092279099 -1.3178203 4.0638399
-0.14218763 -1.3243407 3.940876
-0.16990718 -1.6301593 3.6732883
-0.14488658 -1.5393203 3.7505252
-0.37614214 -1.3951964 3.5331776
-0.43862286 -0.039556507 2.2433815
-0.85848701 -0.18375644 3.0326736
-0.40486038 -0.077924669 2.3234906
-0.31781894 -1.5447388 3.408416
-0.25017169 -0.22972596 2.4306588
-0.1327745 -0.81628484 4.1798778
-0.18925284 -1.3482114 3.692529
0.050592311 -1.2623448 4.1497865
0.014846432 -1.25789 4.0638108
-0.21496698 -1.7247676 3.6047006
0.10905626 -1.3242272 4.0684791
0.10188949 -1.3082424 4.0709314
-0.67111343 -0.70631635 3.3734639
-0.18974642 -1.3343253 3.525336
-0.45806354 -1.0675387 3.5747139
-0.19120234 -1.095011 3.9809315
-0.25045031 -1.0977509 3.8278918
-0.89030075 -0.81035411 3.6864996
-0.018397393 -1.1013731 4.138854
-0.19981837 -1.6613107 3.621964
-0.4447203 -1.2183793 3.4798954
0.21339902 -1.3270867 3.8776944
-0.14591445 -1.5377686 3.749475
0.16846927 -1.3613019 3.8038592
-0.88707495 -0.81009394 3.6810184
0.10124101 -1.0735387 4.2167773
-0.3433353 -1.1724923 3.7345946
0.11509957 -1.2719855 4.1034427
-0.46193871 -1.2429348 3.433567
0.06301716 -1.3206662 4.0512128
-0.5049147 -0.37170523 2.9319487
-0.16416524 -1.1101805 3.9898455
-0.61828524 -0.027193695 3.5398326
-0.13710524 -1.3261909 3.8892007
-0.09211088 -1.1901178 4.0532684
0.091398656 -1.2358748 4.1131544
-0.3056463 -0.20842768 2.5355346
-0.14490546 -1.5554422 3.7397985
0.15118568 -1.3909559 3.9684534
-0.9935618 -0.084108904 3.4825711
-0.85371679 -0.3765375 3.0168781
-0.89567065 -0.24595268 3.0782771
-0.36133462 -0.11468115 3.8138711
-0.0046511139 -1.2769847 4.0473113
-0.38153455 0.094597042 2.1153316
-0.39637014 0.20311724 2.4301057
-0.35869536 0.31038582 2.3256269
-0.14307535 -1.3368728 3.929467
-0.34406441 -0.62827933 4.1038818
0.28732529 -0.94646198 4.3603048
-0.41568556 -1.5185975 3.3868127
0.053447329 -1.329047 4.0406413
0.11150382 -1.1420165 4.172955
-0.91744375 -0.52300382 3.5400507
-0.14053741 -1.4058888 3.8457694
-0.025097463 -1.0024295 4.1917458
-0.1478212 -0.95489889 4.098165
0.1502309 -1.4051067 3.9196384
0.088287868 -1.129385 4.1676431
-0.16238618 -1.3556637 3.921386
-0.21911417 -1.4974284 3.460819
0.15875065 -1.0840049 4.2334247
-0.70282727 -0.81456441 3.2826583
-0.50155455 -0.53508431 3.1357777
-0.13827388 -0.74232638 4.2167702
-0.4164995 -0.85139632 3.3162618
-0.84285808 -0.35709497 2.9999406
-0.65696299 0.043291766 3.5650473
-0.063183285 -0.97009045 4.1905689
0.032600638 0.28985193 1.7780454
-0.28665805 -1.3292608 3.6455197
0.077942267 -1.1825986 4.1391249
-0.022095289 -1.016938 4.2121711
-0.33981547 -1.1049923 3.7767763
0.13979129 -1.3473876 4.0682702
-0.17205955 -0.80144256 4.0724711
-0.10541958 -1.4276501 3.8172073
-0.1758029 -1.0603606 3.8880081
-0.99417639 -0.090805434 3.4877114
-0.17558013 -0.33127171 2.8538377
-0.13819893 -0.16614082 2.395812
-0.036780946 -1.0227449 4.1767945
-0.17806539 -1.0603337 3.8970201
-0.33804393 -0.9437601 3.7615647
-0.9153465 -0.66694838 3.5994661
-0.16812257 -1.4047545 3.662364
0.051458795 -1.1643292 4.1374049
-0.40253234 -0.017902562 2.3071623
-0.17745355 -1.0718256 4.0073528
0.048267059 -1.1136409 4.1666408
-0.83979738 -0.36194867 3.0011821
0.13843277 0.10783258 2.0647697
-0.35560462 0.26876721 2.4222927
-0.30370492 -1.2447795 3.5332251
-0.49224585 -1.2818667 3.401901
0.18556154 0.08005701 1.9589732
2.4049053 1.3393407 -0.40912956
2.0855882 2.0166125 -0.36704671
2.0952215 1.939085 -0.44786751
0.1610238 -1.0708904 4.2431526
2.1534927 1.3449306 -0.63353223
-0.33526599 -0.73509371 4.0350661
2.0716202 1.4654809 -0.73615646
2.1131108 1.5109915 -0.60055715
1.6949813 1.8126283 -0.97453767
1.5598788 1.3106233 -0.31255162
1.8549792 1.7553905 -0.70910901
1.8216865 2.2446976 -0.70886528
1.2208334 2.1608517 -0.44032967
0.22949351 0.095892414 1.9818242
1.9417317 1.3837117 -0.84570956
1.9147058 1.6145309 -0.86733121
1.663803 2.2213521 -0.74005723
1.4733472 2.1661749 -0.56712204
1.0729352 1.9824779 -0.40514916
0.9800545 1.4507966 -0.47878867
1.1650192 1.3021489 -0.86112112
1.8352937 1.6820705 -1.0887294
0.99073249 1.4913708 -0.66236496
0.77643847 1.5682539 -0.64114386
3.1903734 3.7390194 -2.5220766
0.60725379 2.142765 -0.63132906
0.76194739 2.1353812 -0.53337455
1.7083366 2.1224072 -0.74174327
0.75643873 1.6377702 -0.93731451
1.8292536 2.144712 -0.74465907
1.4091216 1.6237189 -0.81004727
1.7379268 1.9490417 -1.3029667
2.0452602 1.9603052 -0.50097311
1.9570999 1.5201808 -0.9142769
1.4827209 2.1439495 -0.5494433
1.1579154 1.3958764 -0.7733658
0.97061485 1.6718663 -0.56243658
1.2238368 1.7131367 -0.67612839
0.69508415 1.210655 -0.64252639
-0.36928284 0.3423939 2.4240603
2.4924152 1.6921693 -0.90759099
0.65667593 2.0323925 -0.42026919
1.1930898 2.1120539 -0.38545153
0.957901 1.9327725 -0.38363329
1.7034004 1.9107153 -0.91541266
1.05483 1.4309455 -0.69924629
0.93283159 1.4341855 -0.69441772
0.95663834 1.9079981 -0.6841206
2.0751529 1.4948831 -0.76827472
1.8879144 1.7670829 -0.84538233
1.8402196 1.6740648 -0.94842345
1.3096892 1.428807 -0.86349022
0.61606276 1.5142626 0.035344921
1.9192477 1.6147096 -0.86509585
1.1677941 1.250311 -0.88158906
0.2414972 -1.3871957 3.9132726
0.88622916 0.88736027 -0.24108109
1.2661006 1.9910537 -0.51769412
1.783255 1.4872346 -1.1659557
1.1786175 1.4336416 -0.72282469
0.65273809 1.9218415 -0.89420956
0.46228689 1.8224092 -1.1347072
0.60762095 1.7379745 -0.97365403
0.76086998 1.6781602 -0.78354192
0.95905626 1.9474046 -0.40231216
0.81303155 1.4957347 -0.80402207
0.88604057 1.6799948 -0.64005351
4.1005201 -0.090071581 2.1372249
1.1584847 1.6838914 -0.66069752
0.50055552 -0.78664351 4.4099255
0.96985596 2.0980101 -0.46536618
1.1059817 1.7186075 -0.82262737
0.8276633 1.8734744 -0.99041802
0.80190045 1.837607 -0.94853562
0.91306853 1.8550937 -0.56207836
1.5265223 2.1488879 -0.7162208
1.2126889 1.8159105 -0.60018569
0.97185516 1.4512966 -0.60754699
1.2231327 1.7096186 -0.6659584
0.15801436 0.15538514 2.0054598
1.1774004 2.0828562 -0.34556875
1.2323382 1.5553027 -0.81345046
0.81954336 1.6084181 -0.6461193
1.0651499 1.9924115 -1.0036341
1.2361649 1.3666052 -0.65770322
6.2094941 0.67597926 1.3910092
8.324872 1.4863684 0.58720762
0.84950006 1.2216946 -0.45512599
0.55137259 2.1755371 -0.82601571
1.4079045 1.5432107 -1.0342731
0.065563105 -1.0833181 4.1948524
1.2283115 1.9524812 -0.4560287
0.79796731 1.3084239 -0.3960419
1.7942508 1.5559421 -1.0746647
0.84072727 1.3369731 -0.90587538
0.77047217 1.7087147 -0.92182571
0.8904475 1.9289579 -0.40778562
0.62643492 2.4380331 -1.6488693
0.50849098 2.4521987 -0.97956461
0.85927433 1.8254126 -1.1641626
1.2416273 1.9108078 -0.80315256
0.5994761 1.8265435 -1.1952934
0.84765196 1.8075708 -1.1602112
0.59325957 2.2529602 -0.92304868
0.059796013 -1.1651613 4.1391854
0.012278908 -1.1113462 4.1515303
-0.30209318 -1.4255564 3.5326462
2.163482 1.3784171 -0.60713553
2.0305653 1.5024381 -0.68537897
