# .PCD v0.7 - Point Cloud Data file format
VERSION 0.7
FIELDS x y z
SIZE 4 4 4
TYPE F F F
COUNT 1 1 1
WIDTH 1456
HEIGHT 1
VIEWPOINT 0 0 0 1 0 0 0
POINTS 1456
DATA ascii
0.55184072 0.28360713 2.0460169
0.55184072 0.28360713 2.0460169
-1.1447266 -0.79077625 2.2143018
-0.56502891 -0.15927108 2.4004455
-0.64362353 0.38261423 1.9157377
0.59675837 0.07697323 1.9026823
0.205621 0.26117006 2.1170187
0.62501079 0.7339018 2.2851408
-0.69598347 -0.001837672 2.1703134
0.46591589 0.11493811 1.8761767
-0.5545314 0.21954626 1.9734191
-0.5545314 0.21954626 1.9734191
-1.2319211 -0.63923979 2.5733035
0.035813738 -0.5045045 2.4445109
0.22983408 0.050313808 1.8903422
0.28249928 -0.454496 2.5614386
-0.89453894 0.67660284 2.1293194
-0.75235409 0.56945288 1.9097213
0.65044343 -0.06190775 2.1965039
0.64723295 -0.017616099 2.2875054
-0.88143355 -0.67566288 2.2691395
-0.68384022 -0.77164233 2.3130467
0.46638069 0.34895965 2.0383093
0.46638069 0.34895965 2.0383093
-1.2991008 -0.03326299 2.2199261
0.19200717 0.15331994 2.2957065
-0.8981266 0.67923796 2.078666
0.95622063 -0.056942977 2.2533226
0.81838602 -0.01152776 2.2183692
0.82405186 -0.59192818 2.3274627
-0.75442713 -0.12325734 2.1368506
-0.75442713 -0.12325734 2.1368506
0.52580684 -0.39875355 2.5841169
0.79982376 -0.11914328 2.2289848
0.30542478 -0.17484426 2.3780286
0.28347826 -0.16178781 2.3442678
0.28347826 -0.16178781 2.3442678
0.1697007 -0.11149187 2.2774906
0.046695337 -0.13703336 2.4073064
0.22171021 -0.2086647 2.5354481
0.68234307 -0.47753149 2.5042584
0.51259047 -0.33678371 2.6152775
-1.0082542 -0.76796103 2.1649303
-1.0070975 0.65173274 2.1303229
0.35858965 0.35212845 2.2656217
-0.13060829 0.35427189 3.0974464
0.019995753 -0.54332584 2.4168875
-1.3386317 -0.71231759 2.7481513
-1.2246174 -0.73129082 2.4983666
-0.7458806 -0.44472748 2.3354146
-0.60903692 0.34049514 1.9956915
0.44589913 0.57723671 2.3535471
-1.5223578 0.064186566 3.0245197
-1.5223578 0.064186566 3.0245197
0.35980526 0.12520272 1.8750131
0.96174282 -0.037196409 2.2954729
0.62402707 0.0045515038 2.2286255
0.38721195 0.3367056 2.025218
-0.55803984 0.20487116 1.9016695
-0.55803984 0.20487116 1.9016695
-0.48935893 -0.036333576 2.2166846
-0.64315027 -0.77388239 2.2935524
-0.035843588 0.079209663 2.6223242
-0.80140728 -0.63972646 2.1648023
0.57902515 0.028645251 1.8667524
0.57902515 0.028645251 1.8667524
1.2048008 -0.7043131 2.5169063
1.2048008 -0.7043131 2.5169063
0.9227047 -0.54652596 2.4002104
-0.7360056 -0.039508384 2.2417212
-0.75215232 -0.07913173 2.1788785
-0.67020988 0.39630967 1.9165024
-0.67020988 0.39630967 1.9165024
-0.02978099 -0.11002155 2.352824
0.19501078 -0.10452133 2.1876767
0.5275147 -0.39979064 2.6018677
-0.15493172 -0.12626146 2.37238
-1.160051 -0.66962844 2.3765073
-0.14594588 -0.8228693 2.4519207
-0.14594588 -0.8228693 2.4519207
1.0472411 -0.27019289 2.5517511
-0.11212058 -0.26868352 2.4383121
0.73994541 -0.098682664 2.4010029
0.76488781 -0.1673523 2.4520195
0.65926623 -0.51636481 2.5420098
0.16010121 -0.11075535 2.2712693
0.71811593 -0.22732964 2.5476925
0.15900606 -0.33879963 2.4888594
0.50167483 -0.31562623 2.6348534
0.16947334 0.010183932 2.103405
-0.83225542 -0.79333192 2.2227807
-0.87138712 -0.75490725 2.1893823
-1.023931 0.014595159 2.1519945
0.5641619 0.2933374 2.0653348
0.21486129 0.26242036 2.120903
1.020003 0.43421924 2.5879939
1.020003 0.43421924 2.5879939
0.78665012 0.11987775 2.1414328
0.78665012 0.11987775 2.1414328
0.69943058 -0.39481366 2.4715765
0.38433135 0.83665419 2.2052572
-1.2943097 -0.45183644 2.6231828
0.52631551 0.61518598 2.5310583
1.2091609 -0.087289684 2.459626
0.29260671 -0.33630088 2.6342492
-0.74872673 0.56675375 2.2126663
-0.74872673 0.56675375 2.2126663
-0.16539362 0.062275983 2.4172099
-0.22067158 -0.10002633 2.3111978
-0.68323725 -0.77492946 2.3148527
1.0060105 -0.035689656 2.353349
-0.63156658 0.3910408 1.9914099
-0.16161396 -0.81690055 2.3395717
0.1002091 -0.03970132 2.2000639
0.80068451 -0.5683226 2.3562021
-0.91959196 -0.15564999 2.2027445
-0.86980867 -0.050506163 2.1389685
-1.1331224 -0.31176776 2.5255671
-1.158177 -0.38873041 2.6297281
0.52271503 -0.45064926 2.5627265
0.1388907 -0.2823987 2.5686414
0.21436177 -0.28481802 2.5609057
0.25818276 -0.096062489 2.2217309
0.66516173 -0.5554328 2.4684906
0.78116709 -0.14136949 2.3890598
0.64291066 -0.14529216 2.2523537
0.84747183 -0.38687423 2.3983524
-0.73663503 -0.16141349 2.4332979
0.58556318 -0.12124096 2.3073754
0.14360495 -0.50042671 2.5710146
-0.98556709 0.3843627 1.80323
0.66748637 0.68476504 2.2703202
0.590083 0.69176549 2.3269064
0.34318024 0.61344367 2.1664681
0.62445623 0.22861193 2.1876526
0.35477358 0.1241582 1.8558823
0.51074111 0.12267265 1.9596064
-0.16223849 0.60392898 2.465327
0.25265142 0.51014453 2.7124074
-1.1618844 -0.27934995 2.5041516
0.92561263 -0.55552608 2.3939199
0.6289869 0.56280655 2.5993829
0.76617455 -0.44344017 2.3454971
0.76617455 -0.44344017 2.3454971
0.84969217 -0.10460234 2.2168145
-0.74506474 -0.085007705 2.1746442
-0.77865338 -0.19334048 2.13099
0.26742542 -0.10302714 2.2212715
0.23732458 -0.1231522 2.3018281
0.74383068 -0.075527944 2.3677795
0.74032193 -0.16726562 2.3865423
0.49975291 0.38124973 2.2567458
0.30844161 0.030755505 1.9791162
-0.58513731 0.38160548 2.0539751
0.13957626 -0.1953882 2.4446549
0.23747538 -0.068977587 2.1981263
-1.0374806 0.065479025 1.8710314
-0.74494511 -0.44394767 2.3394806
1.1541886 0.71655226 2.5773048
0.68121922 0.691616 2.3164639
-0.30914456 -0.0068793586 2.2666583
0.48108822 0.19744547 1.9292002
0.48108822 0.19744547 1.9292002
0.47970057 0.12695283 1.9186423
1.2015077 -0.28890282 2.7267702
1.2015077 -0.28890282 2.7267702
-0.2380161 -0.82853526 2.468847
0.58570677 -0.11917909 2.3013885
0.67273325 -0.47374859 2.5045714
-0.40254793 -0.07755664 2.2687707
-0.66621667 0.24305251 1.7113234
-0.08975888 -0.29580489 2.4018314
-0.066130042 0.58146393 2.439513
-0.14198591 0.61802965 2.5608168
1.2054689 -0.12100995 2.5874326
0.80963731 -0.033057366 2.2242527
0.3152993 0.086257055 2.0756595
0.19594608 -0.34976315 2.441798
0.82020086 -0.1098161 2.2074091
0.4663462 -0.46212652 2.6164396
0.65312648 -0.53201598 2.5296288
-0.15903704 -0.083821498 2.3273609
-0.2015221 -0.089797795 2.4204221
0.2177908 0.2665028 2.0907922
-0.74403143 0.4628396 1.7968934
-0.443151 -0.1157757 2.2545691
0.96297711 0.15185663 2.4101219
0.44561559 0.55999374 2.3236876
0.83869195 0.24394803 2.6360681
0.38917279 0.11948229 1.9134495
-0.69436949 0.50674695 2.20328
0.89731246 -0.3568227 2.4429634
0.60120368 -0.00042684184 2.2394927
0.45621756 -0.029235251 2.1864922
-0.34264702 -0.068147562 2.2661846
-1.1710814 0.10123271 1.7542268
-1.1710814 0.10123271 1.7542268
1.0266674 -0.023950327 2.3743436
0.056424096 -0.31423441 2.471323
-0.78405797 -0.050866872 2.1923072
0.84783995 -0.63016838 2.4730058
0.33956453 0.016359683 2.049598
-0.27976832 -0.068896621 2.2890592
-0.73959732 -0.1621878 2.2924247
-0.78600883 -0.22932012 2.4332092
-0.98088241 0.38681293 1.8201911
-0.75775826 0.54377884 1.8366369
-0.75775826 0.54377884 1.8366369
-0.99659592 0.66038477 2.1285458
-1.1411955 0.49022821 1.9786394
-1.1411955 0.49022821 1.9786394
-1.1555818 0.45950159 1.9848731
-0.81079024 -0.17086561 2.2701764
-0.6409601 0.39198261 1.9177959
-0.65231764 0.36743304 1.8864357
-0.65169424 0.37046799 1.9030875
-0.56038344 0.16501124 1.8725977
0.85323256 -0.39918283 2.3898509
-0.95088744 -0.76752323 2.2048724
-1.2173109 -0.81149679 2.582346
-0.089471214 -0.29175264 2.3410909
0.30143708 -0.17461537 2.3781691
0.79606378 -0.30286187 2.4515707
-1.2386441 0.0064225625 2.5736241
0.37929991 0.016933944 1.9655617
0.78912181 -0.25322959 2.4664452
-1.342693 -0.49235711 2.9369423
-1.342693 -0.49235711 2.9369423
-1.1021086 -0.68442523 2.2442791
-1.3724481 -0.72055948 2.8780982
-1.1391432 0.22967167 1.9712936
-1.2205758 -0.74175668 2.5005946
-1.3337722 -0.8514086 2.6750555
-1.1043235 0.015481657 2.1253848
-0.097962163 -0.096406728 2.2976065
-0.64269686 -0.87860733 2.2840719
0.70796567 0.0031475544 2.1424029
0.70796567 0.0031475544 2.1424029
-0.41058487 -0.13455212 2.3898215
-0.10619669 -0.10818937 2.3402119
0.56717038 -0.31826875 1.9199566
0.56717038 -0.31826875 1.9199566
0.66322708 -0.54360473 2.4843903
0.035763849 -0.22197509 2.4591489
-1.132036 -0.35551974 2.5015247
-1.132036 -0.35551974 2.5015247
0.29317531 -0.17662454 2.3779981
-0.66774642 0.38943687 1.8952678
-1.1673086 -0.82052326 2.2464843
0.67078382 -0.43862697 2.5664945
0.0096413149 -0.4554418 2.5500629
0.0096413149 -0.4554418 2.5500629
0.69287169 -0.3557494 2.582166
0.52338517 -0.27295107 2.6619539
-1.3227156 -0.27608797 2.8191493
-1.3581232 -0.29958299 2.9834363
-1.5302365 0.067238927 3.0477414
-1.0870123 0.010183811 2.1523347
-0.12808704 0.373577 2.9412529
0.10798362 0.44912735 2.8428402
-0.92324966 -0.63674325 2.394382
-0.92324966 -0.63674325 2.394382
-0.82389724 0.69279081 2.0887847
-0.81169891 -0.16608244 2.201437
-1.0319523 -0.64621961 2.3231142
-0.69967628 -0.0081637064 2.1810462
-0.79085881 -0.17973033 2.2712405
-0.13200893 0.079612218 2.4948804
-1.1267108 -0.57467258 2.4143341
-0.3470535 0.0022028917 2.1546617
0.40760523 0.42123586 2.0789037
0.40859339 0.32418016 1.9575365
0.43902913 0.33085018 2.0149682
0.43902913 0.33085018 2.0149682
-0.35448363 -0.0022063321 2.1893163
-1.267282 0.0059035332 2.8414688
-1.1020931 -0.59447294 2.3526149
-0.92668366 -0.87613523 2.2537389
0.75685334 0.12425834 2.1172776
0.75685334 0.12425834 2.1172776
-0.52879244 0.730088 2.1734583
0.58744061 0.072105989 1.8765483
0.58744061 0.072105989 1.8765483
-0.64382577 -0.67431694 2.3680761
0.53660971 0.28335685 2.0385661
0.53660971 0.28335685 2.0385661
-0.69452715 -0.74727404 2.3253202
0.58757317 0.28358692 2.0955384
0.58757317 0.28358692 2.0955384
-0.64034992 -0.6394605 2.4727814
-0.73575902 0.55727726 1.9099205
0.47342691 0.26249227 2.0039454
0.24440347 -0.096930422 2.2175822
-0.98119205 0.093198366 1.5447894
-0.37088564 -0.10803964 2.3463969
-1.2671226 0.54128873 2.5380385
-1.2671226 0.54128873 2.5380385
0.13125055 -0.084814399 2.2185392
-1.2973425 -0.84264547 3.1450553
-1.2973425 -0.84264547 3.1450553
-0.80499387 -0.69790858 2.3586333
-1.1572342 0.19015627 1.8291531
-1.1476036 0.17730245 1.7925588
-1.1476036 0.17730245 1.7925588
-1.1539009 0.20929684 1.8693209
-0.80625796 0.37251329 1.6978382
-0.80625796 0.37251329 1.6978382
0.6924172 -0.045323394 2.0837824
-1.3300493 -0.72207397 2.6784081
-1.282981 0.54439676 2.5779815
0.49721622 0.37335309 2.1954191
-1.3629014 -0.82172203 3.1562908
-1.3653202 -0.51033545 3.1804795
-0.84491503 -0.72764915 3.4562356
-1.1531774 -0.82737488 2.8820813
-0.23435251 -0.88747394 2.4146857
-0.23572744 -0.75090677 2.5148273
-0.57442492 0.75425571 2.1970539
0.64302218 -0.098236203 2.4085302
0.75852257 -0.09073133 2.2141442
-1.0037347 0.40339842 1.8557544
-0.71777081 -0.32779163 2.4868941
-1.0166885 0.40318951 1.8356516
-1.0258455 0.41888955 1.8399839
-0.67888486 -0.84433371 2.3905299
0.41744953 0.38569826 2.2276113
0.41744953 0.38569826 2.2276113
-0.34915307 -0.11366309 2.3462508
-1.0732886 0.070660025 1.9843023
-1.0732886 0.070660025 1.9843023
-0.59044451 0.36366919 2.0300786
-0.61732703 0.34572425 1.9619287
-0.61732703 0.34572425 1.9619287
-0.61515415 0.34389371 1.9742811
-0.59462923 0.31390682 1.9492265
-0.59462923 0.31390682 1.9492265
0.4101516 0.14876242 1.8944951
0.57503945 0.027892062 1.861081
0.33169645 0.10942665 1.6840386
0.33169645 0.10942665 1.6840386
-0.80834699 -0.10148633 2.1154761
-0.79765803 -0.10620186 2.2031024
-1.1615257 0.012506311 2.3092101
-1.2422037 0.0057051089 2.5520067
-1.2867115 0.015798092 2.9963019
-1.2349461 -0.64056212 2.5642211
-1.1596897 -0.85898709 2.2915955
-1.1724724 0.12211771 1.7418888
-1.376471 0.6449461 2.4440901
-1.376471 0.6449461 2.4440901
-1.062685 -0.91629493 2.2513554
-1.2328527 -0.62067848 2.5596676
0.77084225 -0.0049854107 2.269361
0.77084225 -0.0049854107 2.269361
-1.3381867 -0.50567472 2.893626
-1.3381867 -0.50567472 2.893626
-1.2916235 0.52974451 2.5396945
-0.17838572 -0.8342942 2.4304326
-1.125356 0.6311478 2.3574884
-1.3564113 -0.69010639 2.8311355
0.38722509 -0.028944438 2.0859759
-1.339449 -0.45657223 2.9578128
-0.77795118 -0.00039576061 2.1910357
-1.5269694 0.1158703 2.9974196
0.034936734 -0.35326767 2.5261106
-0.30791625 -0.049860265 2.2576637
0.32466447 0.81345177 2.1354761
-0.72878832 -0.21172565 2.3536232
-0.35775313 -0.077371873 2.3005965
0.095374316 -0.0081324894 2.1747587
1.2267585 -0.85934722 2.4510357
1.2267585 -0.85934722 2.4510357
0.922454 -0.5977484 2.3349361
1.1453909 -0.68509769 2.4288998
1.0126095 -0.63390845 2.4657714
0.012190579 -0.25294742 2.5980566
0.90789437 -0.12921527 2.3880708
0.90789437 -0.12921527 2.3880708
1.5530767 -0.84869128 2.9557645
1.5530767 -0.84869128 2.9557645
0.10758076 -0.35228148 2.5603924
-1.3397541 -0.48588878 2.8639925
1.165908 -0.6811983 2.4674573
-1.3398062 -0.4897989 2.8717923
1.1783279 -0.68749309 2.477937
1.1783279 -0.68749309 2.477937
-1.3418241 -0.50226706 2.8983691
0.70715451 -0.31502482 2.5179355
0.62455004 0.57664406 2.5909121
0.62455004 0.57664406 2.5909121
0.086164795 -0.42429689 2.617595
1.4494286 -0.72718418 2.8552663
1.4494286 -0.72718418 2.8552663
-1.3195632 -0.43547896 2.8402557
-1.3195632 -0.43547896 2.8402557
0.59432966 0.56624937 2.527971
1.075999 0.65885544 2.4161558
0.39833739 0.48056626 2.1546531
1.151621 -0.63456881 2.470593
1.151621 -0.63456881 2.470593
1.0411975 0.60816777 2.547152
1.0411975 0.60816777 2.547152
1.0315143 -0.50467777 2.4015005
1.0916634 -0.55289334 2.464855
1.4941676 -0.65171403 2.9641976
1.4941676 -0.65171403 2.9641976
1.0258313 -0.58475375 2.3031056
1.0258313 -0.58475375 2.3031056
0.966501 -0.47111362 2.3353381
0.85203135 -0.12934157 2.275857
-1.5089377 0.27942768 3.1208806
0.95993143 -0.20106445 2.4798615
0.95993143 -0.20106445 2.4798615
0.11922405 -0.38916138 2.6085091
0.46090424 -0.39467475 2.5871058
1.0808837 -0.3921909 2.5135529
1.0808837 -0.3921909 2.5135529
0.66657168 -0.34161901 2.5904102
-0.68141365 -0.76724172 2.3135016
-0.69340646 -0.74172968 2.2986283
1.0930371 -0.36920357 2.5460436
0.28910694 0.52001804 2.7564468
0.28910694 0.52001804 2.7564468
0.3988812 -0.30115882 2.6162105
0.3988812 -0.30115882 2.6162105
0.23650798 0.45283201 2.5937197
0.23650798 0.45283201 2.5937197
0.10230879 0.44110429 2.8059397
0.10230879 0.44110429 2.8059397
-1.2502038 -0.46747559 2.6408393
-1.3362318 -0.8426258 2.6998222
-1.5604097 0.17113531 3.170125
0.16692008 -0.24952202 2.555284
-1.4298656 0.15826857 3.0230384
0.29965821 0.59588808 2.4901831
-1.1261307 0.60732162 2.2930338
0.71817786 -0.34491298 2.4941242
-1.2654672 -0.22055067 2.7479916
-1.3754288 0.15591449 3.0237329
1.0847566 -0.55074197 2.4544489
0.18780607 -0.27321911 2.5268242
0.59122813 -0.33445612 2.5870914
1.0936078 -0.54237014 2.4757366
0.73909664 -0.55310822 2.6146624
-0.30160302 -0.095696777 2.2993901
-1.2760127 0.50552845 2.4608927
-1.4939712 0.14946355 3.011981
-1.5333321 0.12605026 3.0287309
-1.1203775 0.016987585 2.0256498
-1.4846493 0.16622731 2.9595501
-0.68013597 -0.7671231 2.3131435
-1.5046009 0.27659628 3.1252518
0.58623892 0.067915596 1.8745067
-1.4840714 0.25803059 2.9964516
-1.4840714 0.25803059 2.9964516
0.51894569 -0.26994577 2.6453068
0.24281251 0.50833517 2.6098938
1.0046198 -0.41195932 2.4876385
1.0046198 -0.41195932 2.4876385
0.45302868 0.47363189 2.2317114
-0.84891957 -0.74873507 2.2275918
-1.472142 0.14589103 2.8922093
-0.036940627 -0.31213501 2.400347
0.2728869 -0.16042353 2.344991
0.7677058 -0.27073464 2.3841631
-1.1793473 0.40632665 2.8714352
-1.1831986 0.39080882 2.7631829
-0.016949844 0.60307878 2.497447
-0.016949844 0.60307878 2.497447
-0.88098532 -0.68346167 2.2875624
0.47153607 -0.34912464 2.6063313
-0.94884241 -0.6398977 2.2489734
0.2791003 -0.43900043 2.5888896
-0.6897279 0.33652464 1.7784184
-1.3310961 0.029954685 3.0172343
-1.2765975 0.28414685 2.886548
0.57161885 -0.28680825 2.6325729
-1.2836013 0.52399737 2.5985212
-0.59267819 -0.15245531 2.4057989
0.19299999 -0.1088451 2.2356272
0.30045748 -0.019005077 2.2090051
-1.245064 -0.49520782 2.6340969
-1.4240494 0.11191701 2.9854856
-1.4287544 0.17174825 3.1083074
-1.1773748 0.12469 1.9298463
0.79086274 -0.1987334 2.4510248
-0.15068989 -0.57676077 2.3026638
-0.021644602 0.59134793 2.4840958
-0.15222806 -0.54571909 2.2651904
-0.07616806 -0.3622306 2.3821051
-0.04741288 -0.42688653 2.4006255
-1.3449166 -0.28237608 3.0116372
0.6063149 0.70303625 2.3345089
-1.3304797 -0.88271332 3.1224728
0.035913557 -0.54306448 2.4307337
-1.3304454 -0.79978198 2.7999792
0.79394877 -0.5873298 2.4250681
0.89586997 -0.32188466 2.4613969
-0.83411556 -0.17266506 2.152885
0.62553298 -0.27226469 2.6080143
0.23597197 -0.29462397 2.4941781
0.58772314 -0.29070589 2.6469326
-0.42097512 -0.065929018 2.258913
-0.73610634 -0.94877857 2.4607682
0.20912477 0.27328122 2.1389084
-0.77462745 -0.75370616 2.552798
-0.7893666 -0.73298633 2.4829226
0.12096 -0.089503214 2.2171385
-1.1751854 0.11970755 1.9284531
-0.14824589 -0.23163199 2.4285216
0.51878601 -0.037115339 2.2236056
-0.68002838 -0.78023887 2.298033
0.66859943 -0.094141051 2.2920351
-1.137272 0.40824044 2.9123077
-0.80990082 -0.16342932 2.138772
-1.0180159 -0.25717896 2.5283954
0.50449628 -0.1376909 2.1739919
0.26441836 -0.43810156 2.5574892
0.81382507 -0.61005139 2.5575202
-0.91746193 -0.11419778 2.1524773
-0.44629344 -0.012149433 2.0705354
0.03336972 -0.042212762 2.1516461
0.37371647 0.35512391 2.2751334
-0.78520858 -0.67262578 2.4520972
0.32355481 0.8210637 2.1259193
0.1759862 -0.093404129 2.2238066
-0.67259747 -0.62721348 2.4494729
-0.21685228 -0.74506646 2.3466895
-0.19286415 -0.10630614 2.3583133
-0.77327305 0.41570777 1.7591898
-1.3332347 -0.69642806 2.7699561
-0.1586086 -0.80846637 2.3368931
-0.72900605 -0.8608979 2.4466839
-0.79892135 -0.15569225 2.1255519
-1.1190426 -0.35724506 2.7401283
-1.1215161 -0.48331216 2.4164503
0.18575536 -0.12485878 2.2121058
0.51630509 -0.38770691 2.6060486
0.47369021 -0.39311114 2.6039469
0.19299313 0.050873924 2.1203446
-1.0682067 -0.84039849 2.1348081
0.47084677 -0.28857937 2.6704466
-1.1188049 -0.79151654 2.193095
-0.24495825 -0.10174618 2.3557656
-1.1196681 -0.66224992 2.4159982
0.078330532 0.66089964 2.4048584
-1.1133851 -0.9321872 2.2945805
-0.67317349 -0.74700952 2.3202996
-1.5406721 0.09163665 3.0026293
0.076330267 -0.19438222 2.4329829
0.039207514 -0.2849471 2.5585363
-1.1157348 -0.65776592 2.4108169
-1.4451189 0.14896816 3.0272646
-1.3460377 -0.73497379 2.7989299
-0.79936391 -0.1048998 2.1149833
0.16987787 -0.23607108 2.5436518
-0.96283436 -0.75781047 2.1816263
-1.3373398 -0.4770062 2.9386892
-0.046444789 0.60194099 2.4748952
-0.046444789 0.60194099 2.4748952
-0.60868734 -0.3558594 2.3767748
-1.0684423 -0.91421634 2.2576284
-1.3418092 -0.73208129 2.7128143
-1.1123084 -0.55501664 2.3752868
-1.0993893 -0.4209086 2.8689075
0.05559643 -0.14088917 2.4100912
-1.3340929 0.053027552 3.0081551
-0.74192059 -0.85496271 2.4246421
0.4548181 0.44420719 2.4103317
-0.96935433 -0.75462145 2.1721759
-0.61564362 -0.6987102 2.3870404
-0.68382484 -0.77117097 2.3010457
-0.20646293 -0.72931719 2.3613336
-0.78266478 -0.30779254 2.3857188
-0.778736 -0.67138869 2.4742539
0.26677376 0.31678697 2.1238816
-1.1123767 -0.7620542 2.1965239
-0.61249083 0.12108319 1.8728364
-0.7786749 -0.21280128 2.5016086
0.17420733 -0.1021556 2.276094
0.74993145 -0.11240909 2.341466
0.67912918 -0.38960138 2.507112
0.9459849 -0.6516757 2.5538666
-0.66034454 -0.74619502 2.3292027
0.82436621 -0.59187931 2.5052502
-1.0726606 -0.72828782 2.2008018
-1.365528 -0.059877895 3.0289176
-1.2984985 -0.014586275 3.0521395
0.80396676 -0.5025695 2.3731494
-1.125491 -0.70238835 2.2698929
0.83052945 -0.079202488 2.2578278
0.012056527 0.39659655 2.8347182
0.48851109 -0.30854717 2.61641
0.8065455 -0.59880412 2.3368266
-1.3297256 -0.76016551 2.7223859
-1.1223412 -0.91272318 2.852407
-1.1076943 -0.66088158 2.4634981
-1.3671232 -0.64193487 3.1251552
-1.0076586 -0.79011226 3.5510657
-1.1939938 -0.88530552 3.0805418
-1.1179816 -0.30734852 3.7106047
-1.3678114 -0.6461091 3.0883622
-1.3674133 -0.75643492 3.0993049
-1.1425565 -0.32083175 3.6874719
-0.8304776 -0.56921351 3.8406069
-1.3678232 -0.64316672 3.1502333
-1.2776349 -0.86702949 3.0837626
-1.1133186 -0.76160628 2.194977
-1.0329412 -0.63400197 2.2829373
-0.61101115 -0.41690174 2.3509495
-1.0674472 -0.73721355 2.2016029
-0.64738077 -0.44879583 2.3361962
-1.0408109 -0.75532377 2.2079418
-0.78154105 -0.2920779 2.3886306
-0.78126734 -0.34128654 2.3772984
-0.14706211 -0.82172602 2.3487833
-1.1221581 -0.82893866 2.1958058
-0.80033076 -0.15804408 2.1296055
-1.2912899 0.002309947 3.2010269
-0.62806195 -0.88826209 2.3161283
0.17226774 -0.076520972 2.1901159
-0.89914972 -0.67098653 2.2356586
0.25355119 -0.1193616 2.2782671
-1.3275348 0.041811429 3.0587449
-1.110268 -0.77471399 2.1765351
-0.86669463 -0.22325727 2.5159225
-1.2280916 -0.21650356 2.515502
-1.1286212 -0.66255349 2.3314729
-1.1669357 -0.80383265 2.2338016
-0.71220541 -0.21580935 2.3879128
-0.9401781 -0.22509319 2.5287297
-0.74654114 -0.61573189 2.4018357
-0.79409003 -0.2186003 2.4326518
-0.31237715 -0.048986606 2.2605345
-1.1093997 -0.68731511 2.3605556
0.2486102 0.3209255 2.0199835
-0.95555663 -0.7528578 2.1776259
0.22708854 0.75970739 2.0504923
0.3459048 0.75892127 2.1719215
0.27637863 0.52484286 2.6543658
0.83072156 -0.33243185 2.4271574
-0.65263259 -0.8683784 2.3085663
1.208913 -0.64978337 2.5241826
-0.85804927 -0.15454456 2.1270988
0.17132983 -0.13091432 2.3286798
0.39361754 -0.017906751 2.174288
-0.30147496 -0.048937764 2.3922548
0.27468187 0.60961229 2.3477647
-0.98834854 -0.61731219 2.2213733
0.27632475 -0.17338245 2.354717
-0.65433145 -0.73247159 2.3237934
-0.80253488 -0.090775095 2.1296813
0.58935165 -0.12430999 2.3452923
-0.66655308 -0.67230737 2.361053
-1.0830263 -0.68707222 2.2731869
0.58776146 0.4989506 2.57131
-1.0096544 -0.22740547 2.5535166
-0.69408387 -0.78207433 2.2935922
-0.97124439 -0.72009879 2.2002811
-0.66696274 -0.60911816 2.3652668
-0.76935989 -0.16394255 2.4163716
-0.13990456 -0.66227132 2.4047647
0.2737484 0.31698653 2.13481
-0.65855771 -0.7183547 2.3233545
-1.022133 -0.80340278 2.1659291
-0.81269652 -0.18931089 2.1769884
-0.6297977 -0.4508858 2.305923
0.22963274 -0.066019066 2.1822076
-0.66646713 -0.67514026 2.3713868
-1.1434224 -0.8050729 2.2054644
-0.78693396 -0.40277553 2.3697581
-1.1720415 -0.8443889 2.2529283
-0.85655236 -0.10207937 2.1143513
-1.1407012 -0.90886199 2.2324243
-0.036533803 0.59190595 2.468215
-0.91424119 -0.14002131 2.190639
-0.98914754 -0.71604353 2.1813903
-1.1527357 -0.68435359 2.297775
0.84852374 -0.042996641 2.1694813
-1.0551952 -0.81161278 2.1751561
0.71101207 -0.46214744 2.4109781
-1.0412519 0.11274165 2.0614102
-1.044994 -0.84511548 2.1699061
0.45634085 0.58413744 2.4954741
-0.90430123 -0.098918669 2.2639821
-1.013913 -0.77340961 2.1773248
-0.21353935 -0.73167443 2.3828163
0.11287953 -0.034852151 2.1809969
-1.1110342 -0.60887563 2.3454096
-0.80666929 -0.21725366 2.5144532
-1.1471683 -0.79269481 2.218478
-0.71309286 -0.43583962 2.2316084
-1.110628 -0.36994499 2.7729907
-0.6878559 -0.77099985 2.2912316
-1.0129172 -0.53548074 2.3753815
-1.0859159 -0.70961958 2.2131951
-0.93586361 -0.11532221 2.1321855
-0.7899 -0.34104416 2.3826621
-0.65254968 -0.70842004 2.3713505
-1.163882 -0.72711331 2.2630448
-0.23533118 -0.87369514 2.4607875
-0.21476021 -0.94223958 2.4032869
-0.1580435 -0.70323974 2.4039187
-1.2686703 -0.18433578 2.4852545
-0.3361139 -0.12983117 2.2962773
-0.25379157 -0.6709975 2.5051303
0.23905571 0.095286936 2.1065989
-0.069028318 -0.82980108 2.3958139
0.33293608 -0.054545369 2.1931705
0.31818739 -0.061024401 2.1780012
-1.126495 -0.71576673 2.1987667
-0.75632697 -0.093724027 2.1392868
-1.0451423 -0.69955707 2.2045543
0.63811547 -0.34143862 2.5762711
-1.1264938 -0.65696752 2.391166
1.1779296 -0.62386578 2.5224369
-0.31506041 -0.10919734 2.306385
-0.19079861 -0.088310681 2.3812995
-1.0135032 -0.62914103 2.2927899
-0.81680852 -0.1661752 2.1240871
-0.25385481 -0.66107017 2.488343
-0.22244039 -0.6763764 2.4466641
-1.2759495 -0.18959957 2.4662838
-0.17060259 -0.74825442 2.5119967
-0.2853812 -0.6778543 2.403614
0.37008014 -0.16431279 2.4140794
0.62356925 -0.10382926 2.3946021
0.9069767 -0.58149731 2.3337107
-0.66537851 -0.65818119 2.3673007
-1.1715326 -0.82839239 2.2523031
0.96806103 -0.58213127 2.3632443
-1.0816662 -0.76661336 2.1779718
0.50612408 0.60462719 2.5311406
0.25440562 0.46162897 2.6260724
-1.1270119 -0.73569959 2.2332828
-1.1445731 -0.71904743 2.2249107
-1.0015446 -0.76616073 2.1740685
-1.174044 -0.73223406 2.265569
0.5217635 0.55820972 2.5390427
-1.1850713 -0.57098413 2.736486
-0.20804259 -0.73717779 2.3875904
-0.23194055 -0.73171741 2.3758044
-1.1798404 -0.91645223 2.3186109
-0.86817324 -0.096160129 2.1756375
-1.2292051 -0.3090311 2.9348438
-1.1277382 -0.4238629 2.7923579
-1.0719097 -0.69494581 2.2180877
-1.1360239 -0.72142369 2.2398851
-0.64872938 -0.70285332 2.4924424
-1.2991239 -0.77678698 2.9545536
-1.0974398 -0.87893009 2.3287282
-0.64212883 -0.77566051 2.3107913
-0.65604109 -0.77214712 2.302084
-1.3527459 -0.9427551 2.6557798
-1.2368228 -0.60286295 2.5656986
0.74923742 0.55973095 2.6697984
-0.7733674 -0.084523223 2.1402383
-1.0342592 -0.84204751 2.2147942
-0.73225695 -0.17969686 2.3719518
-1.1823215 -0.82098144 2.6352611
-0.90795016 -0.0073487456 2.1692219
0.29103264 0.10319229 2.1198208
-1.3311213 -0.9693535 2.6908705
0.18181242 0.22701868 2.1807437
0.1541879 -0.10495713 2.1903093
0.1482334 -0.1173532 2.171972
-1.0242336 -0.023216426 2.1657529
-1.1527901 -0.87929738 2.2530947
-0.9238615 -0.21071337 2.1542363
-1.1600298 -0.87450802 2.2457626
-0.049146235 0.57382196 2.3001251
-1.0836273 -0.66832173 2.2556136
-1.1905327 -0.91670567 2.3613129
-1.0777036 -0.64964908 2.2895491
0.39865121 -0.45200631 2.5011709
-1.3354032 -0.97075397 2.6888325
-1.1419802 -0.77670801 2.5243394
0.5663985 -0.29333085 2.6344638
-1.3660406 -0.76521409 3.0670283
-1.2454829 -0.78622633 2.900265
-1.3410301 -0.76338923 3.1454501
-1.2494131 -0.79309022 2.9702022
-1.3166484 -0.77900195 2.9323018
-1.0824474 -0.79659361 2.6293669
-0.57333779 -0.11099817 2.1995413
-1.4105361 -0.72030896 2.8715906
-1.369163 -0.71995091 2.8477581
-1.3493408 -0.7725597 2.7605634
-0.088338427 -0.10455295 2.5088525
-0.19465651 -0.14713453 2.3953669
0.17230947 -0.0098551326 2.1364219
0.14700317 -0.10067569 2.291631
0.18367361 -0.10122316 2.2022951
-1.3034866 -0.77946568 2.9479506
-0.088777915 0.65795738 2.6133597
-0.94692069 -0.076375946 2.1156833
0.37062559 -0.088948332 2.4058397
0.27004102 0.26337257 2.2173984
0.4723787 -0.58066624 2.4746051
0.78358638 -0.57981968 2.3888233
0.53160286 0.56944233 2.4389343
0.71337563 0.47985488 2.4221413
-1.2371687 -0.89087921 3.0559475
-0.75623053 -0.17926395 2.4158826
-0.78731233 -0.12530048 2.1181288
-0.62148577 -0.62402719 2.3995256
-1.3214774 -0.7772516 2.8183153
-0.80058646 -0.25815198 2.4196413
-0.52897692 -0.061518691 2.2194326
-1.1892385 -0.75495756 2.3914068
-0.6503731 -0.12293161 2.2713349
-0.64349163 -0.7098012 2.3529303
-1.338468 -0.8505879 3.0960627
-0.56399244 0.042652521 2.1537516
-1.1859902 -0.89408493 2.2775211
-1.3363783 -0.16765167 3.1120198
-0.78631574 -0.22589834 2.4891579
-1.1786984 -0.9023695 2.2657697
-1.1428194 -0.711115 2.2649994
-1.0920278 -0.63796449 2.2863431
-1.2189442 -0.73170704 2.4875057
-1.3364457 -0.80612767 2.7711906
-0.75650018 -0.59306902 2.3373563
-0.91663754 -0.10478558 2.2438247
-0.40012085 -0.06099714 2.273663
-0.87490785 -0.1572926 2.1453745
-1.0402513 -0.68141973 2.2403159
-1.1904672 -0.77237791 2.1981575
-0.31056494 -0.81681079 2.4402609
-0.27426496 -0.67940456 2.5160058
-0.24537493 -0.68291408 2.5368288
0.18097167 -0.084549278 2.2101934
0.043318752 -0.13797729 2.405617
0.82435787 -0.56355524 2.3292437
0.65166599 -0.50259149 2.5423157
0.90707445 -0.42751881 2.4053683
1.0550601 0.67541045 2.4155996
-1.3503308 -0.77366984 2.7643533
-0.45175698 -0.026816728 2.2098253
-0.46360156 -0.04016364 2.2279365
-1.078757 -0.72795928 2.1966028
-0.19638185 -0.70895404 2.3629639
-1.1161469 -0.61075723 2.3402281
-1.3271713 -0.78660917 2.7906544
-1.1605139 -0.87498617 2.2446353
-1.2844348 -0.092306316 2.3028862
-0.80892962 -0.16418152 2.1710761
-1.1034484 -0.73699218 2.1961818
-1.2640257 -0.19689298 2.5534434
-1.3357792 -0.95322794 2.6964214
-0.0040328279 -0.17935374 2.4932745
0.098615862 -0.20057464 2.466855
0.44252452 -0.026401065 2.2067978
-1.0732001 -0.65902179 2.2389133
-1.0095075 -0.76950353 2.171684
0.54872721 0.57928604 2.5526862
-1.4076208 -0.52246243 3.0680187
-1.259473 -0.88477463 3.1106501
-1.3812456 -0.35662413 3.1200726
-0.64733475 -0.59223646 2.4226048
-1.3443319 -0.5456214 3.2769413
-1.2126559 -0.89405215 3.095917
-1.2518618 -0.88808048 3.0293472
-1.2232745 -0.90240502 3.08391
-1.2988412 -0.011329284 3.1970711
-1.2747768 -0.87924904 2.9681938
-0.6450243 -0.59597969 2.3832896
-1.2739722 0.021849409 3.1505566
-1.1174124 -0.43508115 2.4439683
-1.329319 -0.84620166 2.6770084
0.039439443 -0.13271207 2.3973272
-0.038720131 -0.18444973 2.2576959
0.48563087 -0.08035405 2.2396979
1.2287792 -0.046782084 2.3334239
0.93285787 -0.49917459 2.3799303
0.71609288 -0.406914 2.4422424
0.7690869 -0.42867452 2.4590232
-1.1009297 -0.5555318 2.3886154
0.39254603 0.53496772 2.392906
-1.245232 -0.77949077 2.9912488
-1.3672965 -0.4851293 3.3256009
-0.27807102 -0.13042879 2.3629534
-0.28683382 -0.21172306 2.3192759
0.21504004 -0.062841743 2.2217107
-1.355691 -0.7552616 3.1413453
0.13466264 -0.073353618 2.1833432
-1.2672071 -0.027013935 2.1887224
0.24866118 0.28611773 2.1461198
-1.3708 -0.62704581 3.0960865
-1.3407397 -0.88781488 3.1675906
-1.1252531 -0.4411805 2.435771
-1.2795891 -0.86730981 3.0998197
-1.3837688 -0.40847498 3.0971324
-1.3747673 -0.34262571 3.1218123
-1.3533016 -0.6508826 3.2040994
-1.1886357 -0.83843589 2.9977014
-1.3497252 -0.55714667 3.221884
-1.2901118 -0.87782246 3.0993633
-1.1793053 -0.87328744 3.02158
-1.3136886 -0.97755605 2.6727481
-1.2726392 -0.88771933 3.1424448
-1.3567051 -0.49569315 3.2532482
-1.0992876 -0.89647067 3.093138
-0.90310615 -0.20650168 2.1725612
-0.65566868 -0.67683887 2.3690977
-1.383301 -0.61956054 2.976943
-0.6777426 -0.62425327 2.4515224
-0.37949508 0.062668048 2.1573052
-0.57019836 -0.059291087 2.1716039
-0.5859648 -0.070103481 2.1683159
-0.85156655 -0.1585235 2.1389194
-0.42994159 -0.072940789 2.2591383
-0.22062291 -0.73006487 2.3800588
0.33241722 -0.60985029 2.5926275
-0.79430616 -0.13598813 2.1577041
0.2184079 -0.058177743 2.252969
-0.57537919 -0.2998381 2.2245808
-1.3489767 -0.39285439 3.5149524
-0.39560989 -0.058479726 2.3300626
-1.2943895 -0.19736895 2.5079994
-0.37127832 -0.076547064 2.255497
-1.3633488 -0.062066384 3.645858
-1.3424947 -0.23430684 3.6477978
-1.3653401 -0.6395458 2.821521
-1.3347672 -0.041200832 3.7251213
-1.3208635 -0.32931802 3.7852507
-1.3033193 -0.21087542 2.5143483
-1.1192975 -0.5467658 2.383152
-0.12535927 -0.8629095 2.330754
-0.15004784 -0.81858391 2.3421199
-1.181602 -0.86255682 2.2811007
-1.3799005 -0.46089283 3.0648813
-1.2523861 -0.79158479 2.9387283
-1.0483015 0.28183892 2.1285694
-1.2028564 -0.79085535 2.9662509
-1.3204232 -0.96916407 2.6801889
-1.0613129 0.26848355 2.14867
-1.1247294 -0.95961964 2.4238815
-0.86080098 -0.11392909 2.1056008
-0.79035503 -0.360715 2.3799663
-1.1622643 -0.88709456 3.0094671
-1.3889257 -0.74655086 3.0340927
-1.3230178 -0.77761286 2.8965478
-0.98303324 -0.24466933 2.5594485
-1.3217962 -0.75931627 3.1772807
-0.76069641 -0.43581545 2.363425
-1.2496355 -0.8896628 3.0853627
-1.1228964 -0.89445972 3.0585935
-1.3087269 -1.1097294 2.5811987
-1.1266214 -0.92209643 3.1217718
-0.84815824 -0.20459901 2.2228222
-1.2902298 -0.79088396 2.9063432
-0.83042818 -0.17780726 2.1649418
-0.2127306 -0.72901648 2.3840017
-0.19993353 -0.6080547 2.4310577
-1.3257169 -0.57710093 2.8582296
-1.2390448 -0.36459154 3.7765729
-0.13047442 -0.091894455 2.1339614
0.55799764 -0.11802918 2.6266701
0.62949777 -0.11107605 2.3045771
-1.1203772 0.20336954 2.1484704
-1.1630048 -0.77675265 2.9620054
-1.2106231 -0.89334351 3.0964944
-1.3721095 -0.65571022 3.1120307
-1.1230322 0.15480243 2.2338545
0.42005336 0.085366242 1.8219209
-0.0029601557 0.011087707 2.1050272
0.34934816 0.12062686 1.8643596
-1.1412499 -0.96069324 2.3606834
0.18459804 0.7318514 2.0995474
-1.3487653 -0.70362139 3.1312842
0.33854911 0.74915206 2.1753345
-1.3579953 -0.64083731 3.1775382
-1.2554445 -0.78529459 2.9617345
-1.1599178 -0.79089063 2.9197607
-1.1564116 -0.77578628 2.9684842
-1.3768102 -0.43506902 3.1610804
-1.3494775 -0.78610623 3.1198719
-1.3669651 -0.52261716 3.2198305
-1.329723 -0.90797997 3.0493929
-1.1003317 -0.79313546 2.1714938
-1.3575617 -0.71103913 3.1846964
-1.2162473 -0.71632159 2.6177785
-1.1154666 -0.7878297 2.957752
-1.336675 -0.03561433 3.1196177
-0.91495222 -0.15094276 2.2063324
-1.3044491 -0.96082002 2.6560173
-0.87773782 0.61843175 2.1365736
-1.3195338 -1.0054474 2.6256707
-0.5566287 0.19750351 1.9203731
-1.3373808 -0.48559844 3.464016
-0.70176524 -0.15141596 2.2434273
-0.82774025 -0.70711118 3.9004719
-1.3186934 -0.9584989 2.6878936
-1.279346 -0.87038624 3.0883904
-1.3524008 -0.53458554 3.4310913
-1.0971354 -0.90785855 2.2348943
-1.1687127 -0.3675091 3.6522684
-1.070057 -0.78506809 2.9464078
-1.3535408 -0.20080888 3.0939002
-1.3783938 -0.41170174 3.1021502
-1.1967173 -0.79442847 2.9267957
-1.1295009 -0.44175699 2.4355879
-1.3295432 -0.46837971 2.8785963
-1.1996337 -0.79409766 2.9226358
-1.0083787 0.23755084 2.2174017
-1.3073744 -0.015606546 2.2070582
-1.0006931 0.24732798 2.2191689
-1.300879 -1.0560683 2.5569942
-1.1187432 -0.96068686 2.2936094
-1.3809005 -0.38098007 3.1121457
-1.0501581 -0.86837804 3.0822492
-1.3206944 -0.93592763 2.6969976
-1.1002917 -0.75665921 2.5342617
-0.74701077 -0.30137372 2.3818097
-0.76574117 -0.41883972 2.3710525
-1.3302872 -0.49019146 2.9023507
-1.2479032 -0.74950033 2.5044935
-0.1556538 -0.042032015 2.3146052
-1.1110216 -0.8553651 2.2089841
0.12688151 -0.067498401 2.1770995
-1.2284342 -0.38618603 3.7941604
0.89859086 1.0980674 2.5266187
0.23230077 0.72828442 2.1752045
-0.75366592 -0.2727161 2.3892722
-1.2261806 -0.88532126 3.1322017
-0.47494221 -0.42725173 2.3488209
-0.61350381 0.32447872 1.9500719
0.37507722 0.058232479 2.0742574
-0.53504395 0.33399135 1.9741303
-0.98977596 0.28991598 2.2546628
-0.94751662 0.29429021 2.2856066
-1.3145608 -0.3291761 3.8004286
-1.2481484 -0.39455003 3.7667961
-1.2335955 -0.38556188 3.7895014
-1.3446254 -0.45394957 3.5068221
-1.209757 -0.85135883 3.0314896
-1.2095742 -0.79130822 2.9699485
-1.1394863 -0.81529629 2.887938
-1.3601271 -0.59180468 3.2284541
-1.1507448 -0.92700106 2.8417203
-1.0832987 0.2117034 2.1534443
-1.3355821 -0.79717737 2.7819712
-1.2151929 -0.85340053 3.0369041
-1.3598632 -0.65544552 3.1951523
-1.0090072 0.30774435 2.1535544
-1.376513 -0.35323134 3.1240621
-1.3628575 -0.67789263 3.1506906
-1.2782595 -0.88422596 3.0746467
-0.90993309 -0.19578643 2.1185858
-1.0946035 -0.86828732 3.0165312
-0.58188784 -0.065743074 2.2437608
-1.0772101 -0.93833703 2.8153112
-0.81755716 -0.33286539 2.3576369
-1.2908341 -0.89335716 3.056987
-0.81133282 -0.21584411 2.5274851
-1.3707612 -0.92367673 3.1934025
-0.69140428 -0.22501886 2.5123315
-1.3171706 -1.1316178 2.5607331
-1.3532494 -0.81483847 3.038754
-1.3616697 -0.59462523 3.2344975
-1.3549869 -0.70969033 3.1381435
-1.1690382 -0.93091506 2.3798213
-1.17256 -0.88250196 3.039798
0.77937698 -0.24578126 2.4610622
0.6219027 -0.24291953 2.3682218
-1.3626021 -0.71041381 3.1336765
-1.3631717 -0.61189139 3.1674027
-1.3594242 -0.75142175 3.0904329
-1.1666452 -0.894081 3.0588539
-1.1323324 -0.77739155 2.9778628
-1.2898929 -0.87402135 3.1513321
-1.1933111 -0.88503206 3.103708
-1.2161639 -0.89677602 3.0324261
-1.1227646 -0.90893251 2.835212
-1.11711 -0.93731236 2.8022006
-1.1298578 -0.7674067 2.9300098
-1.1390181 -0.89810592 3.050133
-1.1303043 -0.95264202 2.8228576
-1.3779963 -0.40817818 3.1019082
-1.1617787 -0.90948564 2.3120244
-1.3301097 -0.37752181 3.5258243
-1.3606838 -0.61344463 3.1677303
-1.1231482 -0.89802492 3.0619562
-1.1106038 -0.96093041 2.296206
-1.0335349 0.21936044 2.2094026
-1.3419135 -0.70323378 3.1481106
-1.3517773 -0.66530246 3.1986802
-1.1704971 -0.79629952 2.9462183
-1.2636733 -0.80781996 3.0119212
-0.7176919 0.61484128 2.4840152
-0.12388025 -0.086017311 2.3745549
-1.3402091 -0.88161916 3.1228676
0.063220322 -0.062717952 2.2004049
0.17563029 -0.12764028 2.3156826
0.18781002 -0.16204941 2.3443551
-1.258015 -0.50806046 2.6323924
-1.3652993 -0.50083083 3.2810857
-1.2048352 -0.11139827 3.0927162
-1.1080041 -0.60030901 2.3451426
-1.100783 -0.62257642 2.3650804
-1.2895513 -0.60401928 2.7796285
-1.2211989 -0.72841322 2.4586518
-1.1338315 -0.81222141 2.876003
-1.024646 -0.69989759 2.8116679
-0.99860865 -0.68992805 2.8156929
-1.3684433 -0.19874708 3.1052687
-1.3788481 -0.17471349 3.0512187
-1.3440162 -0.1565115 3.0443072
-1.2704638 -0.49895605 2.8232071
-1.3414006 -0.24060209 3.0006363
-1.1259707 -0.67823905 2.4519854
-1.1114544 -0.84644717 2.917196
-1.1916821 -0.11838746 2.4619758
-0.8024919 -0.87840128 2.9467762
-1.2436848 -0.011746936 2.7180746
-1.0788057 0.087116964 2.34061
-1.3425958 -0.036024112 3.122849
-0.80553591 -0.89057189 2.9327486
-0.8526243 -0.79782468 3.04319
-0.83452058 -0.73114216 3.5077364
-0.83800298 -0.73241025 3.5106473
-1.3583276 -0.69816333 2.8442738
-1.3589228 -0.48027012 3.3439689
-1.339782 -0.52165073 3.4433758
-1.3697734 -0.44015148 3.2269676
-1.1689886 -0.71107697 2.3292141
-1.1327155 -0.9220764 2.8081138
-1.050563 -0.72055584 2.8481665
-1.3796602 -0.21299313 3.1027672
-1.3476136 -0.48561028 3.4596875
-1.1639926 -0.33246845 2.6625359
-1.3217332 -0.35815486 3.5549238
-0.83308053 -0.085243359 2.1668375
-0.90905797 -0.15028009 2.2095845
-1.1187273 -0.8767429 2.2803321
-0.81544912 -0.091337182 2.2935338
-1.360866 -0.6996811 3.1409605
-0.74664348 -0.17060316 2.4462018
-0.83012235 -0.72854143 3.8428991
-0.80966014 -0.72934723 3.8575952
-1.352482 -0.74861902 3.1559496
-1.3611615 -0.61840194 3.1994491
0.20081674 0.034706421 1.8563845
-0.086572379 0.15240285 2.092319
-1.367704 -0.64048094 3.1763194
-1.3203418 -0.84691054 2.6800733
-1.1856796 -0.35620645 3.7944686
-1.0998775 -0.86725754 3.0093372
-0.93763691 -0.73424369 3.6244273
-1.3629539 -0.41174948 3.1398852
-1.221284 -0.92064035 3.1218514
-1.2224308 -0.36426166 3.6373634
-1.2463837 -0.90127265 3.1028807
-0.90682828 -0.09836828 2.2413263
-0.8992064 -0.060705893 2.1765985
-1.2521634 -0.7212801 2.6424663
-1.255787 -0.89862674 3.1536295
-1.0215095 0.23533222 2.2903397
-1.1304722 -0.3776857 3.7564509
-1.1208225 -0.35946113 3.7924409
-1.0333061 0.21405947 2.2525284
-1.312 -0.61264443 2.7875633
-0.55903322 0.13841718 1.9509836
-0.55013174 0.14450455 1.9407107
-0.88958806 0.55996948 2.330231
-0.7242136 0.70631111 2.2167969
-1.3030545 -1.0906416 2.5643923
-1.2979168 -0.81119192 3.0623498
-0.13834696 -0.76433396 3.4279575
-1.0970154 -0.73284853 2.8736119
-0.94091278 -0.96102017 2.3073103
-1.1791172 -0.79205328 2.9565384
-0.98465544 -0.88914287 3.1400752
-0.92684007 -0.72673786 3.6309836
-1.3424866 -0.80229783 3.2866971
-1.1237723 -0.85035807 3.2465603
-1.220657 -0.74582523 3.3323274
-0.8906911 -0.60495389 3.4818757
-0.77880281 -0.87243736 2.9433379
-1.2734601 -0.31404459 2.7206748
-1.1476495 -0.66736716 2.3387167
-1.3460661 -0.13121158 3.1194291
-1.4817044 0.066385083 2.9289808
-1.0205852 0.17560774 2.2758329
-1.0160815 0.13143072 2.336369
-1.3294072 -0.22751559 3.0007768
-1.3203049 -0.3642281 2.9229252
-1.3465811 -1.1138653 2.5960789
-1.2647306 -0.80911767 3.2881131
-1.3981154 -0.43499312 3.2094874
-1.1335866 -0.7887249 2.8945022
-1.3662385 -0.38815165 3.2064431
-0.97817701 -0.17603438 3.7379808
-0.77077872 -0.73308581 2.9927244
-1.3121966 -1.1125367 2.601438
-0.77703148 -0.59254986 3.8754196
-1.1835717 -0.90918583 3.1294894
-1.364957 -0.60918003 3.0914555
-0.87797952 -0.094853014 2.14727
-0.87949944 -0.17546296 2.1412561
-0.81608933 -0.20046408 2.1922257
-0.9954614 -0.31640789 3.6893995
-0.80423158 -0.19404754 2.1869226
-0.73479354 -0.021798292 2.2677126
-1.0923405 -0.9135592 2.8413069
-1.1748809 -0.83076948 2.469353
-1.355877 -0.57921481 3.1981413
-1.0755413 -0.81936562 2.8651707
-1.1643451 -0.79198581 2.9409103
-1.1935089 -0.54224658 2.8019409
-1.4001594 -0.42440549 3.1469595
-1.2875581 -0.35358968 2.9251926
-1.3297381 -1.0974388 2.5690396
-1.3650945 -0.4797495 3.3456383
-1.3156111 -0.7131716 2.8048573
-1.3101938 -0.21178988 3.0054817
-1.3618776 -0.65085882 3.1520572
-1.3170353 -0.49594507 2.8943973
-1.1589681 -0.83307612 2.8563445
-1.1251132 -0.60892022 2.3520355
-1.3396372 -0.17354426 3.1133077
-1.3503253 -0.29530704 2.9955766
-1.3331152 -0.2591742 3.0432856
-1.3615386 -0.55899292 3.2619784
-1.3320521 -0.45558777 2.8884742
-1.2308184 -0.86745638 3.0178471
-1.3826448 -0.20828523 3.0722597
-0.92498219 -0.74294531 2.6437593
-1.0835352 0.28638047 2.0909681
-1.3366255 -0.11002196 3.064009
-0.94640428 -0.14288175 2.155689
-0.90580428 -0.080188692 2.2108042
-1.342824 -0.19545031 3.6251206
-0.93071824 -0.047190603 2.1781297
-0.83334118 -0.17235366 2.1765382
-0.60704404 -0.055096127 2.1136606
-0.76798528 -0.15528777 2.2524667
-0.98329926 -0.73545128 3.5800233
-0.91742456 -0.72742176 3.6392326
-1.1703527 -0.3687233 3.7728579
-1.1658397 -0.34412318 3.749254
-1.1133996 -0.35559136 3.801616
-1.2594718 -0.41149089 3.644172
-1.3500412 -0.48225307 3.4695354
-0.81783211 0.58674121 2.1659088
-0.89037132 0.4350155 2.1510623
-0.8386116 -0.79500818 3.6881888
0.16714244 0.035934307 2.147352
-0.048681203 -0.74510145 3.431865
-1.173251 -0.86393434 3.081048
-1.3037248 -0.74280822 2.7209923
-1.1250159 -0.91673672 2.3688443
-1.1712298 -0.89864022 3.1104124
-1.2623775 -0.88176668 3.2497594
-1.316875 -0.96592683 2.6669285
-1.3328834 -0.51153827 2.8552308
-1.2060096 -0.83317971 2.3887117
-1.247551 -0.88790351 3.1529441
-1.3215886 -0.71537638 2.8025117
-1.3575404 -0.67390323 3.1908474
-1.1822991 -0.91080254 3.2112536
-1.2775511 0.54427737 2.5927055
-0.9704386 -0.67485315 3.7313952
-1.3441573 -0.92921948 3.0774221
-1.2350738 0.29471314 2.8780503
-0.91892582 -0.2748 4.0836315
-0.6906231 0.2397279 1.7594575
-0.66819304 0.24606091 1.8106681
-0.97518474 0.69832641 2.1925147
-0.28258792 -0.74229789 3.545316
-1.3673967 -0.48209745 3.3338714
-0.35892436 -0.014919227 2.1429811
-1.3899878 -0.78452474 3.1258147
-1.2617307 -0.89591175 3.0847554
-1.3580738 -0.62593377 3.1797404
-1.3652844 -0.77539694 3.1109376
0.27667654 -0.66350651 3.3879933
-0.65085191 -0.96553612 2.9386737
-0.26115143 -0.87733167 2.9616635
-1.1641251 -0.91255623 2.3154018
-1.0968672 -0.78940207 2.9354186
-1.1112452 -0.75875056 2.852488
1.0470389 0.45342717 2.0300679
-1.3596889 -0.59806246 3.1297688
-0.49406993 0.63495457 1.6794702
-1.1507595 -0.83504254 2.8582218
-1.2692556 -0.86368293 3.0882175
-1.2785614 -0.77595007 2.9520631
-1.3899863 -0.66784245 3.1452198
-0.92063898 0.42685592 2.0801892
-0.84971017 -0.30613738 4.0531392
-0.93963069 0.34164169 2.1575024
-0.80662888 -0.072401911 2.291642
-0.99619436 0.27571127 2.2419446
-1.1121469 -0.8934024 3.0454016
-1.3597018 -0.57890624 3.2484915
-0.98803711 0.3859145 2.1078973
-1.2613419 -0.61637604 2.5998485
-1.2748691 -0.35568008 2.7248311
-1.3309139 -0.28358778 2.9650311
-1.3085389 -0.25897241 2.9544559
-1.3195634 -0.66788381 2.8029649
-0.76755023 -0.5412302 3.8754611
-1.0850135 -0.35442352 3.781471
-0.79585415 -0.50645858 3.8908515
-1.1146436 -0.78479928 2.9326844
-1.2265615 -0.72989732 2.5113482
-0.98564005 0.63065726 2.1336958
-1.1670172 -0.89821053 3.1503842
-0.86393553 0.85995412 1.9772857
-0.86586285 0.869919 1.927169
-0.8220228 0.92265457 1.9122984
-1.3234571 -0.75597447 2.7185128
-1.2370924 -0.8850863 3.2349317
-1.2292502 -0.77366328 2.9587243
-1.3637226 -0.70807254 3.1195714
-1.3532495 -0.6705898 3.1922665
-0.97723103 0.50965178 1.9485424
-0.187374 -0.71661776 3.1342361
-1.2454413 -0.35922885 2.6966872
-0.97981828 -0.73841858 3.2903094
-1.3598722 -0.67582917 3.1288738
-1.2643323 -0.87565637 3.0712979
-1.1852295 -0.69534338 2.4272633
-0.91414171 -0.80196273 3.6380904
-0.96250141 -0.74045569 3.6197269
-1.3923581 -0.49402255 3.3077629
-0.72719687 -0.69253612 3.4217765
-1.346341 -0.075226508 3.0999453
-1.2310232 -0.61465222 2.5564561
-1.33287 -0.40507925 2.9107752
-1.1106856 -0.75754851 2.849319
-1.0113573 -0.69407475 2.8138382
-1.1300284 -0.34885904 3.7924871
-1.3249339 -0.40022171 2.9690166
-1.2337831 -0.59176707 2.5832067
-1.1240336 -0.27065814 3.6553054
-1.2179465 -0.877572 3.0725939
-1.3643986 -0.58349735 3.1605842
-1.3658527 -0.52712834 3.3070166
-1.1271724 0.13147177 1.9552833
-0.91991031 -0.15682854 2.2158275
-1.153033 0.13481173 1.9453036
-0.79967707 -0.062216543 2.2550907
-1.1525749 0.13317139 1.9463294
-1.1360126 0.46511585 1.9958276
-1.1672698 0.42107028 2.0154741
-1.1267401 0.47655338 1.9984068
-0.52769417 0.37990332 1.2905033
-1.1727989 0.79994035 2.0655148
-0.93935347 -0.67631888 3.6554623
-0.2956973 -0.68698108 3.2530546
-1.1621412 0.79325801 2.1086724
-1.3255502 -0.91672534 3.2112467
-0.34428459 -0.71100456 3.2478991
-1.3749654 -0.71134543 2.8430786
-0.45993641 -0.12914261 3.9239907
-1.323018 -0.88277417 2.6483314
-0.34808055 0.38838717 1.8183234
0.0071268287 -0.7059713 3.3257167
-0.85009545 0.80577421 1.9386606
-0.70711195 0.56216586 2.4803085
0.11037861 -0.58016747 3.1881595
0.32999519 -0.72995979 3.6028626
-1.3594788 -0.72827774 3.1360877
-1.2812908 -0.90715861 3.1482291
-1.2153592 -0.74572611 2.5010607
-1.0908799 -0.62211007 2.3639979
-0.82819313 -0.83307254 3.0357292
-0.84661031 -0.79567426 3.0524695
-1.3049417 -0.77277434 2.6893888
-0.85044104 -0.79646271 3.0483005
-0.87095839 -0.80851883 3.0390897
-1.3624005 -0.70067894 2.8428819
-1.3790139 -0.10041206 3.1562533
-1.234269 -0.89179987 3.1542883
-1.2894896 -0.53091586 3.5224648
-0.9366414 -0.78577888 3.0414405
-1.1849927 0.089379244 1.973684
-0.80571407 0.85658616 1.9240195
-0.84243047 0.88762212 1.9190873
0.33259064 -0.58090401 3.2499645
0.28762987 -0.60806495 3.2453375
-0.77769321 0.53523445 2.3272698
0.59598082 -0.75213939 3.6424115
0.54596031 -0.76447874 3.6668775
0.33722642 -0.57381463 3.2255998
0.52180254 -0.77601236 3.6608751
0.0072917999 -0.7663185 3.5762134
0.35552087 -0.53331882 3.1398966
-1.3642795 -0.47132131 3.1375861
0.62835371 -0.79106367 3.7791276
-0.90749753 -0.79276729 3.6537201
-1.3060009 -1.0848143 2.5552578
-1.1486177 0.24767341 2.1092172
-0.92579216 0.42233238 2.0836556
-0.84697109 0.43552199 2.1383352
-1.0405052 -0.27208537 2.3792427
-1.3532304 -0.74728179 3.0632994
-0.49632177 -0.8693561 3.3459034
-1.0370523 0.68577313 2.369055
-1.3666812 -0.64681834 3.1035151
-0.74255973 -0.70047063 3.4165204
-0.74135447 -0.70003772 3.4112027
-1.2172949 -0.83622056 3.0164762
-1.2725999 -0.0013025838 2.1866975
-1.0331647 -0.40726438 3.5480661
-1.1701313 0.025968073 1.7002769
-1.2308351 -0.83512145 3.0478828
-0.91371572 -0.12200651 2.1530194
0.15883297 -0.52557403 3.0620909
-0.25686997 -0.69102746 3.2742379
-1.3281709 -0.9975692 2.5941565
-0.18462107 -0.77957588 3.4215927
-1.3126109 -0.30683747 3.175276
0.173639 -0.45445839 3.0812724
-1.3852353 -0.67301869 3.1162164
0.60612398 -0.6134671 3.8035922
0.56466776 -0.69403958 3.7711971
-1.3540732 -0.70958668 3.1688528
0.40552428 -0.70110285 2.8344917
0.48963457 -0.56995326 3.711848
-0.84902263 0.76854199 2.2415988
-0.93146843 -0.81415927 3.6406393
-0.2235253 -0.31277806 4.3186197
-0.26201296 -0.34748885 4.2970419
-0.11672903 -0.73585832 3.425705
-0.23461764 -0.63499928 3.2879734
-0.96839952 -0.65378678 3.3992639
-1.3485136 -0.52643353 3.2717786
-1.5320982 0.13191059 3.0992029
-1.4109834 -0.50511986 3.2820983
-0.86231667 -1.0369358 2.953752
-0.87150621 0.67218465 2.2703316
-0.087622486 -0.64756364 3.1946263
0.64262867 -0.82032406 3.8750181
0.35533148 -0.71436465 2.847218
0.53740478 -0.72437257 3.6649568
0.87890196 -0.59151888 3.9431236
-1.2499319 -0.28533113 2.7030561
-1.2635359 -0.74423891 2.5570765
-1.288672 -0.87951308 3.08056
-1.2092413 -0.43895805 2.5205562
-1.3513265 -0.75298035 2.7644885
-1.4069407 0.19688277 3.0316131
-0.7404651 -0.64913458 3.2881663
-1.2213668 -0.83859694 3.0153885
-1.3769153 -0.4663212 3.0671871
-1.3424369 -0.24843284 3.062922
-1.1456697 -0.88302481 3.0837088
-1.2791201 -0.67034853 2.5833755
-0.18405828 -0.94129729 2.6097844
-0.36822665 -0.71582645 3.2622204
-0.16960436 -0.70405686 3.3110709
-0.2231406 -0.61724323 3.2698262
