# .PCD v0.7 - Point Cloud Data file format
VERSION 0.7
FIELDS x y z
SIZE 4 4 4
TYPE F F F
COUNT 1 1 1
WIDTH 434
HEIGHT 1
VIEWPOINT 0 0 0 1 0 0 0
POINTS 434
DATA ascii
-0.64808118 -0.65998828 3.4622407
-0.23480171 -1.4033649 3.3945501
-0.057892326 -0.54396522 4.0432668
0.12088814 -0.54857755 4.0819283
0.11485308 -0.69267809 3.9502385
0.12105163 -1.177792 3.6233079
-0.056860596 -0.64304489 3.9651651
0.11303233 -0.94709074 3.7800417
0.12904553 -0.52270389 4.080708
0.22681372 -1.1872469 3.799413
-0.11199766 -1.1688298 3.4723115
0.43280777 -1.0402303 3.9106054
0.91447604 -0.82931578 3.673789
0.96199203 -0.74588138 3.624887
0.95957386 -0.72611326 3.657537
0.95906287 -0.72414929 3.6569586
-0.11621796 -1.3211259 3.4048598
-0.59958774 -0.80881464 3.4466271
0.81826007 -0.44105992 4.0064821
-0.61377221 -0.71125805 3.4473188
0.46332973 -1.140826 3.8583801
0.80157471 -0.47209936 4.0153708
1.0850992 -0.4626793 3.695899
0.49906933 -1.0805041 3.8836801
0.84447145 -0.42714378 3.9128256
-0.060749836 -0.89601874 3.7967689
0.13211612 -0.56345576 4.029345
0.1315449 -0.54966187 4.0369444
0.12646966 -0.67940831 3.959734
-0.06097845 -0.78296727 3.8854961
0.13520655 -0.5398708 4.0485878
-0.23425867 -1.4023467 3.3937335
-0.6129626 -0.70506489 3.4458153
-0.05733905 -0.89692038 3.8045204
0.11797786 -1.2815193 3.5504367
-0.062558465 -0.77686948 3.8732162
-0.078060672 -0.85698557 3.8204298
-0.059391361 -1.0413079 3.7111707
0.58522612 -1.1863576 3.7325494
-0.055435874 -0.78958648 3.8793132
0.39909199 -0.95111394 3.9569583
0.43583557 -0.9825362 3.938751
0.48536691 -1.1018376 3.8743136
0.45287308 -1.1126095 3.8622417
0.30228233 -0.92639756 3.9703791
0.42559546 -1.1538398 3.8404601
0.38723299 -1.0888146 3.8784502
0.035665143 -0.99561858 3.7438719
0.27979958 -1.1711137 3.8246703
-0.54332995 -0.4992258 3.1269124
0.17068551 -1.0025619 3.8635147
-0.13509022 -1.4456828 3.4198446
-0.071916901 -0.85974115 3.8158779
0.15856405 -0.94480968 3.8838067
-0.5110361 -0.67513567 3.3053529
-0.21556394 -0.78936797 3.7912536
-0.21419872 -0.79142618 3.7962706
0.51378953 -1.2017982 3.725316
0.29538381 -0.80691415 4.0298767
0.40672237 -0.91933757 3.9752383
0.42598927 -0.92446148 3.9785616
0.52381539 -0.8975805 3.9754395
0.44946104 -0.84718418 3.9742095
0.54101157 -0.87929654 3.9973412
0.53597152 -0.84299165 4.0339775
-0.21491426 -0.79835725 3.7925451
0.18742362 -1.1982881 3.7449799
0.45407513 -1.0666394 3.8944676
-0.057844311 -0.91314644 3.7927227
0.32530034 -0.89468718 3.9743621
0.44061425 -1.0886743 3.8848765
0.56412506 -1.1996838 3.7820771
0.5068202 -1.0874708 3.8719733
0.43200883 -1.0307571 3.9101455
0.40716109 -0.97085989 3.9466684
0.30248988 -0.8315354 4.0352335
0.52812922 -1.1998315 3.7442317
0.48394245 -0.96505368 3.9481273
0.011427516 -0.50213236 4.0823441
0.39420557 -1.1216899 3.8564029
0.11994736 -1.2761483 3.5478723
0.39337361 -1.0165216 3.9193449
0.37496799 -1.109013 3.8665814
0.37525705 -1.1061872 3.8672814
0.45043662 -1.1156313 3.8625102
0.29432914 -0.93531036 3.9685361
0.43922123 -1.0420573 3.9013274
0.52534157 -1.1521338 3.8410833
0.43818283 -1.0897355 3.8846862
0.29393119 -0.85826939 4.0080194
-0.017900784 -1.3431021 3.454237
0.54392838 -0.82401341 4.0337367
0.1990868 -1.406832 3.6229188
0.90656579 -0.46595564 4.0133276
0.54228193 -1.1768947 3.6785617
0.46424684 -0.928635 3.9678001
0.4544749 -1.1774055 3.6770332
0.39274028 -0.81642944 4.032548
0.32536495 -0.87864292 4.0095301
-0.56163502 -0.36076388 2.7428219
0.40647858 -0.94291008 4.0084405
0.50449181 -1.0135077 3.9224479
0.40578371 -1.0276088 3.9176848
0.3438102 -1.1324494 3.6091361
0.47869059 -0.92640024 3.9739306
0.46050698 -0.91094851 3.9862306
0.34715733 -1.1774032 3.7373977
0.61243522 -1.1194096 3.8633049
0.51175696 -1.1979046 3.7465622
0.19971228 -0.68090498 4.0465026
0.3546806 -1.1569762 3.7174726
0.6410709 -1.2117728 3.7948313
0.50415635 -1.0922834 3.8766053
-0.94084585 -0.065872379 3.7559085
-1.018973 -0.11087396 3.7261207
-0.94087011 -0.068175428 3.7574222
0.44220251 -1.09468 3.8731525
0.65326846 -0.83691221 4.034688
0.37413737 -1.07452 3.5417316
0.46238273 -0.97061217 3.9445271
0.15373184 -1.592333 3.5358508
0.42698553 -1.1520555 3.8392324
0.39319244 -1.0934664 3.8697317
0.46335733 -1.1241759 3.8582344
0.037153717 -0.99357367 3.7419081
0.44056162 -1.1521492 3.6317363
0.35049811 -0.93881226 3.9641144
0.12521394 -1.170596 3.6469285
0.47298777 -1.0751553 3.8894603
0.38570032 -0.89453745 3.9905522
0.39701521 -1.1030539 3.8698502
0.48807824 -0.92546618 3.9752944
0.42755878 -0.84197778 4.0219684
-0.65767485 -0.84459764 3.8099434
-0.61002856 -0.029863238 3.6123281
-0.61818719 -0.0065094037 3.6027579
0.51299298 -1.1951054 3.7414885
0.91653091 -0.5271852 4.0977068
-0.96482122 -0.16267 3.674257
-0.96772611 -0.31722787 3.2555289
0.37002268 -1.1115545 3.8682632
0.14076723 -1.3646365 3.6594841
-0.49374947 -0.71348071 3.3451097
0.91159403 -0.53088248 4.1009769
0.51988822 -1.1439887 3.8486178
0.89873707 -0.46150097 4.0870261
-0.16932252 -1.4556447 3.3639886
-0.8521114 -0.11291309 3.7414238
-0.84416831 -0.12354605 3.7447097
0.45871562 -1.18239 3.6777747
0.38278779 -1.1387324 3.6676683
0.3395395 -1.2645364 3.5240755
0.18812804 -0.82278579 3.9699986
0.46417421 -0.94384408 3.9572115
0.47243065 -1.0575213 3.9008965
0.032018892 -1.3928427 3.3730934
0.62345833 -1.2414432 3.8256636
0.50096977 -1.1181901 3.8639369
0.43215835 -1.0231001 3.9110591
0.49813378 -1.0487376 3.8983226
0.13846223 -0.96190566 3.8848796
0.42830199 -1.0769373 3.8856952
0.57204914 -1.1778865 3.7616878
0.54566509 -1.1569737 3.6588099
0.5197534 -0.92802292 3.9847076
0.32841048 -1.2389259 3.5047889
0.3947356 -1.0031619 3.9176192
0.31321174 -1.2707095 3.4785984
0.33708203 -1.2818363 3.4905233
0.37820166 -1.1244603 3.8568749
0.66582787 -0.66682786 4.1057782
0.2799159 -1.0789165 3.5675621
0.41865981 -1.0714105 3.8880434
0.52484071 -1.1508627 3.8409555
0.42709121 -1.1352679 3.8488641
-0.96243584 -0.16915084 3.6791511
0.13944034 -0.75351554 4.0052881
0.12803835 -0.91741431 3.8934693
-0.59962839 -0.52320075 3.6575792
-0.61466956 -0.46498045 3.6304088
-0.37470561 -0.77856994 3.7552214
0.1519324 -0.55908495 4.1201615
0.44652879 -1.0186728 3.2735097
0.44196457 -1.0198263 3.2595429
0.13500613 -0.64678621 4.0536933
-0.20485128 -0.62627041 3.9214063
-0.052973997 -0.54462725 4.0409937
-0.049394432 -0.54707211 4.0400534
0.13478652 -0.72235638 3.9873345
0.44012526 -0.88706249 4.0155907
0.3637664 -1.1347106 3.6257255
0.13974884 -0.94570965 3.8726904
0.32945207 -0.86402625 4.007977
0.65939635 -0.81604427 4.0325828
0.49444538 -1.1510724 3.5827727
0.27616057 -1.1003313 3.5517299
0.27779132 -1.0837805 3.571594
0.21224178 -0.71315962 4.0809722
0.47155565 -1.0375293 3.8897574
0.35848853 -1.1720239 3.7289865
0.3414737 -1.1755204 3.741966
-0.61106759 -0.68486053 3.365155
-0.17370388 -1.4122407 3.3411205
0.5208956 -1.1225747 3.8578289
0.47423029 -1.0774117 3.887686
0.39794517 -0.94339019 3.9408455
1.1767528 -0.57381916 3.6209834
0.43146619 -1.0495137 3.9144251
0.48778003 -0.99171448 3.9376833
0.42757463 -0.98657471 3.939146
0.38267681 -0.89370054 3.9911947
0.36423725 -1.1273881 3.6217637
0.55026263 -0.91784281 3.9805105
0.30695242 -1.0923651 3.5757108
-0.061664995 -1.2769814 3.5441079
-0.055842925 -1.1375891 3.6432834
0.45516345 -1.1806893 3.6817944
0.14208259 -1.34172 3.6519854
0.90743244 -0.48245379 4.0723462
0.029039271 -0.45858198 4.145071
0.76919717 -0.56359196 4.0522175
0.41411805 -1.0456488 3.9080994
0.82586342 -0.46332625 3.9922247
0.86888707 -0.72495162 3.5395298
-0.06889043 -1.4442433 3.390569
-0.62098569 -0.69392526 3.4350796
-0.54125232 -0.71625561 3.4553688
0.51356417 -1.1695931 3.7288628
0.37289789 -1.1084414 3.5612986
-0.21132134 -0.60919476 3.9111497
0.46619514 -0.95944452 3.9488051
-0.543046 -0.76159418 3.4244897
0.40509611 -0.91124588 3.9796848
0.88992977 -0.4864895 4.0042882
0.91410881 -0.45427313 4.0141878
0.48488611 -1.0076154 3.9268079
0.68064779 -0.7461049 4.0653658
0.50454092 -1.0096446 3.9253619
0.12844214 -1.1123708 3.7691059
-0.70392638 -0.19128355 3.9167087
-1.0190144 -0.12273628 3.7267284
0.5081991 -1.0451881 3.9103403
-0.92958373 0.059566531 3.5638885
0.15567322 -1.5691155 3.5064094
0.051666275 -1.2039874 3.6061232
0.53118885 -1.1945858 3.6855242
0.48569667 -1.129195 3.8544097
0.13619606 -0.9564876 3.8863096
-0.073568478 -0.96995044 3.7588887
0.41476446 -0.96815902 3.9575708
0.50521088 -1.1701591 3.6664646
0.49876601 -0.9290964 3.9768033
-0.0651168 -1.0152435 3.7143023
0.38085821 -1.1327244 3.6570466
0.38416067 -1.0983758 3.6297519
0.45459402 -0.96571463 4.0328174
0.51318562 -0.96185297 3.9515166
0.51258081 -0.96108466 3.9538684
-0.21278019 -1.4110776 3.3878872
0.4689661 -0.95844388 3.9478993
0.16848956 -1.0087781 3.8653388
0.42353874 -0.93645126 3.9692388
0.121012 -0.99360013 3.6981056
-0.064888194 -1.1616111 3.6164324
0.49770474 -1.0881985 3.8829947
-0.66227502 -0.82047343 3.7810822
0.1314766 -0.84456778 3.8912573
0.16006188 -1.5858024 3.5283663
0.37844545 -1.1289418 3.5999315
0.55131137 -0.83038765 4.04039
0.19001882 -1.1878432 3.7386091
0.17779474 -0.75364912 3.9920771
0.28949106 -0.95798713 3.9508004
0.13363521 -0.71367973 3.9909046
0.46115977 -1.0350425 3.9109626
0.36322889 -1.1180741 3.5979576
-0.060457662 -0.91134697 3.7938166
0.13730049 -0.94956982 3.87397
0.20743665 -0.65851682 4.0648403
0.36386615 -1.1783179 3.7316172
-0.87743539 -0.53832245 3.7030346
-0.60618258 -0.78980064 3.4376287
-0.5825721 -0.70024705 3.4438863
-0.50438249 -0.68584871 3.4217827
-0.76824373 -0.17349401 3.9534836
-0.85181147 -0.046179719 3.7271199
-0.92287028 -0.14315936 3.612411
-0.873097 -0.30448309 3.611841
0.51808649 -1.1386479 3.6425438
0.32931387 -1.1537384 3.5620813
0.561652 -1.1497661 3.6348276
0.13138703 -1.2360104 3.6907008
-0.087591581 -1.4430283 3.4033868
-0.077995792 -1.4150699 3.3585973
0.66508615 -1.135049 3.7654388
-0.74062711 -0.13152772 3.9635098
0.28183207 -1.1666641 3.8242824
0.96254134 -0.33916476 3.8810525
0.22775684 -1.1738036 3.7738805
0.5844571 -1.16778 3.7200699
0.1883435 -1.1933501 3.742209
-0.9231047 -0.0012163814 3.6054354
0.87982345 -0.43325809 2.8832157
0.90486425 -0.3755362 2.8351879
0.84827298 -0.16475853 2.5597227
-0.6515274 -0.69026667 3.4838755
-0.61964327 -0.74584335 3.3283243
1.0232955 -0.6542505 3.7423398
-0.586106 -0.26194549 4.105248
-0.73637521 -0.15342882 3.9528086
-0.72549605 -0.16051482 3.9748008
-0.73048717 -0.15357225 3.9653134
-0.20618662 -0.32181957 4.0841951
1.152208 -0.18342432 3.9625008
-0.95961058 -0.21266431 3.6698272
-1.1111047 -0.49292061 3.230109
-1.0842724 -0.46372062 3.2343054
-1.0774 -0.46173498 3.2338595
-1.0799056 -0.44590911 3.2232254
-1.0605072 -0.47012684 3.2398534
-0.96825051 -0.12118392 3.800498
0.94208938 -0.5039953 3.1330705
0.94395477 -0.5069195 3.1339967
0.9467079 -0.41792741 3.0453701
-1.025524 -0.12795524 3.7285373
0.96481121 -0.44115368 3.0615447
-1.1808807 -0.033757962 3.6769869
0.95403832 -0.46500754 3.0517652
0.90642607 -0.60962391 3.1665068
0.90666872 -0.61475456 3.1740139
-0.84836435 -0.094164833 3.7434721
-0.47619489 -0.62867945 3.2189543
-0.93089718 0.022366922 3.595351
-0.61397946 -0.40722647 2.9736838
0.84763962 -0.16565527 2.5622199
0.34000048 -1.1033093 3.604193
-0.13108788 -1.4500892 3.3775182
0.274957 -1.1075912 3.5584514
-0.65902227 -0.8524965 3.798281
-1.0818516 -0.19072732 3.9452314
-0.68198508 -0.68035585 3.4931672
0.84582269 -0.16559386 2.5585849
0.45903391 -1.093219 3.8802524
0.64122373 -1.2003593 3.8126729
-0.0514207 -1.0082831 3.7271221
0.88852704 -0.43392721 2.8995585
-0.90081942 -0.1406756 3.8018191
-1.1944439 -0.01953513 3.6694925
0.52617079 -1.1552957 3.8466954
-0.5015046 -0.69771826 3.376718
0.4315694 -1.026724 3.9096677
0.12712602 -0.59124637 4.0854864
0.48707515 -1.129831 3.8533103
0.39405397 -0.96177948 3.9495561
0.44363326 -0.89760661 3.9914215
0.85572982 -0.17413937 2.5702085
1.1280636 2.1186652 -1.5363649
1.109713 2.008604 -1.580476
1.1344773 1.9828966 -1.6552252
0.64197105 1.7259507 -0.88601673
1.1332382 1.9645078 -1.6469365
0.81581753 2.1045592 -1.6331148
-0.049880631 -0.64739913 3.9747672
-0.56041765 -0.41091448 3.0280724
0.47417659 -1.0761322 3.8878772
-2.2849755 2.6696265 -1.2162974
1.1858556 -0.15336631 1.9893861
-1.5229992 1.7158991 -1.3572118
1.1878657 -0.139061 1.9817474
-2.6802804 3.0641267 -1.5991923
1.3723849 0.0098281642 2.0618861
1.3915111 0.080077402 2.3118508
1.1395977 -0.087961242 2.4351256
-2.468308 2.3456173 -0.7515291
1.3933256 0.044345777 2.0162659
1.266854 -0.13259374 1.999895
-2.6710594 2.9361589 -1.3858281
-2.5798628 2.9042926 -1.4023436
1.3661106 0.053979289 2.2419012
1.2670393 -0.12807882 1.9875152
1.466694 0.037760329 2.1430469
-2.6415431 3.0108671 -1.5295559
-2.4846544 2.6057887 -0.99180883
1.266993 -0.14228806 2.0073864
-0.80075556 0.036687754 2.3666813
1.3916413 0.040262088 2.0233145
3.7513235 2.2899752 -1.8453189
3.8154833 2.6070929 -1.7863652
1.2485156 -0.059243906 2.0152647
1.3742105 -0.016311977 2.2006919
1.4218738 0.08784388 1.9523404
1.3089366 0.05063913 2.2976029
0.38494608 -0.94196784 3.9662533
1.2682372 -0.1149064 1.9828638
-2.2731187 2.1202271 -0.49342993
0.4685984 -0.89697969 3.9783006
1.6103184 0.59230226 0.9801476
1.1949861 -0.045129307 1.9726356
-0.99387008 -0.16663475 3.1115317
0.4891189 -1.1400193 3.2365873
-0.68106174 0.093223341 3.6699655
1.0682383 -0.11401123 2.4411535
-3.4822237 3.1590667 -1.5557418
-3.1021976 2.4073954 -1.8047827
1.0674608 -0.18964732 2.5745051
3.8165488 3.0165327 -1.7944862
1.4553276 0.42886785 1.4499199
3.8188441 3.017092 -1.796631
0.39581642 -1.013119 3.9206607
0.48733148 -1.1442459 3.2426193
1.2751114 -0.059818707 1.9796119
1.3571156 0.044783607 2.2652938
1.314805 0.052049149 2.285413
1.0482953 0.068037696 2.1247201
0.83617032 1.7936764 -1.3284788
1.1713543 -0.071158111 2.0121672
1.1504912 0.11900912 2.0088081
0.90905946 -0.4648557 4.0232663
-0.66773415 -0.66157216 3.4679966
1.3360642 0.20849712 2.2926676
1.2154008 -0.16234653 1.987785
1.0984517 0.15796866 2.046844
1.4487822 -0.075659551 1.9963355
1.1733334 -0.039558381 2.0161872
0.99861145 2.2961292 -1.429931
-1.1146224 -0.42444521 3.4023604
1.4530075 0.048209287 2.1707191
1.1244823 -0.14200214 2.4739401
-0.92873144 -0.32612336 3.2372749
0.66089207 -1.134775 3.8473496
0.12730753 -0.71485585 3.9705446
1.1393545 2.2209287 -1.6848236
0.20583029 -0.59013259 4.1436868
0.9837777 2.15922 -1.2467343
