# .PCD v0.7 - Point Cloud Data file format
VERSION 0.7
FIELDS x y z
SIZE 4 4 4
TYPE F F F
COUNT 1 1 1
WIDTH 479
HEIGHT 1
VIEWPOINT 0 0 0 1 0 0 0
POINTS 479
DATA ascii
-0.15410306 -1.4055854 3.3015699
0.22368608 -0.68489158 3.8250194
0.21419893 -1.1704402 3.4988141
-0.18184426 -0.85404146 3.6762171
0.052674696 -0.63964075 3.8546727
0.21376798 -0.9396593 3.6556351
0.23365243 -1.5683191 3.3897591
0.24467869 -0.51430893 3.9537666
0.33493584 -1.1767756 3.6651583
0.24034745 -1.2539407 3.5807068
0.42915395 -1.222658 3.3649266
-0.031136399 -1.1678016 3.3684461
0.50407189 -0.99574816 3.1043227
1.0009193 -0.75161064 3.490586
1.0400457 -0.69539511 3.4601352
-0.5448063 -0.7232976 3.3867128
0.61059779 -1.0628966 3.7256582
-0.4325445 -0.70582682 3.3592331
0.94030112 -0.40083414 3.7248921
0.61206269 -1.1732373 3.5742865
0.040814426 -0.89301902 3.6872602
0.24436404 -0.55508709 3.9023337
0.22688523 -0.91790301 3.6659865
0.044901855 -0.89381504 3.694689
0.042528078 -0.77377915 3.7635682
0.02460603 -0.85438782 3.7123201
0.53994799 -1.1365033 3.6894271
0.038537275 -1.0384227 3.6018763
0.050473902 -0.78629535 3.7690303
0.54983962 -0.96645463 3.7859609
0.59669334 -1.0845959 3.7175083
0.49487048 -1.1012914 3.7152114
0.53558749 -1.1381907 3.6889327
0.49897733 -1.0740825 3.7300789
0.13484874 -0.99023718 3.6262662
-0.50768536 -0.51026964 3.0614111
0.030404029 -0.85699552 3.7072563
0.029642817 -0.86246192 3.710119
-0.1275641 -1.2948452 3.3727293
0.053085532 -0.63720775 3.8526886
0.2543529 -1.5675191 3.3870549
-0.11474793 -0.79239452 3.6999679
0.53448564 -0.9397558 3.804338
0.52603686 -0.94684428 3.8044248
0.41328129 -0.79427975 3.8888264
0.55938405 -0.8880586 3.8349254
0.68731189 -1.1575233 3.5625138
0.5629797 -0.83071643 3.820102
0.59903228 -1.1498828 3.5063279
0.65697742 -0.86041874 3.8352668
0.029250469 -1.1568992 3.514879
0.043800578 -0.9100759 3.6829801
0.59877658 -1.0983773 3.7119544
0.50909382 -1.0022922 3.7691803
0.54480666 -1.0148236 3.7577956
0.5980382 -1.0906694 3.7103152
0.12714788 -0.49675453 3.965523
-0.57383108 -0.67903745 3.4043884
0.041739367 -1.0127214 3.6122763
0.50675333 -1.0015616 3.7702866
0.48625997 -1.0946158 3.7193124
0.41025424 -0.92280197 3.8278165
0.65719098 -1.1605431 3.6621199
0.65595561 -1.159404 3.6624067
0.23164611 -1.5685673 3.3897355
0.054020997 -0.64538407 3.859684
0.41127446 -0.84570563 3.8671803
0.21463838 -1.0615666 3.5860417
0.66159296 -0.80499518 3.8712709
0.06283626 -0.62657136 3.8634205
0.60408741 -1.0592343 3.7282305
0.29777816 -1.3974056 3.4917276
0.43361852 -1.1430184 3.5002067
0.57924968 -0.91177619 3.8124506
0.58590001 -1.0576744 3.7311332
0.51071882 -0.80129081 3.8831053
0.56667119 -1.1422573 3.6878548
0.62848115 -1.1235787 3.6870289
0.61867857 -0.81033862 3.875385
0.5836519 -1.1146678 3.6967561
0.29870078 -1.3984098 3.4923804
0.50222486 -1.0973203 3.7175081
0.51925558 -1.012331 3.7675648
0.44920117 -1.1639942 3.5930095
0.58463007 -1.0086476 3.7556505
-0.13094993 -0.82043797 3.5844753
-0.8605991 -0.085795335 3.7222617
-0.93981653 -0.13285284 3.6993165
-0.8604337 -0.088094749 3.7237723
-0.86297077 -0.082278974 3.7245595
0.55341941 -1.0785494 3.720068
0.045155473 -0.90790188 3.6763508
0.58775097 -1.1126652 3.7025125
0.23080899 -0.77662867 3.7647083
0.53682041 -1.1363742 3.6875896
0.57396346 -1.107528 3.7033863
0.13610964 -0.9881593 3.6241815
0.5238927 -0.95530617 3.7972507
0.46590552 -0.92487353 3.8185744
0.22019252 -1.1630855 3.5219877
-0.14671068 -1.1658305 3.3755064
0.60076553 -1.1979131 3.6375782
0.50834608 -1.0880862 3.72067
0.60443908 -1.0916508 3.7048192
-0.54440576 -0.041651785 3.550724
-0.55105931 -0.032555223 3.5406477
-0.55395609 -0.018536838 3.5418899
0.61517376 -1.1774313 3.5828063
-0.88901561 -0.18336369 3.642987
0.63802892 -1.1291175 3.6803608
0.32520866 -1.1921451 3.6648932
0.055811904 -0.53838408 3.9349742
-0.43401 -0.72267962 3.2745483
0.62994766 -1.1259077 3.6889391
-0.09017428 -1.4562405 3.2654884
0.98992586 -0.44207597 3.8584852
0.6167447 -1.0065179 3.7545083
0.54241472 -1.1353719 3.6902018
0.42549309 -1.2517859 3.3811438
0.23517881 -0.91362482 3.6820192
0.65717959 -0.86393023 3.8366537
0.26360124 -1.6014291 3.3733976
0.58968735 -1.0092158 3.7679675
0.7595793 -1.1258069 3.6827526
0.61010909 -1.0311309 3.7403238
0.24850075 -0.95357579 3.757895
0.58847421 -0.99034411 3.7718563
0.45519662 -1.1142325 3.4773488
0.63597143 -0.9097029 3.8245153
0.55360174 -1.1574464 3.478323
0.58083302 -1.186445 3.4958692
0.2424408 -1.3216413 3.5216448
0.037942518 -1.0175891 3.6119969
0.23418824 -1.5642347 3.3869605
0.48904246 -1.1099976 3.7093649
0.25141239 -0.73799682 3.8684344
0.23570316 -0.67025822 3.8310215
0.59030592 -1.0356393 3.7428465
0.65753049 -1.1618251 3.6632519
0.60723299 -1.0623629 3.7259643
0.53732276 -1.1195672 3.6971748
-0.41591889 -0.74525011 3.2704196
-0.04783329 -1.43716 3.3087516
0.21384573 -0.9814195 3.663996
0.23716155 -0.98022336 3.7089083
0.25447798 -0.74495178 3.877753
-0.54027241 -0.59963852 3.6491768
0.23771368 -0.90934646 3.7673464
0.45734647 -1.140429 3.3988709
-0.51745892 -0.534455 3.5949569
-0.53627616 -0.47670215 3.5691774
0.33003151 -0.71302664 3.9520104
-0.27847004 -0.78375047 3.6728914
0.47080165 -1.1114962 3.4871449
0.27180526 -0.55000043 3.9911058
0.50415474 -1.0038401 3.1222732
0.49843636 -1.0051423 3.1087513
0.25148231 -0.63825971 3.9263504
-0.09891592 -0.62676525 3.8238184
0.06054071 -0.54098117 3.9298759
0.064087771 -0.54333562 3.9286311
-0.47716597 -0.61442029 3.6335208
0.24749577 -0.71396363 3.8602636
0.27140096 -0.53801042 3.9947073
1.038419 -0.70527816 3.4759176
0.2547749 -0.70146829 3.9239643
0.50294876 -1.0224937 3.1309927
0.2434442 -0.54591942 3.9187634
0.49705586 -1.0202688 3.1164534
0.24664421 -0.5666545 3.9644389
0.55294752 -0.92789024 3.223032
0.94172716 -0.67950386 3.3447111
0.94102812 -0.68943268 3.3476944
0.24831618 -0.93738025 3.7456388
0.32066363 -1.1722767 3.6607025
0.51429999 -1.1499119 3.4851964
0.44679612 -0.85055041 3.8640795
-0.12958473 -1.2886992 3.3691127
0.6620605 -0.81460571 3.874387
0.6725685 -0.80199605 3.8731089
0.58190578 -1.1342543 3.4262733
0.360526 -1.0891955 3.4141381
0.36343423 -1.0725627 3.4337864
0.34021309 -1.0386647 3.3832114
0.3324616 -0.70256895 3.9468832
0.58261275 -1.0206273 3.7340784
0.45962408 -1.1583456 3.5836535
0.44388533 -1.1622472 3.5980501
-0.89705664 0.079042055 3.412643
-0.47171077 -0.78360128 3.3665395
-0.84712565 0.0034035542 3.554841
0.51127553 -0.92828774 3.7913067
0.4991245 -0.87888968 3.8427792
0.45497125 -1.1138247 3.4763298
0.66573405 -0.89875394 3.8177056
0.39305267 -1.0803876 3.4353776
0.027955741 -1.2744617 3.4356515
0.55206865 -1.1646396 3.5283124
1.0181623 -0.45414436 3.8784039
-0.13952912 -1.1806141 3.3857782
0.1004532 -0.47773951 3.9604421
1.0414766 -0.69550335 3.4606075
0.45543912 -0.8360346 3.8561947
0.92953402 -0.4372983 3.8056021
0.93640262 -0.70569599 3.3573866
0.9401468 -0.69877899 3.3509078
0.64515918 -1.1775328 3.5368576
0.93821305 -0.41913477 3.7311246
0.011846335 -1.4422078 3.2833202
0.077597752 -1.4393027 3.2594039
-0.47175816 -0.72641653 3.3884885
0.61399943 -1.1519419 3.5701759
0.45790449 -1.0948018 3.4153419
0.2385297 -1.1473548 3.6405556
0.39950711 -1.2342558 3.3675957
-0.47503611 -0.77185726 3.3578827
0.52091378 -0.89588124 3.8293831
0.99497569 -0.45878425 3.8121059
0.047564723 -1.2859807 3.4479845
0.74843353 -1.1945457 3.6297405
0.61781198 -0.99182427 3.7667074
0.24578518 -1.3175697 3.5247281
0.23242672 -1.1045151 3.6434281
-0.93950033 -0.1447109 3.6999266
0.62107688 -1.0272969 3.75143
-0.86069769 -0.45619804 3.0999353
-0.85966939 -0.0040181987 3.5589087
-0.86913931 0.039447624 3.529974
-0.87161511 -0.13439277 3.5630615
-0.87037402 -0.14316016 3.555011
0.32415962 -1.1541274 3.6620617
0.59601235 -1.1119817 3.6976526
0.24622744 -0.94821429 3.7595143
0.026689103 -0.96734208 3.6506312
0.5301038 -0.95257878 3.8065238
0.64585358 -1.1657712 3.5285518
0.60032314 -1.1528659 3.508729
0.61441612 -0.91133207 3.8184478
0.032433931 -1.0125065 3.6054866
0.5974136 -0.90965825 3.8172371
-0.57371032 -0.54165065 3.6052353
0.24894242 -0.72880119 3.8728917
0.89062858 -0.23367511 3.760766
0.039027598 -0.40442225 3.983191
1.2048219 -0.40959427 3.4395669
-0.56387615 -0.73393816 3.3351562
-0.47354582 -0.7229808 3.3885489
-0.55200094 -0.75666654 3.3499813
-0.53296697 -0.80021673 3.3006859
-0.47497639 -0.76935613 3.2465701
-0.48236933 -0.76059932 3.2377067
-0.48648521 -0.56061643 3.2694614
-0.93948609 -0.4498722 3.7421353
0.58939028 -1.1490275 3.4608068
0.62744349 -0.94376659 3.7920163
0.049300183 -1.3314662 3.3560333
0.62702388 -0.9430086 3.7944114
-0.13254569 -1.4127467 3.2930362
0.75560558 -1.1701002 3.6233799
0.59900481 -1.1126947 3.6933963
0.58773071 -1.0687344 3.7948971
0.52326334 -1.1427828 3.4841771
0.4529556 -1.1143032 3.4738643
0.028002888 -1.1590455 3.5079744
0.23907329 -0.83644104 3.7648396
0.46728262 -1.1150641 3.4533553
0.23725185 -0.85034215 3.7704558
0.041245677 -0.90834147 3.6842949
0.24608721 -0.94129896 3.7471249
0.022259412 -1.3098564 3.3606496
0.60401994 -1.0799809 3.726598
0.25137237 -0.95222002 3.751591
0.58731902 -1.1978359 3.6344426
0.25232455 -0.61580628 3.9441371
-0.67337006 -0.18394804 3.9060144
-0.77490962 -0.063894004 3.6859117
0.65328795 -1.1311061 3.4723475
0.56685263 -1.1479791 3.5097086
0.41574135 -1.2241617 3.360502
0.2317917 -1.228219 3.5650721
0.26527768 -1.5117879 3.4243741
-0.0057070665 -1.441443 3.2977009
0.6521588 -1.1360178 3.4740942
0.76716828 -1.1134419 3.5935652
-0.64163029 -0.14581911 3.9118567
1.021718 -0.41892079 3.7292724
1.0528947 -0.3099319 3.6830618
0.24688298 -1.0093105 3.7206588
-0.61092198 -0.17294785 3.8885901
0.33333141 -1.1633713 3.6396382
-0.022201529 -1.3795545 3.3633029
-0.62212753 -0.012538396 3.5792103
0.68380201 -1.1483331 3.5553107
0.64615971 -1.2638201 3.5816057
0.88703763 -0.40841597 2.6960633
0.90635771 -0.35018229 2.6460521
-0.4780108 -0.80135673 3.3011487
-0.4619157 -0.25542632 4.0612335
-0.56000686 -0.75829643 3.2686691
-0.46966976 -0.27823171 4.044795
0.64982235 -1.1240427 3.4715142
1.1095698 -0.62367642 3.5396616
-0.14400654 -0.1968566 3.9576695
-0.63775325 -0.16762869 3.9008312
-0.62484264 -0.17438282 3.9218056
-0.63080889 -0.16759233 3.9127824
-0.094066277 -0.32207385 3.9860895
1.2447984 -0.14919466 3.7478607
-1.0570931 -0.52977228 3.2233582
-1.0644429 -0.51827836 3.2131162
-1.0381092 -0.48839074 3.2149837
-1.0313541 -0.48623067 3.2139473
-1.0351721 -0.47049877 3.203567
-1.0137976 -0.49417302 3.2184651
-1.0123024 -0.47683221 3.2104154
0.97237951 -0.47695768 2.9396346
0.97439235 -0.47983095 2.940397
0.96721554 -0.39100227 2.8518543
-0.94569367 -0.15009078 3.7022898
0.98723555 -0.41371959 2.8664119
-1.1072831 -0.060024817 3.6643002
0.97463071 -0.4810386 2.9428389
0.97627819 -0.43786421 2.8575988
0.94245648 -0.58338809 2.9760275
0.94347638 -0.58849347 2.9834862
-0.76883417 -0.11173715 3.7019105
-0.4295679 -0.63774765 3.147342
0.66019213 -0.81865591 3.8755167
-0.86678195 0.002299265 3.5614359
-0.59360629 -0.42046478 2.9148271
0.61025214 -1.1469724 3.7174835
0.820467 -0.14246711 2.3790066
0.78013694 -0.35526669 2.5994606
0.53911895 -1.0015543 2.9507356
0.30833614 -0.60138923 3.9547396
0.54326177 -1.1446238 3.1023402
-0.98152494 -0.21378557 3.9230354
-0.98421764 -0.20413648 3.9177284
0.97396404 -0.49363303 2.903187
0.93964458 -0.60133046 2.9912336
0.93747151 -0.4504565 2.9215531
-1.3026769 -0.15500963 3.201524
-1.0280455 -0.53338176 3.2126033
-0.60959172 -0.69404787 3.4382617
-1.1212335 -0.04399899 3.6584449
-0.51057136 -0.75981963 3.4153619
-0.75254065 -0.41763315 3.5776229
0.27249083 -0.98732835 3.7757368
-0.90485919 -0.22250035 3.735534
0.57135344 -1.1533539 3.513505
-1.1946411 -0.056137804 3.6845825
-1.198437 -0.047092389 3.6791034
-1.2308137 0.00081660785 3.6652989
0.7435016 -0.3216871 2.5531163
0.81834286 -0.14246067 2.3755414
0.61896634 -1.0141513 3.7495666
-0.90886551 -0.070132904 3.55478
-1.0154649 -0.3846285 3.6331832
0.76584101 -0.03135759 2.2696304
0.80528533 -0.1511876 2.3745134
0.61058635 -0.50560075 2.6978736
0.54445183 -1.1237234 3.0912278
0.74914873 -1.1792332 3.6426847
-0.10399134 -0.82635635 3.7103078
0.046999101 -1.0051678 3.617079
-0.85294825 -0.76536447 3.6260867
-1.045606 -0.2070111 3.9552708
0.2295991 -1.3753639 3.5051897
-1.0648392 -0.2239162 3.0013397
-0.81485784 -0.15944213 3.7645619
0.81309336 -0.10677574 2.3347993
0.60499483 -1.0637088 3.7288978
-0.80777454 -0.80560988 3.641273
0.63633031 -1.1370544 3.6864841
-0.43941846 -0.70704824 3.3067055
0.52877766 -1.036222 3.7506461
-0.82174665 -0.15932667 3.7539835
-1.1377918 -0.044585958 3.6952798
0.39894059 -1.104086 3.4247913
0.87910694 2.7314136 -1.6169829
0.63347363 2.4836116 -1.2993253
0.87361026 2.7399201 -1.6021734
0.50624365 2.0588257 -1.6587349
0.053841382 1.7719992 -1.2067403
0.28808624 1.8397892 -1.0495417
0.046151619 -0.78181434 3.7706037
0.23659724 1.6037287 -1.0439166
0.081309542 1.9087812 -1.1304659
0.59358501 2.3341436 -1.1974032
-0.12587802 2.2819889 -1.0921899
0.66008991 -0.85017979 3.8452704
0.060565013 -0.64379251 3.8636384
-0.1131906 2.275238 -1.0702801
-0.20367885 1.9494573 -1.3333131
-0.077438898 1.8307103 -1.3412932
0.10353833 2.1074936 -1.681253
-0.58476734 1.7375476 -1.6490982
-0.99368072 -0.37791631 3.2779906
0.66003042 -0.84915584 3.8481796
1.3330789 0.11576112 2.0853148
1.1076889 -0.12283665 1.7791752
1.1086653 -0.10850218 1.7713903
1.2955058 0.045251109 1.8353283
-3.0134368 2.8294833 -1.2759637
1.2511183 0.080705129 2.0584476
1.4243729 0.63113391 0.73706567
1.1125556 -0.014440141 1.7616906
0.54651648 -1.1241401 3.0818315
1.0284231 -0.085466377 2.2393889
-3.9319081 3.0606952 -1.3511114
1.0410739 -0.16078967 2.3723192
1.3146526 0.46486562 1.2184546
0.5092119 -0.99809456 3.7713866
0.54536426 -1.1283972 3.0879953
1.1887171 -0.10639837 1.7846911
1.2969083 0.08027298 2.0392921
-0.94479454 -0.44483468 3.6391592
1.0760884 0.023976726 1.6150583
1.2563138 0.086498268 2.0629795
0.9766379 0.095281146 1.9258316
1.0113168 -0.065072626 2.2512803
0.42371577 1.8069453 -1.4964323
-4.4073658 2.7437377 -1.0158598
-0.84610832 -0.15963098 3.5967774
1.093092 -0.040974714 1.8031129
1.0195502 0.19738999 1.8310069
1.0671313 0.14858717 1.8015453
1.0567108 0.062293008 1.8454077
1.015105 -0.43662363 3.8293645
-3.8835988 2.6729352 -0.92605573
-0.59804845 -0.6749633 3.4119561
1.0863172 0.068392381 1.551934
2.0967517 2.1993549 -2.6752057
1.1035464 -0.0026173987 1.8451689
1.2740861 0.24345598 2.068362
1.1372079 -0.13106044 1.7750366
1.0426587 -0.26197052 2.5874183
1.017574 0.18628797 1.8439175
1.0177717 0.19950515 1.8287663
0.42008635 -1.1738546 3.4182117
1.3681511 -0.03840176 1.7634504
1.0945961 -0.0093254568 1.8069444
2.126828 2.367573 -2.72773
-4.3809414 2.2868421 -0.74750352
1.3697144 -0.015108888 1.7393949
1.0947455 -0.1555153 1.8316659
0.98281729 0.16880499 1.8541949
0.26922047 1.6678944 -1.2552794
-1.0548806 -0.44951835 3.3850241
1.2872698 -0.10210516 1.6657271
1.0188451 -0.042134065 2.2197907
0.49973473 -1.028296 3.330255
1.082691 -0.0793797 2.4243846
1.0879822 -0.11193104 2.2672131
1.2147362 0.025585884 2.1629922
-0.886482 -0.34684628 3.2045355
-4.4852543 2.3912652 -0.86231077
0.77003509 -1.1130866 3.6755331
-4.6857867 2.6106112 -0.78374535
-1.1339566 -0.34548143 3.2946112
-4.0792584 2.1320884 -0.67677462
0.79404312 2.5390449 -1.6863849
0.5605675 2.2300875 -1.4764389
0.68400621 2.2410035 -1.8776006
-4.6644149 2.7016482 -0.94034165
0.5506835 2.2068224 -1.4388061
1.0229974 0.18366894 1.8452187
0.72592586 0.20222443 1.7205442
-4.7502794 2.6377313 -0.79930907
1.0044481 0.1336852 1.8880856
-4.5383286 2.4364083 -0.92416126
0.2651723 1.8859062 -1.2437928
0.54082817 2.1628177 -1.3479332
0.3022784 1.7496705 -1.1859338
0.66839176 1.8316467 -1.2813557
0.58049053 1.94525 -1.6576753
-1.0599096 -0.52395332 3.2183287
0.38079613 1.8296976 -1.2032433
-3.2314665 2.9376185 -1.3081608
