# .PCD v0.7 - Point Cloud Data file format
VERSION 0.7
FIELDS x y z
SIZE 4 4 4
TYPE F F F
COUNT 1 1 1
WIDTH 461
HEIGHT 1
VIEWPOINT 0 0 0 1 0 0 0
POINTS 461
DATA ascii
0.076435938 -0.50389445 3.9751899
0.24762531 -0.63756269 3.8592687
0.25101027 -1.1136851 3.5193374
0.075623423 -0.6009075 3.8945334
0.26444674 -0.46989426 3.9923825
0.37627184 -1.119252 3.6823297
0.28298953 -1.1981927 3.5980666
0.56313688 -1.0393732 3.098702
0.58265215 -0.96008193 3.7744348
0.52231622 -0.91510165 3.1229477
0.69579142 -1.0830044 3.6731803
0.60303849 -0.98870283 3.7545779
0.65416896 -1.0730133 3.5036485
-0.52974999 -0.69818974 3.4395304
0.61408132 -1.0570232 3.7161839
0.60533601 -0.95087695 3.7800589
0.64812678 -0.99482459 3.7391706
-0.41913891 -0.67491752 3.4097536
0.94805795 -0.31883138 3.7494707
0.070564039 -0.84975696 3.72013
-0.11500046 -0.77215368 3.624444
0.077816956 -0.50296932 3.9775403
0.25927734 -0.62369233 3.867815
-0.111238 -1.3584621 3.3237994
0.069016762 -0.73275286 3.7998271
0.05333044 -0.81261426 3.7467101
0.72396809 -1.0907972 3.5763643
0.077650808 -0.74504733 3.8047187
0.5847764 -0.90294868 3.8037813
0.6349858 -1.0168902 3.7307422
0.57976544 -1.0051198 3.7480416
-0.53027195 -0.68867153 3.4363148
0.43049863 -1.0998569 3.7020528
0.059102088 -0.81481498 3.7414279
-0.090970159 -0.75457215 3.7349207
-0.088909805 -0.75663441 3.7396927
0.56874746 -0.87749517 3.823313
0.56062609 -0.88495642 3.823405
0.55559325 -0.84285009 3.8451271
0.71301365 -1.0839624 3.5781374
0.59213376 -0.82560974 3.8547628
0.55853403 -0.83824193 3.8616698
0.63461995 -1.0760438 3.5177498
0.69055045 -0.80170763 3.8509712
0.31538045 -0.94333071 3.7600744
0.15179892 -1.3297091 3.2746246
-0.089552358 -0.76351625 3.7358639
0.074188076 -0.86653513 3.7152789
0.58325654 -1.0074202 3.7462318
0.54522723 -0.94009829 3.7869914
0.58114588 -0.95068431 3.7743485
0.55642569 -0.89356774 3.8151603
0.61388236 -0.85012859 3.8343408
0.63229007 -0.88221705 3.8083065
0.14660655 -0.45798594 4.0076056
0.54288679 -0.93950528 3.788177
0.52519089 -1.031918 3.7350345
0.60000253 -1.0329309 3.7224612
0.67439789 -1.0634035 3.6918175
0.55450279 -0.98339593 3.7702136
0.69729871 -1.0884501 3.671648
0.063547984 -1.1032286 3.5437241
0.44320038 -0.79089051 3.8919654
0.10586577 -1.2849487 3.3617871
0.085424446 -0.58764499 3.9034009
0.34433943 -1.3363689 3.5035083
0.61242789 -0.84776789 3.8311102
0.61500716 -0.87893397 3.8133993
0.62274361 -1.0469234 3.7094541
0.34532258 -1.3373486 3.5041082
0.54120648 -1.0338494 3.7327499
0.55577713 -0.94962007 3.784827
0.62727654 -0.84462124 3.8356724
0.48790854 -1.0993168 3.6077292
0.34618968 -1.355908 3.4875987
0.34579629 -1.3315541 3.501514
-0.86446208 -0.085233599 3.8014417
-0.9420982 -0.13514596 3.7791326
-0.86415511 -0.087564781 3.8028796
0.59156954 -1.0128721 3.7345672
-0.63756549 0.0082840323 3.6577268
0.075269356 -0.86411679 3.708684
0.62690097 -1.0449009 3.7151613
0.25720328 -0.72715461 3.7961385
0.35650289 -1.1201694 3.6401856
0.61090451 -0.88925135 3.8069444
0.60727829 -1.001518 3.808959
0.57669276 -1.0704498 3.7008393
0.54252118 -1.0151577 3.7366154
-0.062527977 -1.1627302 3.4069161
0.56686538 -1.0650257 3.4932024
0.49997675 -0.86612129 3.8397024
-0.11288811 -1.121863 3.4053512
0.53473985 -0.81998736 3.8634005
0.068605445 -1.03971 3.5991738
0.59266275 -0.82869035 3.8610227
0.69570029 -0.76214224 3.8779004
-0.62474769 0.0011662304 3.6525116
-0.56250101 -0.013029165 3.6137211
-0.56598169 0.00080414576 3.6154456
0.52065557 -1.0348492 3.7371752
0.3672311 -1.1350303 3.6818602
-0.42209885 -0.6894322 3.3246756
0.66926837 -1.0558437 3.7001474
-0.77484214 -0.12535807 3.7758541
-0.76585615 -0.13545334 3.7779245
0.59214312 -1.0948613 3.5360334
0.65253329 -0.9390595 3.7694938
0.14971852 -1.3291379 3.2741821
0.68877661 -0.79716146 3.8547318
0.66514772 -1.0362567 3.711005
0.62598789 -0.94334996 3.7835457
0.44754562 -0.75009799 3.9152334
0.28252542 -0.90286446 3.7837067
0.57795781 -0.99646729 3.7490911
-0.52106208 -0.83935511 3.7933929
0.33709776 -1.0165067 3.705461
0.45477253 -1.0244731 3.4818757
-0.011940175 -1.3961043 3.2935231
0.5682773 -0.99171019 3.7526531
0.6737982 -1.0621698 3.6917837
0.6271103 -0.96900225 3.7576549
0.5767042 -1.0539132 3.7108965
0.32539108 -0.95967847 3.3836136
0.32356071 -0.93720156 3.3667324
0.35544378 -0.63626701 3.9752653
0.28115898 -0.61756104 3.9601429
0.35424951 -0.83919424 3.9346929
0.000970038 -1.1456198 3.4004674
0.27004474 -0.85944867 3.7947171
-0.50528562 -0.51423556 3.652456
-0.5273174 -0.45668656 3.6288598
0.35843766 -0.66444021 3.982662
0.29410622 -0.50536388 4.027966
0.27600324 -0.59259349 3.9611881
0.081102245 -0.5041467 3.9723692
-0.46048459 -0.59335822 3.6876359
0.27362376 -0.66651261 3.8930361
0.29326695 -0.49351013 4.0319262
0.28202683 -0.65549767 3.9568713
0.52308506 -0.94260979 3.1488433
0.51671648 -0.94024462 3.1345286
0.26900986 -0.52237755 4.0014658
0.57126594 -0.84847587 3.2423224
0.948322 -0.59487355 3.3610339
0.95157319 -0.59638816 3.3640907
0.48885015 -1.0531005 3.4962287
0.2812995 -0.88635558 3.7719383
0.36170146 -1.1152767 3.6783683
0.69862276 -0.74298191 3.8906267
0.5768826 -0.7673313 3.8923466
0.35664132 -1.1166271 3.634933
-0.090514265 -1.2436079 3.3949351
0.69246638 -0.74874741 3.8937571
0.61470443 -1.0589582 3.4386437
0.39130309 -1.0235876 3.4334147
0.43013 -1.1832387 3.373337
0.36796102 -0.97317314 3.4045014
0.61853051 -0.95411122 3.7495265
0.49781972 -1.0929439 3.5982828
-0.91636825 0.086433083 3.4977961
1.0160178 -0.34658989 3.8722064
0.5447154 -0.86672187 3.8112118
0.87804002 -0.30529845 2.7423782
0.58240056 -0.96951962 3.7781007
0.53175652 -0.8193872 3.8643975
0.4883599 -1.0456785 3.4924593
0.4239589 -1.0139248 3.4540763
0.067948058 -1.2241688 3.457871
0.58895439 -1.0935121 3.5404696
-0.10478958 -1.1365911 3.4150014
0.70795518 -1.0962191 3.5200286
0.56422442 -0.96679157 3.7738469
0.94105697 -0.35799745 3.8293245
0.6827181 -1.1024365 3.5462852
-0.061580684 -0.38215619 4.0453029
0.93910766 -0.35058361 3.8245854
0.0552532 -1.3881218 3.3011506
-0.53948647 -0.68116552 3.4286845
0.65134907 -1.079221 3.5811129
0.488832 -1.0248362 3.4319994
-0.085911497 -0.57722831 3.8589327
-0.4586862 -0.74272984 3.4075427
0.65327168 -0.92468143 3.7820871
-0.99624676 -0.36951974 3.3498065
-0.86464065 -0.4376263 3.1687429
0.79057872 -1.1179751 3.6393509
-0.88362801 0.044853251 3.6131775
-0.87752753 -0.12978363 3.6412156
-0.87611312 -0.13825652 3.6328833
0.87621278 -0.2973651 2.7298341
0.66570276 -1.1019117 3.5353677
0.63499242 -1.0437099 3.7101169
0.058778223 -0.9235816 3.6817095
0.56499708 -0.89055878 3.8252323
0.60170114 -1.0294676 3.714052
1.0570958 -0.58720583 3.4698532
0.26571557 -0.47668615 4.083324
0.81055176 -0.8766014 3.6469257
0.27135259 -0.85373181 3.8035042
-0.10336982 -1.1959046 3.3988519
0.39419743 -1.0378797 3.4453347
0.070803806 -0.99477291 3.6180859
0.06531959 -0.9671548 3.6351323
0.63060063 -0.84496975 3.8354974
0.33538875 -0.56819367 3.9903026
0.52227855 -0.91382706 3.1254261
-0.5608713 -0.52424228 3.6639338
-0.48677239 -0.52979827 3.6532106
0.27605981 -0.68161905 3.905184
0.8026818 -0.96514553 3.6457844
0.44311768 -1.0474173 3.4547629
0.94901592 -0.3240937 3.7497509
0.89200056 -0.15515238 3.791461
0.49412569 -0.77913666 3.1905725
-0.54968864 -0.70822465 3.3881814
-0.45854983 -0.69471711 3.4395785
-0.53643036 -0.73080313 3.4020309
-0.51679891 -0.77204949 3.3510184
-0.46168494 -0.73710072 3.2963848
-0.46969047 -0.72843993 3.2879703
-0.48181421 -0.52981669 3.3256574
-0.92659825 -0.45290723 3.8126342
0.50916857 -1.0505587 3.5255167
0.50697529 -1.0154732 3.4990604
0.48483202 -1.0404375 3.4865136
0.61275184 -0.88686234 3.8956609
0.6614328 -0.87696928 3.8085406
0.79497951 -1.0924745 3.6301773
0.55805099 -1.0717422 3.4977326
-0.53272235 -0.81790638 3.7732031
0.40703887 -0.99200523 3.4307601
0.43935266 -0.88939416 3.832639
0.26705346 -0.80063576 3.7995625
0.48403665 -1.0359454 3.4691982
0.071594603 -0.86495513 3.7167079
0.27928632 -0.89041084 3.7733645
0.36361814 -0.66408211 3.9792814
0.34986931 -0.59925717 3.9639163
0.30408946 -0.74539161 3.8907728
0.32856753 -0.68951029 3.9032638
0.628438 -1.1280577 3.6446607
0.50388575 -1.0988854 3.6001148
0.27632123 -0.57063371 3.9795976
-0.42596522 -0.66432816 3.4028432
-0.65818238 -0.20054142 3.9518025
-0.66827077 -0.17998445 3.9774671
-0.88215387 -0.42622963 3.197866
0.44888762 -1.0731939 3.4362383
0.68707222 -1.0538961 3.4829769
0.6024884 -1.0756866 3.5219946
0.45288119 -1.1195258 3.7097304
0.45100021 -1.1543704 3.3744776
0.03807012 -1.3885525 3.3159852
0.68620831 -1.0589007 3.484607
0.28239143 -0.95754677 3.7449081
0.37340027 -1.1052215 3.6572614
0.65538591 -0.95171773 3.7661207
0.78104156 -1.0315189 3.510994
0.41772559 -1.0384763 3.4701979
-0.4498229 -0.2462059 4.1251507
-0.5465067 -0.73050559 3.3209336
-0.45699224 -0.26886615 4.108252
0.35416222 -1.1110624 3.6325743
0.68327647 -1.0469753 3.4824383
0.67599201 -1.1840395 3.6117418
-0.081525169 -0.29257134 4.0373139
-0.61981326 -0.16869201 3.9923036
-0.0815024 -0.29408789 4.0388427
-0.88245499 -0.2310887 3.7136209
-1.0623689 -0.51197243 3.2851567
-1.0307209 -0.4785037 3.2860916
-1.0355053 -0.46267408 3.2762754
0.96266973 -0.37133145 2.9617629
0.9648273 -0.3741315 2.9623899
-1.1134934 -0.068975165 3.7504938
0.96518344 -0.37539536 2.9647887
0.93846244 -0.47998184 2.9957681
0.93990457 -0.4852438 3.0030463
-0.7722097 -0.10643585 3.778034
0.69080973 -0.75290775 3.8948145
-0.87879592 0.0069790292 3.6434693
0.36656311 -1.0801066 3.6617405
0.65128756 -1.0785677 3.7285504
0.79816037 -0.91925961 3.7527449
0.4301582 -1.0979102 3.4310195
0.61062717 -0.89833128 3.8110342
0.35552287 -1.0734079 3.6523759
0.55350661 -0.91500485 2.9684222
0.56799293 -1.0619476 3.1156228
-0.97424352 -0.22413054 4.0013671
-0.97750032 -0.21446709 3.9964147
0.95728385 -0.39419782 2.9343362
0.93685138 -0.49845293 3.0105088
0.92615604 -0.34593084 2.9453499
-1.3166764 -0.15961437 3.2902069
-1.0253649 -0.52540159 3.2832854
0.63699865 -1.018255 3.7553775
-0.59437913 -0.67334664 3.4935293
-1.1282898 -0.053435337 3.7454631
-0.49318495 -0.73392445 3.4662266
0.87646252 -0.013089585 3.6406965
-0.74003816 -0.6670081 3.788121
-0.74568552 -0.40767378 3.6444774
-0.43498278 -0.59452266 3.3694022
0.56037432 -1.0439911 3.4739912
-0.63870007 -0.4507775 3.6815307
0.66124493 -0.8573786 3.8245819
-0.90225917 -0.22411147 3.8118188
0.60732174 -1.0809579 3.5255172
-1.1515713 -0.055135168 3.7780018
-1.2003702 -0.069596313 3.7730758
-1.239527 -0.013808525 3.7563848
0.71698666 -0.21571881 2.585844
0.27743745 -1.1934617 3.5937479
0.77909064 -0.028384523 2.4117603
0.60894781 -1.0103444 3.7398059
-0.91779274 -0.067058451 3.6357596
-1.0029376 -0.39569962 3.7172823
-1.0082498 -0.38811338 3.7075872
0.71893501 0.083175473 2.3105023
0.7664097 -0.037658062 2.4108067
0.59622449 -0.40942553 2.7284608
0.56796181 -1.0407107 3.1051002
0.28561252 -0.51731896 4.0093837
-0.076390058 -0.79035479 3.7487602
0.079847418 -0.95949674 3.6465635
0.32421139 -0.94760668 3.3753622
0.94133109 -0.31850389 3.8106089
0.84799457 -0.26359487 3.8683856
0.86765736 -0.33532789 3.8547637
0.91842496 -0.27639475 3.79252
0.59150255 -1.0200673 3.714931
-0.065857686 -0.38603312 4.0297585
0.074139208 -0.57276696 4.1511865
0.58612704 -0.8999899 3.8069072
0.65309256 -1.114589 3.5880113
-0.54765493 -0.66338938 3.4582186
-0.94175291 -0.47913706 3.8384809
-0.98327243 -0.20856085 4.0443716
0.87846512 -0.30027169 2.7377841
-0.62504131 -0.69752461 3.5574477
0.67161137 -0.30896392 2.8060226
0.67517495 -0.34910521 2.8277252
0.69761628 -0.43786907 2.8911951
0.27563179 -1.317806 3.5193236
-1.0814056 -0.21209033 3.0821624
1.0360122 0.18989632 3.4251337
0.88531947 -0.23837316 2.7701643
0.66008627 -0.86608356 3.8092906
-1.1287738 -0.055617977 3.7449696
-1.1859767 -0.029361792 3.7656567
1.036093 -0.08326944 3.3479874
-1.1602933 -0.1049008 3.7325461
-0.57165527 0.011759732 3.6182339
1.085878 0.090228505 3.2196407
1.0800214 0.041368887 3.2467723
0.77118933 0.0081589939 2.372225
1.0021464 0.040951982 2.3822713
0.63294637 -1.0164411 3.730535
0.27222285 -1.3151662 3.5123937
0.26558632 -0.73505396 3.8703177
0.57269448 -0.87005669 3.2474048
0.62412554 -1.0375518 3.7095234
-0.69189197 -0.1085379 3.6323566
1.0701849 0.12865859 2.209197
0.96352977 0.10102519 2.2475686
1.0040278 -0.16242173 2.6368399
1.1787496 0.22126538 2.137079
-0.42734063 -0.67497021 3.3574023
1.060813 -0.63591588 3.4480915
-0.94412667 -0.45451504 3.7334349
-0.71979266 -0.11057014 3.9338403
0.58037448 -0.94668454 3.7740424
-0.82156575 -0.15780394 3.830009
-0.88525844 0.02382951 3.5792959
0.43940455 2.3591912 -1.6193944
0.60133368 2.9642282 -1.480034
0.071908437 1.9778988 -1.0154718
-0.16401744 1.949653 -1.0925626
-0.079496033 1.8922689 -1.1192634
0.24347232 1.9406753 -1.4293989
0.073177546 -0.74081141 3.806531
-0.21587789 1.9030062 -1.1497391
0.49048069 2.7560916 -1.5634389
-0.067249663 1.8924278 -1.1093017
0.44290704 2.2082703 -1.7344074
-0.13745369 2.0876935 -1.0433205
0.083924465 -0.60495025 3.903172
-0.34949431 2.4408276 -0.93726891
-0.4341538 2.4521933 -0.98489493
-0.99619752 -0.37044621 3.3523073
0.6912747 -0.78260356 3.8666093
1.0513903 0.021000048 1.8091218
1.0440639 0.071658768 1.77463
1.1930122 0.2228619 2.0905278
1.1098198 0.11884961 1.8307191
1.1633586 0.24038562 2.1071334
0.98276228 0.041813608 2.2720833
-4.2053394 3.0611646 -1.0986788
1.0022513 -0.036570452 2.4023914
0.94502741 0.27494991 1.936365
1.1980643 0.22875337 2.0950949
0.91474015 0.2287887 1.965354
0.96509069 0.061074302 2.2849936
-0.85004449 -0.15478574 3.6735251
-4.1286702 2.6641784 -0.68650442
-4.7338605 2.5142286 -0.86673725
1.0140098 -0.1435834 2.6143293
0.94942325 0.32381254 1.8851326
0.45464027 -1.1055608 3.433507
1.3073508 0.11748313 1.7893163
-4.6249857 2.6926548 -0.78779846
-4.768538 2.5060732 -0.47497427
-4.6035285 2.2512217 -0.50685102
-5.0430474 2.5653813 -0.73412198
-4.907618 2.7598627 -0.74418187
0.48800805 2.7989929 -1.4123274
0.31062153 2.5243886 -1.4940777
1.041301 -0.013690641 1.8609433
0.91575909 0.30450067 1.8957665
-4.6725979 2.5804477 -0.55947602
0.054398734 1.8567549 -1.1495392
-1.0513114 -0.44771087 3.4587078
1.22681 0.052975304 1.6918399
0.97075945 0.085204549 2.254009
0.5254088 -0.95414937 3.3478682
1.0500016 0.2440155 1.7803234
1.0415872 0.045134801 2.4557517
0.074433967 1.9591551 -0.98437309
1.0441506 0.017285319 2.2976115
-0.89246231 -0.33252949 3.2771146
-3.4737158 1.3330848 0.70563412
-4.7153659 2.3540287 -0.61588836
-4.7577109 2.523304 -0.90097392
0.80824655 -1.0363575 3.6835964
-4.9232621 2.56183 -0.52590972
-4.7558889 2.6487336 -0.637519
-1.1372825 -0.34483898 3.3733995
-4.2935224 2.108279 -0.44830546
-0.22077782 1.9209843 -1.174969
0.26380116 -0.65921211 3.8774054
-4.7907419 2.6231823 -0.80116522
0.31461015 2.4374876 -1.361424
0.42677808 2.4652209 -1.7650775
-4.8455906 2.5826552 -0.80687988
-4.9100966 2.6581025 -0.68026376
-5.7288017 2.515573 -0.56157273
-1.0400482 -0.36666155 3.3438389
0.27476647 2.0785875 -1.4294317
0.32605928 2.3827968 -1.3145262
0.6541909 0.33006522 1.7696669
-4.9892821 2.5864463 -0.53904307
0.93981338 0.26945153 1.9280591
-5.6404719 2.0654874 -0.83733493
0.91517603 -0.29786149 3.794208
0.30127847 2.3658121 -1.2344853
0.66994739 0.432154 1.6944147
-0.39696962 2.1849871 -1.1807495
0.27408153 2.2305932 -1.5344959
-1.0574522 -0.51758182 3.2900853
