# .PCD v0.7 - Point Cloud Data file format
VERSION 0.7
FIELDS x y z
SIZE 4 4 4
TYPE F F F
COUNT 1 1 1
WIDTH 179
HEIGHT 1
VIEWPOINT 0 0 0 1 0 0 0
POINTS 179
DATA ascii
-0.18665293 0.10430515 1.9145691
0.17663704 -0.47226816 3.7713013
0.3390021 -0.60247356 3.6397913
0.17041062 -0.56990153 3.6916354
0.32503501 -0.8539452 3.4658287
0.54704016 -0.87875789 2.8814781
0.73135835 -1.0378652 3.3227098
1.1001614 -0.56960976 3.1439233
0.6913783 -0.94533008 3.5024648
1.0167388 -0.26701304 3.4598176
0.72474951 -1.0574136 3.3292859
0.15467507 -0.820162 3.5199082
-0.041350462 -0.74802786 3.4425588
0.35107473 -0.58824641 3.647074
0.13918227 -0.78325903 3.5478585
0.67582726 -0.85968095 3.5527704
0.66107273 -1.0300609 3.4534535
0.51744884 -1.061219 3.4677887
0.66114265 -0.83448809 3.5736504
0.64930409 -0.80001616 3.5964694
0.56900805 -1.0608913 3.3689005
0.67136329 -0.96460646 3.4962084
0.67055815 -0.90772289 3.5240932
0.70641863 -0.80590361 3.5800316
0.61313254 -0.99065131 3.4909172
0.68634576 -0.98987174 3.4710398
0.72212487 -1.0022287 3.4529598
0.70622462 -0.83483505 3.5592349
0.75180441 -1.0089437 3.4404845
0.84453964 -0.97792602 3.4380178
0.70177579 -0.84530318 3.5532706
0.7012772 -0.95760638 3.5562313
0.66200292 -1.0281366 3.4520199
0.63009399 -0.97344637 3.4906938
0.65081155 -0.85060048 3.567493
0.59404576 -0.82472759 3.5966749
0.6347267 -0.98261863 3.4897153
0.72906864 -0.79822421 3.5794182
0.78981549 -0.71553785 3.6148479
0.60890734 -0.99367923 3.49351
0.59538925 -0.82802469 3.5955887
0.70370609 -0.81863099 3.5661354
0.45505416 -0.96657807 3.2192833
0.75749934 -1.0174762 3.4333971
0.78014266 -1.0445884 3.4122288
0.73154795 -0.95014054 3.4834576
0.1566844 -0.92137516 3.445612
0.38753632 -0.45587102 3.646764
0.64113724 -1.046635 3.2063003
0.46207333 -0.62557131 3.7518075
0.542647 -0.88860863 2.8863037
0.37609166 -0.55600202 3.7381775
0.18100823 -0.47242454 3.7680359
0.37127578 -0.48567095 3.7785733
0.55404091 -1.0146213 3.2569704
0.4542827 -0.97166997 3.2235148
0.70539629 -0.91039872 3.4957273
0.57403481 -1.0534222 3.3578551
-0.43069175 -0.74648887 3.6593506
0.84767681 -0.26316756 2.4644666
0.62687802 -0.77701259 3.6178694
0.55299002 -1.007244 3.2532282
0.62778515 -0.73900032 3.6324546
0.48432449 -0.9774307 3.2212086
0.1359842 -1.1965694 3.2611825
-0.04234463 -1.1137253 3.2350748
0.63698989 -1.0009816 3.1672654
1.0160463 -0.29839015 3.5356171
0.44949254 -1.0602387 3.4525075
0.6579392 -0.84762681 3.5759995
0.70354497 -1.0366349 3.2662845
0.37486547 -0.43943563 3.8601134
0.37132585 -0.51781052 3.7714555
-0.040982921 -1.1731091 3.2191803
0.14863634 -0.96592283 3.4191115
0.7725141 -1.0211318 3.2337971
0.5487597 -1.0021406 3.2476311
0.72269583 -1.0002779 3.4507535
0.66616637 -0.81578541 3.5865574
0.6659956 -0.81534976 3.5865729
0.5461489 -0.99780625 3.2304547
0.15575771 -0.83535564 3.5164821
0.46688515 -0.62510896 3.747931
0.71208882 0.0096069397 2.1443644
-0.34702992 -0.24975918 3.9550188
0.74594355 -1.0036924 3.2240582
-0.35056573 -0.24352847 3.950527
0.75496852 -1.1398767 3.3541791
-0.5388698 -0.14840397 3.836127
-0.53050023 -0.14811528 3.8471239
-1.0239224 -0.5145486 3.1968827
-0.8697471 -0.14859514 3.6777802
0.9372378 -0.4342716 2.7115977
0.93952471 -0.43943807 2.7187262
0.70213765 -0.8543548 3.5574162
0.71207958 0.0086251451 2.1469092
0.52348322 -0.98543495 3.2418413
0.95327556 -0.34112132 2.6379755
0.91656077 -0.30097476 2.6619234
0.49485403 -1.06949 3.2068462
0.70444417 -0.93895227 3.53332
-0.35754329 -0.2137574 3.9409971
0.75330985 -0.80050695 3.5754099
0.72894436 -0.99764317 3.1922631
-1.1297367 -0.06311892 3.6889491
0.66973978 -0.1789199 2.3240869
0.43809697 -1.0792317 3.4053912
0.59395009 -1.0033095 2.85989
0.77438879 -0.74534422 3.5977716
0.19344862 -0.5397917 3.9470322
0.72805315 -1.0712159 3.3324504
-0.85035914 -0.47432855 3.7354474
0.81747222 -0.29275429 2.6191444
-0.82271314 -0.48522213 3.7186036
-0.93729246 -0.21410131 3.9302719
-0.90978891 -0.18681358 3.9571013
0.85698557 -0.34594452 2.5612385
0.84723592 -0.26133606 2.4863272
0.64867383 -0.2715492 2.5481589
0.85591638 -0.19586343 2.4910429
-0.73180687 -0.14997652 3.7230997
0.74923903 -0.2419446 2.4363406
-1.1121399 -0.031455841 3.6846442
0.52278143 -0.15583831 2.3718851
0.43348581 0.01570059 2.1238792
0.90847051 -0.43602461 3.2046707
0.88058066 -0.50246269 2.9914792
0.65883124 -0.90921324 3.1347208
-0.57136792 -0.4187392 3.5232823
0.53868097 -0.11222923 2.4266376
0.90792388 -0.58744317 3.194299
-0.08678171 2.3550303 -1.8470058
-0.1037214 2.2442079 -1.8897544
0.072328657 2.9650431 -1.7275051
-0.25272509 2.2611277 -1.7573408
-0.32009351 2.3579986 -1.04757
-0.37761179 2.0154638 -1.1322498
-0.59210557 2.0609038 -1.1825107
0.16294877 -0.71050966 3.6050491
-0.40522045 2.4356763 -1.0358829
-0.68064362 1.886133 -1.3126471
-0.48814902 2.3940148 -1.0008655
0.78459561 -0.73715276 3.6012356
0.17962311 -0.57366514 3.6994355
-0.80661225 2.4220583 -1.0909156
0.9775883 0.159527 1.5321586
0.89659905 0.082774512 1.9842983
-5.3161144 2.5108953 -0.31007943
-0.029465752 2.7975333 -1.6480825
-5.0737534 2.4553304 -0.28976345
-5.2929363 2.5113266 -0.37247759
-5.3193336 2.4306474 -0.23156424
-5.166059 2.520874 -0.35958308
-5.2161651 2.493165 -0.51886052
-5.2702403 2.451221 -0.5189271
0.47380477 0.42415279 1.4725678
-5.3239141 2.5260062 -0.38697541
-0.11484561 2.6237831 -1.4909424
-0.19109106 2.4075396 -1.5405196
0.82376891 0.35853392 1.6015635
0.48888457 0.469354 1.4210032
-5.386941 2.4534833 -0.2382599
-0.87132794 1.9787991 -1.327167
0.5321815 0.19264913 1.8683281
-1.012437 -0.51561219 3.3052976
0.53834492 0.41172838 1.4383324
-0.10929243 2.3903213 -1.6277481
0.9878841 -0.24653007 3.5074649
-5.1749907 1.4618014 1.4036655
0.48439133 0.26383534 1.7475991
0.434367 0.21723799 1.7953168
-6.3871918 2.5101783 -0.2916213
-0.18650383 2.3611822 -1.4504009
0.5184679 0.46053278 1.438189
-0.87115687 2.1631942 -1.3271666
-0.54205304 2.0776095 -1.2077384
-1.0184011 -0.51999307 3.2013326
-0.16054818 2.5815551 -1.3950034
-0.42332074 2.0123248 -1.3706495
