# .PCD v0.7 - Point Cloud Data file format
VERSION 0.7
FIELDS x y z
SIZE 4 4 4
TYPE F F F
COUNT 1 1 1
WIDTH 493
HEIGHT 1
VIEWPOINT 0 0 0 1 0 0 0
POINTS 493
DATA ascii
0.15847121 -0.42676666 3.8050876
0.15189895 -0.52557296 3.7269096
0.4523221 -1.0260197 3.4751165
0.76248562 -0.96705228 3.4133768
0.67732316 -0.87768215 3.5076201
0.71964866 -0.8809182 3.4851279
-0.40791133 -0.6471945 3.3305521
0.16014133 -0.42568576 3.8071682
-0.53201896 -0.70856619 3.2307823
0.13997011 -0.65987945 3.6362696
-0.072918735 -1.0870502 3.2876892
0.65225714 -0.96220243 3.4611838
0.61089301 -0.94649446 3.4914255
0.13549648 -0.92301047 3.4721403
0.15018345 -0.67139256 3.639842
0.13206485 -0.92028356 3.474504
0.66087669 -0.79226512 3.5580354
0.70701379 -0.90407836 3.4792476
0.64810348 -0.96438491 3.4614823
0.50741315 -1.0022752 3.485455
0.12692492 -0.7438783 3.5813427
0.12735003 -0.7493993 3.5841699
0.15045743 -0.67466336 3.6375802
-0.026320169 -0.69480252 3.5986843
0.52765226 -0.63725716 3.6887925
0.70987058 -0.88971663 3.5029006
0.63434225 -0.73341328 3.6028166
0.63957042 -0.72819257 3.6185946
0.66471034 -0.655958 3.5922232
0.12340193 -1.0416659 3.3857338
0.18121342 -1.2622591 3.1123564
-0.024099089 -0.70359462 3.5994983
0.67783815 -0.8734349 3.508127
0.141422 -0.79501313 3.5537493
0.70955992 -0.91751784 3.4730818
0.5821076 -0.75981575 3.6075532
0.63982147 -0.77161759 3.5802326
0.63412094 -0.78467256 3.5737748
0.85123259 -0.97700018 3.3757887
0.70764965 -0.9099462 3.4717908
0.70679843 -0.76805252 3.5544622
0.61988354 -0.83212787 3.5499642
0.60081363 -0.92687714 3.5016286
0.600887 -0.92403126 3.5023024
0.52774829 -0.76519108 3.6264849
0.74298245 -0.94858605 3.4350066
0.63170409 -0.87550163 3.5309117
0.76413018 -0.97241163 3.4116893
0.76285022 -0.97142434 3.4122305
0.12095887 -1.0360751 3.3893156
0.34388661 -1.4268588 3.215122
0.15481931 -0.53112632 3.7314422
0.14678025 -1.2187631 3.205271
0.76766795 -0.61899841 3.6244438
0.16198142 -0.51142013 3.7338831
0.71337199 -0.87804085 3.4889667
0.40825808 -1.2492806 3.3067434
0.70755512 -0.93363929 3.456744
0.68835974 -0.73456657 3.5797598
0.62237632 -0.63288105 3.6646233
0.56060731 -0.70424944 3.6590629
0.72721279 -0.62930167 3.6364582
0.70347202 -0.73024362 3.5817916
0.54856783 -0.99995416 3.3830147
0.69384694 -0.83009118 3.5207329
0.8488028 -0.9917767 3.3573794
0.43036577 -1.0298378 3.4253032
-0.41833621 -0.65237951 3.2855871
0.76533902 -0.62039727 3.6236713
0.77890301 -1.0123774 3.382786
0.42610875 -1.0294154 3.4367874
0.68606585 -0.77664346 3.5567062
0.64884329 -0.9624359 3.4599731
0.61685967 -0.9088757 3.500138
0.61490935 -0.90422779 3.5095551
0.65170944 -0.92258471 3.4869156
0.68477798 -0.92948282 3.4691408
0.63645154 -0.78422284 3.574275
0.60510713 -0.96293145 3.2566855
0.58049345 -0.76076525 3.6068599
0.66324139 -0.79222834 3.5573757
0.61506599 -0.71166486 3.6239569
0.70870155 -1.0160636 3.3973775
0.62186402 -0.91782451 3.4989445
0.71265048 -0.72797638 3.5805769
0.65618217 -0.65336651 3.6442642
0.13014261 -0.97098988 3.4423666
-0.62174475 0.018152902 3.5949075
0.71000171 -0.99398392 3.341361
0.59691894 -0.93007338 3.5045199
0.42235646 -1.1704797 3.3478255
-0.42352259 -0.66400886 3.2472978
0.73871678 -0.94120997 3.4439647
-0.534271 -0.69599789 3.4953473
-0.73990506 -0.11574598 3.7427566
-0.72996825 -0.12511159 3.7434602
0.63916659 -0.98978448 3.2951884
0.72470248 -0.82423937 3.5135996
0.73494828 -0.9217059 3.455096
0.70188224 -0.85693175 3.5068846
0.6554535 -0.83324885 3.5312636
0.71834016 -0.84944141 3.5003552
0.69859082 -0.81148297 3.5363421
0.71128041 -0.79399091 3.5408607
0.65234131 -0.88737094 3.5064089
0.32329738 -0.81217533 3.5224843
0.73771536 -0.95127618 3.4356449
0.61885095 -0.81872994 3.5483074
0.74229407 -0.94740003 3.4350555
0.70002341 -0.85622525 3.506465
0.64924014 -0.9456951 3.4696786
-0.85569537 -0.19188821 3.7080767
-0.85410863 -0.18771107 3.7112823
0.040984746 -1.3287603 3.1914127
0.19097327 -1.2695296 3.1180587
0.43320113 -0.94525731 3.2569091
0.32467708 -0.95282668 3.4596682
0.75984138 -0.94635534 3.2260735
0.086904868 -1.1659403 3.3140011
0.4323366 -0.45849413 3.9873679
0.84542477 -0.97132778 3.378
0.38723511 -0.55250102 3.7788303
0.34646907 -0.77182811 3.5999949
0.54351658 -0.94518197 3.2762232
0.35923165 -0.5011574 3.7597895
0.16262412 -0.42675206 3.8015454
0.49933156 -1.0760381 3.1503897
0.36919314 -0.56355125 3.7553587
0.35359508 -0.43064338 3.7997577
0.92640054 -0.46118841 3.0575323
0.76981181 -0.62849283 3.6271915
0.59990311 -0.68298286 3.6486652
0.55630845 -0.99312115 3.3719933
-0.94016773 0.07825838 3.4888699
0.73921388 -0.91976684 3.4531498
-0.85581857 0.0087823281 3.6172945
0.61993849 -0.75884879 3.5714476
0.73237705 -0.20175493 2.4553335
0.61224711 -0.71125674 3.6254206
0.52628899 -0.94932389 3.2685392
0.77220696 -0.71157938 3.5688984
0.61222959 -0.67306614 3.6395614
0.12047387 -1.1584927 3.3054683
0.63664675 -0.98855823 3.3000686
0.25715196 -0.32881579 3.8817639
-0.06302359 -1.084707 3.290293
0.20014738 -0.35933143 3.8254886
0.64060837 -0.8581534 3.5326917
0.094918773 -1.3268039 3.1550646
-0.44589821 -0.66332275 3.3635323
0.70354956 -0.96879005 3.3297744
-0.44207621 -0.71771759 3.3357136
0.63288361 -0.72558361 3.6077623
0.14325295 -1.1676664 3.3136082
0.85082078 -0.9955346 3.3618908
0.70779204 -0.81028914 3.5325079
-0.90142393 -0.14923291 3.77373
-0.88612127 0.042048994 3.5978723
0.35085759 -1.1835508 3.350579
0.35767779 -1.4173659 3.2019384
-0.86242944 -0.13093625 3.6267893
-0.86175072 -0.1394908 3.618448
0.1251123 -0.85384482 3.5238912
0.6439606 -0.78080189 3.5822699
0.72374082 -0.73004186 3.5790207
0.86580867 -0.87605703 3.4369047
0.80804843 -0.8241114 3.2230773
0.35476199 -0.46282917 3.7929511
0.26635924 -0.44165424 3.6625085
0.8409282 -0.51144743 3.1883612
0.83992618 -0.4670929 3.172807
0.83191526 -0.5144425 3.1969011
0.48392543 -0.81979191 2.8969474
0.34875 -0.76581371 3.6083753
0.42541653 -0.94952095 3.2373488
0.13198903 -0.92555225 3.4600828
0.12727764 -0.89798409 3.4774382
-0.44591326 -0.50128806 3.579896
0.34134141 -0.7627098 3.5996735
0.64546597 -0.67393082 3.6704912
0.61539686 -0.62589729 3.6676338
0.85405529 -0.98093474 3.3752778
0.96692395 -0.19017097 3.4377
0.58740622 -0.9172098 3.1871579
-0.52035975 -0.71157312 3.3428349
0.92886883 -0.15874192 3.4239726
-0.85860163 -0.4523682 3.8080847
0.75571346 -0.64174402 3.1437747
0.55248863 -0.95186126 3.2978094
0.52145958 -0.94450146 3.2631831
0.73511493 -0.76071149 3.5498602
0.73507476 -0.76001012 3.5523083
0.67532843 -0.97243726 3.2776086
0.58667707 -0.69763142 3.6733475
0.12111709 -1.0439349 3.3791409
0.53406656 -0.94909728 3.2436314
0.77739912 -0.62418985 3.6286578
0.33988467 -0.71328151 3.6045039
0.51753205 -0.94051307 3.2461741
0.53656387 -0.70094138 3.6533816
0.10469171 -1.1942259 3.2320888
0.12298562 -0.84427691 3.5237105
0.3869518 -0.6532445 3.6877093
0.69498461 -1.0175475 3.3968387
-0.5909428 -0.1778903 3.8982179
-0.59825569 -0.15747918 3.9249191
0.48040962 -0.9810136 3.2198894
0.47858649 -1.0633458 3.1596684
0.50862318 -0.9975875 3.4846539
-0.54192865 -0.13927071 3.8962817
0.77616715 -1.010572 3.379806
-0.36248833 -0.22758466 4.020534
0.42188653 -1.0206943 3.4295444
-0.36660928 -0.22158885 4.0162249
-0.56637084 -0.13712212 3.913487
-0.54902333 -0.14235213 3.9314852
-0.55733085 -0.13629162 3.9239104
-0.0023974134 -0.22737615 3.8909929
-1.0628221 -0.54482657 3.3191159
-1.0732467 -0.53425413 3.3107145
-1.0444759 -0.49857622 3.3060293
0.85617739 -0.25600001 2.658762
0.8586126 -0.25862053 2.6590638
-0.90640056 -0.15529928 3.7770944
-1.0814586 -0.08459726 3.7723856
0.859447 -0.25979498 2.6613882
0.83992374 -0.21662696 2.5783942
0.84605008 -0.36522898 2.6976683
0.84904486 -0.37018943 2.7046802
0.62542278 -0.91554129 3.4981372
0.86377937 -0.7944088 3.4730096
0.68713939 -0.78561449 3.5609033
0.56395054 0.061308414 2.1402006
0.56331456 0.059175923 2.1447961
0.49507147 -0.92911202 3.2589014
0.64121097 -0.81240457 3.5470805
0.85269248 -0.27233726 2.6222932
0.81567919 -0.23371881 2.6482136
-1.0361311 -0.54502094 3.3029912
0.54958469 -0.98850536 3.37273
-1.0980018 -0.070296295 3.7696416
-0.46716934 -0.70995897 3.3991301
0.71946388 -0.79442817 3.5755265
1.2115868 0.096402913 3.3310888
-0.36006975 -0.22796856 4.0159974
-0.35768631 -0.21846125 4.0115952
-0.37564278 -0.19231147 4.0068946
0.59402311 -0.94290721 3.238524
0.46778831 -0.46092334 3.8381793
0.41518056 -0.42915329 4.0207081
0.50346035 -0.92464292 3.2274129
0.39086464 -0.845245 3.5998588
0.6513496 -0.97508955 3.2821531
0.83641392 -0.91008478 3.300451
0.56058371 0.058939114 2.1417954
0.54437494 -0.95962852 3.3324785
0.54865032 0.048753813 2.143048
0.13395929 -0.79394728 3.5441155
0.84558207 -0.25015545 3.5134213
0.7564131 -0.67274052 3.5954392
0.67226744 -0.4168013 2.9019468
0.03747984 -1.1396947 3.2984776
1.0849737 -0.49671209 3.0977573
1.0869544 -0.53485423 3.1161535
0.011165973 -0.72284943 3.6078491
0.90785766 -0.36620682 3.1584973
-0.0070381062 -0.72908247 3.6104145
0.87093723 -0.19866069 3.4542017
-0.13578618 -0.76523328 3.6578345
0.81785709 -0.47695094 3.2252893
0.85198694 -0.17582238 3.4538789
0.0088720126 -0.73157763 3.6081321
0.8508141 -0.51042593 3.1934733
0.14284821 -0.88901407 3.4862401
0.41784865 -0.9434548 3.2323971
0.85170865 -0.5095067 3.1928935
0.405619 -0.72998911 3.6094849
0.13680337 -1.0122919 3.4048128
0.9688074 -0.18362939 3.4989181
0.018443273 -0.31815135 3.8806612
0.18992507 -0.49120057 3.9799659
0.71821702 -0.66819125 3.6520507
-0.47389641 -0.57617837 3.2891302
-0.52736938 -0.64376044 3.399226
-0.86734825 -0.47896829 3.8363981
-0.82440966 -0.52047855 3.8369849
0.71583682 -0.23114169 2.6109626
0.71374393 -0.23083709 2.611922
-0.84034979 -0.48872057 3.8178866
-0.053823266 -0.19136786 3.8610697
0.71903926 -0.24673191 2.6245902
0.74498671 -0.71001482 3.5794013
-1.5670356 -0.59177262 3.2207396
0.53872776 -0.23621741 2.5492423
-0.95415157 -0.22084297 4.0340562
0.54578525 -0.22520141 2.5483317
0.57285911 -0.29965711 2.6049542
0.75198746 -0.28277102 2.5520563
0.73326367 -0.1996744 2.4771583
0.12427831 -1.1578748 3.3060653
-0.89518917 -0.20702693 4.0427938
0.73167223 -0.19682711 2.4506671
0.72316098 -0.18078934 2.4279006
0.94093639 0.35167813 3.0830705
0.96121085 0.3204737 3.0966139
-0.76591343 -0.14943871 3.8133199
0.58330756 -0.13087186 2.342761
-1.0983937 -0.072519824 3.7692623
-1.1532983 -0.049950171 3.7986834
0.96934527 0.046181388 3.0240281
0.39729005 -0.11143626 2.3831728
0.38627869 -0.056181297 2.3109722
0.6460613 -0.7502113 3.5967474
0.54365021 0.093816683 2.1036153
0.7797209 -0.98975015 3.3203847
-0.069509491 -1.0713923 3.2520497
0.55679369 -0.77031398 2.9659929
0.55739659 -0.77164674 3.0153983
0.33714712 -1.233121 3.3270266
0.90814275 -0.37064531 3.1591766
0.90277237 -0.34300929 3.1482909
0.44450441 -0.43883681 3.8312769
0.8991158 -0.33762673 3.1482167
0.34497467 -0.64622688 3.6736934
0.7148937 -0.88238013 3.489347
0.76860112 -0.9527874 3.2888608
0.84940165 -0.36222205 3.1915624
0.66439313 -0.87287194 3.1395791
-0.72643715 -0.78301525 3.6635883
-1.1263472 -0.089650847 3.7699289
0.39209753 -0.063901648 2.3203597
-1.1829368 -0.070599541 3.7976296
0.80233443 0.23145939 1.8923488
0.7056967 0.19717109 1.9479972
0.59223753 -0.71880728 3.6176968
1.0931275 -0.47920668 3.098012
0.7095831 -0.22966889 2.6165993
-0.42446336 -0.64914852 3.2802517
-0.037382603 -0.19257005 3.8808651
0.65778911 -0.31097338 2.6643848
-0.66894269 -0.59174758 3.7372208
-0.67253655 -0.50598896 3.6766458
-0.78873909 -0.2945115 3.5809352
-0.2230598 -0.78532571 3.3930302
0.74538451 -0.15047663 2.4977446
-0.88856536 -0.45721757 3.7328451
0.7759825 -0.48450717 2.6868265
0.44122383 -0.16675924 2.5165288
-0.8848452 -0.21460903 3.9855924
0.72853518 -0.20978066 2.4620619
-1.0935923 -0.44366759 3.4380679
0.8066113 -0.4386417 2.9839096
0.35269147 -0.44693738 3.7940674
0.52311611 -0.6290822 3.6859605
0.15676989 -0.42057058 3.7999263
0.76626235 -0.4103846 2.9021473
0.85405242 -0.31175053 3.3986263
0.62978411 -0.88073289 3.1998572
-1.0000035 -0.93703586 3.5747583
0.64985859 -0.96168548 3.3080282
-0.51295167 -0.72466308 3.3476555
0.56138921 0.058775652 2.146708
0.89329737 0.67627025 1.7050225
0.88427502 -0.22130822 3.4589102
0.42304081 -0.5826357 3.7102218
0.63081986 -0.31142262 2.7590344
0.64850771 -0.27329326 2.6260395
0.10371891 -0.74272734 2.3319476
0.60844249 -0.35141551 2.6521926
0.55999887 -0.019185275 2.2490218
-1.2021432 -0.33996689 3.2300715
0.85767937 0.35944831 1.9336427
0.37319428 -0.090430617 2.3333049
0.83739477 0.26630458 1.917729
0.2780844 0.055160627 2.1611543
0.28683671 0.046308063 2.141871
0.2696 -0.07622239 2.3226025
0.38589534 0.16736229 2.0220983
0.64355111 -0.69165999 3.6412256
-0.90439886 -0.44259033 3.3714039
-0.77465552 -0.15011351 3.8042374
-0.63774425 -0.7068283 3.3147538
0.39502466 -0.067954265 2.3218021
0.39571491 -0.074766137 2.3342321
0.41875353 -0.12590307 2.3656116
-1.1070769 -0.072846308 3.8089161
-0.89163536 0.020121336 3.5649879
0.86040753 0.35507739 1.9508238
0.326469 0.16244473 1.9711179
0.32508725 0.16430266 1.966766
0.8086375 -0.45667633 2.9964478
0.79886347 -0.43378302 2.9777043
0.69290024 -0.45124179 3.0200372
0.8411085 -0.10071374 3.3713548
0.67162448 -0.4185155 2.9110224
0.81291962 0.25992775 1.5533677
0.46179828 0.082016937 2.1436734
0.82907271 0.26746756 1.9314803
0.72779614 -0.11975689 2.4568801
-0.60680652 2.3141787 -1.810066
-0.62101781 2.2021418 -1.8505849
-0.61779284 2.6497817 -1.3701904
-0.61428636 2.179359 -1.9299397
-0.47043347 2.9326191 -1.7068872
-1.0842862 1.8754778 -1.1864104
-0.97548157 2.3156989 -0.91761738
-0.661093 2.7494149 -1.6280103
-1.2823879 2.3504002 -1.0173025
-1.0585881 2.014441 -1.1135379
-0.62027168 2.4965751 -1.2660679
0.76640838 -0.66402215 3.5981529
0.161771 -0.52878881 3.7341261
-1.3135053 1.8490953 -1.2570395
-1.4553604 1.751398 -1.3335813
-1.2280736 1.9552597 -1.2061386
-1.5250964 1.8784388 -1.3841678
-1.6832874 1.9820617 -1.3317734
0.72709179 0.11274977 1.5021559
0.78071672 0.21506986 1.5126425
0.61430663 -0.75899434 3.5994623
0.77924865 0.066644631 2.0961692
-0.88393337 -0.44786748 3.7081063
-0.82826948 -0.15307398 3.6544905
0.61450291 0.42049325 1.5771077
0.61629623 0.40922233 1.589898
-5.8729982 2.1463337 -0.042990774
-5.7560182 2.3497674 -0.077571593
0.70427132 0.33429328 1.4710934
-5.7211223 2.1566453 0.14286092
-0.67150062 2.2025695 -1.7618468
-1.1513333 1.8407356 -1.2580492
-0.69366676 2.3896961 -1.5361953
-0.75722951 1.8995689 -1.2649279
0.26174721 0.45424357 1.4836205
-5.7404361 2.2497249 -0.01279918
0.72821921 -0.90564007 3.4717236
-0.94788831 1.8689682 -1.2463613
0.39492649 -0.40510553 3.7603765
0.27121782 0.49947488 1.4307632
0.37288937 0.18231027 2.0221848
-5.790061 2.1760974 0.14038259
-1.3366131 1.9069368 -1.2366276
0.61789131 0.35540062 1.634517
-6.7638502 1.499414 0.12686399
0.3569319 0.23079009 1.8768588
-1.0547247 -0.53340834 3.418153
-6.5254073 2.0530989 0.23229477
-6.6042585 2.0710807 0.33023873
-0.6786474 2.6037407 -1.2499464
-5.2454543 1.1674346 1.7501076
-0.92967337 0.064768769 3.4727314
-6.7153163 2.1178713 0.26615974
0.93886119 -0.1653448 3.4867496
0.30557951 0.46589133 1.4596336
-0.83977377 1.8878076 -1.0792286
0.25350457 0.24970435 1.8101656
-6.7932425 2.1836538 0.1519307
-0.68081164 2.3204439 -1.4078698
0.19547749 0.16468121 1.7981821
-0.96728444 0.097741745 3.5436385
-5.7355294 0.57068872 1.1638919
0.46969905 0.52813148 1.3434544
-5.186584 0.88498229 0.97890216
0.14138025 0.24055849 1.7995881
-0.83552998 1.8821738 -1.2133906
0.46834105 0.53560907 1.3425936
-0.7148633 2.0436037 -1.5960784
0.15827741 0.29426232 1.6371657
-0.90823925 -0.55501693 3.4719989
-5.6800156 1.3661252 1.5300603
-0.50601566 2.0062838 -1.3742677
0.30224952 0.49231058 1.4460616
0.091807269 0.22198042 1.7219754
-1.0095524 2.0965934 -1.1889724
0.08768142 0.18128319 1.9498107
0.13508701 0.24649239 1.7942286
0.45156148 0.56193608 1.3074782
-1.278887 2.1420507 -1.1860348
0.14076331 0.23724847 1.8027767
-5.4450078 1.5457933 1.2142131
-0.64747411 2.30741 -0.93662918
-6.5229173 2.049854 0.3504411
-1.3560411 1.9410828 -1.2946588
-6.5792408 1.4070085 0.2161493
-0.74602604 2.1761515 -1.6976234
-5.4394927 1.5516306 1.2151873
-0.020404764 0.41996214 1.5177076
0.88559383 0.55192631 1.9173895
-0.99462849 1.8460606 -1.2453727
-0.73549342 1.8545077 -0.8371281
-1.3925401 2.0577693 -1.3059324
-1.0354599 2.0002706 -1.0818934
-1.2301993 2.0952044 -1.1311289
