# .PCD v0.7 - Point Cloud Data file format
VERSION 0.7
FIELDS x y z
SIZE 4 4 4
TYPE F F F
COUNT 1 1 1
WIDTH 460
HEIGHT 1
VIEWPOINT 0 0 0 1 0 0 0
POINTS 460
DATA ascii
1.0229418 -0.58039063 3.141695
0.41916254 -0.54777652 3.9824493
0.40783894 -0.64803529 3.906702
-0.56405401 -0.34572768 1.9486414
1.1982572 -0.53575397 3.2022152
0.40327996 -0.79499596 3.8216796
0.8525126 -1.0260749 3.6109667
0.8879385 -1.0557411 3.5712814
0.40343902 -0.79827571 3.8194194
0.89017504 -0.8576408 3.6872439
0.87943 -0.82404453 3.7118409
0.78431654 -1.0998017 3.5088573
0.86991721 -0.81027228 3.7289348
0.48837218 -0.49105212 3.9910893
0.91136307 -1.0123361 3.5827038
0.99537557 -1.0565361 3.5044787
0.41179591 -0.65330088 3.9107676
0.78052294 -0.78564388 3.7910151
0.92928493 -0.82183546 3.6808498
0.97058064 -1.0246788 3.5388503
0.93080091 -1.0237308 3.5633526
0.94418722 -0.81644821 3.6805387
1.072016 -1.0708764 3.4380362
0.92650878 -0.86433268 3.6586356
0.88830209 -1.0537699 3.5696671
0.8590579 -1.0019106 3.6139417
0.82887942 -0.85497886 3.724165
0.941643 -1.1041312 3.4989874
0.95289314 -0.81357276 3.6779313
1.0094082 -0.72327983 3.6988049
0.38323274 -1.2998468 3.5183184
-0.29168701 -0.86907184 3.7830036
1.0865302 -0.66243196 3.3473949
0.86193871 -0.91108537 3.6607711
0.63049871 -1.0243063 3.386766
0.93131971 -0.98085099 3.629395
1.0703593 -1.050383 3.458822
0.42272055 -0.5475319 3.978317
0.74030054 -1.0592797 3.4024909
0.78592849 -1.0921665 3.4969342
0.36488032 -1.3005222 3.4962914
0.20179993 -1.4524556 3.3542509
0.73759359 -1.0522008 3.3990128
1.1608273 -0.39918581 3.6471932
1.1659483 -0.29235312 3.5735455
0.67132908 -1.18362 3.3110294
0.8781867 -0.81625628 3.7169092
0.89278483 -1.0613726 3.4867334
0.62991226 -1.0175513 3.3813827
0.88915324 -0.87097824 3.6903224
0.61341208 -0.57039797 3.9408166
0.99738896 -0.59846586 3.2794628
0.64177585 -1.2067255 3.1775789
1.0791355 -1.0594138 3.4548707
0.94792062 -1.0411607 3.3326657
1.1021984 -0.23334654 3.4872782
0.9551518 -0.85711366 3.7423449
0.89534003 -0.83765495 3.6986766
0.78837574 -0.79759425 3.7765043
0.85455501 -1.0944613 3.4025192
0.92814177 -1.1065665 3.5005472
-0.29477775 -0.84011388 3.6895092
0.53230137 -0.060711689 2.2748768
0.91798091 -1.0272504 3.3287814
-0.29957801 -0.3071444 4.1982007
-0.28914729 -0.30552596 4.2071247
-0.86244506 -0.74786878 3.6815634
0.92168623 -0.34758234 2.7425258
0.97176665 -0.75326926 3.7057655
1.2024741 -0.57200253 3.1706128
1.1192347 -0.20983273 3.5466714
1.1123693 -0.25811046 3.6074979
1.3616159 -0.25597572 3.0935462
0.62473989 -1.1123611 3.6043704
0.94649518 -0.65363532 3.2841291
1.0923826 -0.37221506 3.6977758
1.1316175 -0.21382159 3.4684629
1.2679238 -0.18523484 3.1596689
1.18612 -0.51590651 3.2021687
1.2272861 -0.25071433 3.5319252
0.4718402 -0.94242185 3.7803924
-0.91411722 -0.29585272 4.1816893
0.42580032 0.034766678 2.1966047
0.69270611 -1.056456 3.0061066
0.90416485 -0.8847419 3.6863821
0.82038891 -0.78748024 3.7766087
0.50432563 -1.3207294 3.5236073
1.2461263 -0.55820131 3.1707587
0.82029951 -0.56372917 3.1104321
1.2382774 -0.54126352 3.1714549
0.66086358 -1.2086579 3.3198004
0.85846913 -0.92744279 3.6464703
0.91483134 -0.95839798 3.6112208
0.9147386 -1.0863589 3.4214847
1.0772228 -1.058871 3.4546907
1.0524693 -0.27668017 3.5261703
0.4156329 -1.29811 3.4982843
1.0321231 -0.25521192 3.52861
0.62209797 -0.67166913 3.8802683
0.56848645 -1.3471349 3.4915028
0.9280138 -0.64123029 3.2911413
0.92732036 -0.64364272 3.2923894
1.0159502 -0.59224063 3.2724681
1.2505077 -0.26138821 3.5709827
0.95496839 -0.7712124 3.7201371
0.96496713 -0.75241351 3.747412
-0.094547421 -0.343714 4.2323222
-0.58384919 -0.67012936 4.1695538
0.98332959 -0.7934438 3.6717606
0.76905793 -0.30277604 2.5814133
-0.8767404 -0.33543465 4.1344953
0.89125329 -0.84008849 3.7041502
0.8904717 -1.0318208 3.3143513
0.70599681 -0.5396623 3.9649327
0.70668316 -0.5484041 3.9587843
1.0030727 -0.44550624 3.2707233
0.2679559 0.017871181 2.1464913
0.41626704 -0.54179573 3.9775736
1.0354043 -0.39153761 3.4744058
0.24624167 -0.19460341 2.4696834
0.64257455 -0.3850444 2.6973732
0.58980691 -1.4616871 3.4337292
0.78385699 -0.65249485 3.7838786
0.60643637 -0.940139 3.7277975
0.73968285 0.35329521 2.0071452
0.43669757 -0.055832531 2.2936983
0.76097888 0.2600956 1.9961767
0.68949193 -1.1444769 3.6210515
0.78496706 -0.65757465 3.7840042
0.93654174 -0.99440593 3.5681446
0.11033375 -0.16385697 2.2538927
1.306767 -0.44569072 2.9926403
1.3463022 0.46598962 2.8215764
1.3565905 0.41223896 2.8340969
0.90794176 -0.36466673 2.7121449
0.58510995 -0.43983272 2.9506969
0.5814147 -0.45425233 2.9483523
0.73680001 -0.26967165 2.5476992
1.2400616 -0.12620413 3.147649
0.59105843 -0.3449094 2.675298
0.72636962 -0.66819149 3.0142248
1.2398638 -0.12569542 3.1364501
0.97635096 -1.0143682 3.5379865
0.98959118 -0.61616564 3.2885206
0.96828234 -0.77032185 3.6793401
0.61847043 -0.48656476 4.2215729
0.99073833 -0.77831 3.7417512
0.65436131 -1.0543852 3.3943751
0.43922767 -0.19250818 2.5888186
0.40866992 -0.37472492 2.762794
0.90983623 -1.0923001 3.4124112
-0.53673059 -0.25784972 4.0527382
0.49674278 -0.32058734 2.5903678
0.87164187 0.26384044 1.8528444
0.31723648 -0.14680205 2.4773777
0.073607847 -0.35453027 2.2146447
0.69467926 0.16831797 2.007648
0.74823058 0.56969482 1.7892996
0.35785156 -0.86660796 3.7762799
0.43064111 -1.2745908 3.5306315
0.58974177 -0.5766964 3.9375474
0.63931322 -1.2076216 3.5833042
0.68025404 -1.2132108 3.3129132
1.0679314 -0.29827541 3.5289173
0.8371402 -1.0712276 3.4117477
0.8447848 -1.0450175 3.2861605
-0.31753984 -0.60811371 3.8917031
0.90299302 -0.98479903 3.6130881
0.78285301 -0.85286045 3.7506227
0.62774354 -0.31541651 2.7224448
0.95926267 -0.96274948 3.6118724
0.38457108 -0.22094609 2.4933698
0.85200113 -0.28148019 2.7138228
0.91631746 -0.93106061 3.6099954
0.93024945 -0.76291442 3.7281954
0.62733394 -0.36303496 2.6852167
0.83083141 -0.64632595 3.1984203
0.50266749 -0.32860973 2.6965556
-0.48834652 -0.70974159 4.1461873
0.42485294 -0.45299217 2.7273798
0.60829806 0.12700722 2.0322931
0.78610021 -0.7454285 3.8125172
0.77565318 0.25095993 2.0389411
0.26372409 0.023981355 2.1370542
0.86336154 -0.49974716 2.9836431
0.81134814 -0.7230767 3.7757018
0.91661358 -0.88265544 3.190691
0.83976078 -0.77514023 3.7797027
0.77674401 -0.78595155 3.7869489
0.89708894 -0.86292869 3.1942277
0.85666144 -0.50138855 3.0010593
1.0453098 -0.25836307 3.5275571
0.85800362 -0.4735398 2.9545214
0.80481309 -0.48522812 2.9549434
0.63304275 -1.2062728 3.5842161
1.3547826 0.44180357 2.8308687
0.6411348 -1.3697432 3.497179
0.996342 -0.30326447 3.3612623
0.90989751 -0.91096038 3.6008263
0.20415986 -0.78558928 3.8584445
0.92150551 -0.91705543 3.6315079
0.86943203 -0.5179798 3.0506682
0.83137888 -0.57288378 3.1105494
0.3366721 -0.48062241 4.4535551
0.78092325 -0.51964694 3.0907328
1.0970334 -0.14800516 2.99035
0.84242135 -1.0125904 3.6163375
1.3345474 -0.4953756 3.0030124
0.72071469 -1.0365226 3.3605466
1.079774 -0.18602757 3.4018157
0.65628666 -1.1252362 3.619067
0.85453033 -0.55597144 3.0774088
0.80339205 -0.55708486 3.1081138
0.83933461 -0.78465277 3.8045142
1.2310747 -0.26234666 3.530627
1.215786 -0.26891151 3.6034462
1.1276841 -0.38587764 3.7068925
1.0123836 -0.52189034 3.2585812
0.68287116 -1.1410306 3.6194606
1.2404087 -0.2884326 3.5325391
1.0292429 -0.56258929 3.108865
0.8797996 -0.81909549 3.727802
0.69873941 -1.0683875 3.3744712
0.6630761 -0.55047911 4.1971993
0.57019246 -0.76894832 3.0859261
0.82455975 -1.0133629 3.6045721
1.0693777 -0.098496929 2.9706249
0.25618106 -0.97135425 3.8530779
0.75971258 -0.47632647 2.9526539
0.77818364 -0.48128444 2.9016054
-0.16725977 -0.95145112 3.8886702
1.3650733 0.29900897 2.8024528
0.77605224 -0.27168527 2.5948894
0.47567046 -0.40261409 2.8907077
1.2048692 -0.066078551 3.1411967
0.2513186 -0.28077781 2.8257658
0.52005136 -0.35437247 2.7138433
0.32728094 -1.0061342 2.5762954
0.42575577 -0.10390166 2.3645601
0.70229775 -0.2571604 2.4965248
0.013496005 -0.71102232 2.4541841
-1.0564455 -0.19668047 4.087224
0.56626129 0.39478624 2.04778
0.22273545 0.059645668 2.2015495
0.65043914 0.14610854 1.9767001
0.13881144 -0.50609201 2.2050533
0.20189343 -0.052448068 2.2302864
0.52557325 0.22142133 1.772143
0.63334298 0.13616592 2.1697946
0.24925476 -0.22619541 2.4705245
0.76715183 -0.9733932 3.6011212
0.70893109 -0.84641641 3.1067674
0.6921463 -0.45529872 4.093996
0.57872635 -0.91677761 3.7326174
1.1281292 -0.24010116 3.4859312
0.94024706 -1.0875027 3.4396048
0.8668763 -0.88177109 3.6686661
1.0916281 -0.27266547 3.6237082
0.79552323 -1.0892795 3.4753971
0.9517532 -0.95896792 3.2659984
0.86686051 -1.0906696 3.419472
0.70552707 -0.91725796 3.0862658
0.78974366 0.50169832 1.8516278
0.71988916 0.36922404 1.7228979
0.7952683 0.24592978 1.8544934
0.65714031 0.051945761 1.6530415
0.63424468 -1.3804836 3.4467533
0.71828449 0.19259048 1.957347
0.7721718 0.5255391 1.805395
0.67985237 0.23915207 2.1657798
0.69803369 -1.0199142 3.7032681
0.5683139 0.13158932 1.619493
0.91996723 -0.38158071 2.7211928
0.67100126 -1.5299138 3.4172969
0.95233554 -0.37367448 2.7617786
0.72407764 -0.28634301 2.6946497
0.18668483 -0.38598588 4.2066855
0.72856927 -0.3016361 2.7086334
1.3488072 0.42725763 2.8211758
0.67534155 -0.95628422 3.2656636
0.9324677 -0.96927983 3.582962
0.56648874 0.19705689 2.1289921
0.4308545 -0.21682212 2.651216
0.96227789 -0.97245497 3.5882001
0.97980636 -1.0538943 3.3954773
0.9051913 -1.0796415 3.4268882
0.43107942 -0.045842744 2.2915661
0.37471342 0.78214449 1.7696856
0.98952359 -1.0321386 3.5649991
0.95016706 -1.0344272 3.3816466
0.98652965 -1.0407257 3.3701749
0.82413751 -0.51875967 3.031822
0.43964973 -0.21971308 2.4726079
0.97895819 -0.84482884 3.6475604
0.55849659 0.20271054 2.1280351
-0.085135974 -0.051178098 2.2745345
0.6333307 -0.2836301 2.5120225
0.92917645 -0.87599456 3.6532562
0.61394417 -0.55112368 3.9415376
0.66010803 -0.59755361 3.9258349
0.79953814 -1.0179912 3.2794187
0.44624442 -1.1253407 3.6435659
0.40079337 -1.0622352 3.6592722
0.67223537 -1.1778142 3.3129842
1.2495393 -0.13014717 3.1908448
1.224412 -0.10974275 3.1857948
0.87583667 -1.0792359 3.3977561
0.71923512 -0.92598265 3.092953
0.59521663 -0.47527143 4.2414265
1.0871382 -0.21236281 3.6076629
0.72351676 -0.47435507 4.1113405
1.080999 -0.20925257 3.6448567
0.6651842 -1.1828452 3.2570908
0.91665608 -0.81318057 3.2015903
0.73595333 -0.50183648 4.0903296
0.83452713 -0.92232215 3.1753383
0.72022444 -0.85986412 3.1478415
1.0649405 -0.22794759 3.6073806
0.39568496 -0.89221454 3.7727275
0.79386437 -0.60371953 3.1734173
0.41071391 -0.79572648 3.8269558
0.41949192 -0.79976737 3.8236992
0.83660871 -0.55431795 3.0853269
0.86611557 -0.43043447 2.9660528
0.91632932 -0.34063062 2.7393911
0.71012723 -0.59201974 4.1271658
1.0934638 -0.15440281 2.9828973
0.42523989 -0.54822111 3.9802387
0.2132073 -0.66428941 3.9351184
0.67101896 -1.179113 3.3026619
0.92767459 -1.0150063 3.5650699
1.0185479 -0.59622437 3.2617779
0.35888103 -0.76601696 3.824038
0.80129951 -1.0363785 3.3164251
1.0657877 -0.55562556 3.2100487
-0.029207041 -0.67844826 2.3395584
0.52177566 -0.41057098 2.9172201
0.24497768 -0.10097999 2.3249564
0.17419975 -0.37888491 4.2062387
0.59410799 -0.37170106 2.9238851
0.71707606 -0.49900329 4.1409969
0.71439493 -0.39741307 4.1607432
-0.10165744 0.27294418 1.6831338
0.6441412 -0.33750015 2.7660162
0.58508509 0.16735393 2.004663
0.51521313 0.26183656 2.0777516
0.62884867 0.064314321 1.9929925
0.58014631 0.9309153 1.8879795
0.52827907 -0.053404562 2.2749882
-1.4616439 2.1063423 -0.47758645
-1.399765 2.1518636 -1.1869627
-1.562049 2.0080214 -0.50267619
-1.4335921 2.0460384 -0.63470316
-1.6616156 1.5561121 -0.86427927
-1.9268188 2.0460737 -0.57962161
-1.5610447 1.7738829 -1.1689969
-1.7843008 2.0598364 -0.54646689
-1.3879488 1.8891393 -1.5750171
-1.9425159 2.0555162 -0.5883947
0.41889086 -0.65044677 3.9123516
-2.0760198 2.0075138 -0.52296597
-1.7241729 1.3446574 -0.37737897
-2.5081255 3.2199798 -1.8260107
-2.2757516 1.7742923 -0.75629073
-2.1663985 2.0685515 -0.58603483
-2.1028879 1.4315951 -0.86276722
-2.3944981 2.1063662 -0.60977894
-2.4571481 2.0388298 -0.52112567
-2.3882449 2.1034844 -0.59985971
-2.0181148 2.0489244 -0.59121686
-2.188267 1.5526983 -0.90284109
-2.4978647 1.8175918 -0.67731375
-2.4451971 1.6363919 -0.63876617
-2.4565125 1.4220651 -0.9778685
-2.1753333 1.5371997 -0.88175005
-2.5518217 1.2405955 -0.44206324
-2.4140236 1.5023679 -0.9077127
-2.5737309 1.3343198 -0.28792849
0.64070958 0.09881568 1.6187056
0.73798013 -0.04003007 2.1964564
0.81948996 0.23389935 1.805575
-1.4266425 1.9288888 -1.4075557
-1.7980125 1.5428911 -0.83478576
-1.4199215 2.0940001 -1.1442206
0.48248661 0.28080666 1.7183348
0.10588984 0.34604499 1.6136954
-1.9821298 1.5964835 -0.78580886
0.27683163 0.091064982 2.0430014
-0.82799655 -0.74403334 3.7849336
0.16447911 0.29514584 1.6203222
1.1220095 -0.238242 3.5478418
0.16343433 0.10173139 1.9927003
-1.4331045 1.7699744 -1.2362838
0.13930561 0.34128389 1.6241384
-0.0073727369 0.061513182 1.9302535
0.26065105 0.41882652 1.4641083
0.052036557 0.08140976 2.0025952
-1.4852264 1.6937826 -1.0447619
-2.0124719 1.6282777 -0.84039378
0.15373693 0.27100772 1.6764513
-4.7714529 0.12786196 3.5700023
0.39056945 -0.92657787 3.7377605
0.50152677 0.23051445 1.845711
-1.48174 1.636734 -1.2717285
-0.57066053 -0.021067699 1.458523
-2.0202811 1.5766904 -0.8802771
0.35556465 -0.49058929 4.1527643
-0.004571056 0.039855242 2.1315486
0.15580009 0.11288124 1.9710187
-1.4303497 1.6990901 -0.87867945
-1.4219103 2.0755763 -0.47649971
0.74164182 0.49337515 1.9642333
-1.3059421 1.7640969 -1.2295842
-1.9297193 1.5592 -0.73436302
-2.2641094 1.2824972 -0.40341729
-4.3923945 0.31174979 3.457619
-1.3474708 1.3439947 -0.54860401
-2.4699187 1.7350355 -0.96553373
-1.638548 1.6115446 -0.90325385
-1.5611563 1.6803057 -0.92538083
-0.24884912 0.43634203 1.592891
0.72637129 0.51701242 1.9495097
0.854918 0.40591747 1.9518081
0.59300286 0.11977935 1.7079145
0.69793808 0.096458711 1.9999229
0.87495464 0.37160146 1.9780571
-2.3334236 1.6171055 -0.82527131
-1.8925965 1.4692625 -0.82419151
0.3452473 0.28371483 1.6279712
0.58907878 0.94689411 1.9016997
0.24902719 0.42587855 1.4649382
-0.041384473 0.22534877 1.7429407
0.55371523 0.94133967 1.8657062
-2.420959 1.6572753 -0.67050505
0.60896397 -1.5428189 3.3768749
-0.24144444 -0.94516534 3.6461854
-2.5084782 1.624768 -0.77394843
-1.8745517 1.7933037 -0.69870394
-2.3411114 1.3617811 -0.488471
-2.1181984 2.2545331 -0.77782232
0.21300218 0.19814359 1.7515862
0.17804998 -0.27597994 2.5322165
0.72335362 0.17846744 1.6278901
-0.0056176372 0.036201529 2.1331458
0.27816993 1.0426875 1.8259307
0.21581082 1.178934 1.7321802
-2.8814163 1.7581666 -0.97389185
-2.476531 0.99801821 -0.2826083
-0.12655857 0.24601643 1.7840809
0.025137361 -0.14570053 2.3482597
0.058513526 0.29101014 1.6523266
-0.025649106 -0.1204647 2.4219184
-0.10594381 0.018115086 2.2050767
-2.1351643 1.5259171 -0.78156388
0.14399669 0.12717491 1.9629098
0.93105632 -1.0440459 3.5467134
-0.24535939 0.064781353 1.752075
0.75262582 -0.28693214 2.5636485
-0.11501973 0.11939099 1.8843272
-1.4664956 1.7482023 -0.67170745
