# .PCD v0.7 - Point Cloud Data file format
VERSION 0.7
FIELDS x y z
SIZE 4 4 4
TYPE F F F
COUNT 1 1 1
WIDTH 518
HEIGHT 1
VIEWPOINT 0 0 0 1 0 0 0
POINTS 518
DATA ascii
0.94733733 -0.7940439 3.3806188
1.0547756 -0.61136556 3.399488
0.86073935 -0.9002319 2.940495
0.50238663 -0.50028372 3.7322731
0.75588506 -1.0709107 3.32674
1.1769516 -0.4800241 2.8375509
1.1861839 -0.4580729 2.8682489
1.000994 -0.90016443 3.2685552
0.47473881 -0.74611282 3.5709651
0.9342187 -0.9904775 3.2631578
0.94447947 -0.79364717 3.3808379
0.93573862 -0.76063079 3.4069662
0.92788768 -0.74731451 3.4252257
0.95763642 -0.94655824 3.2724252
1.0332613 -0.98754585 3.1844945
0.84558612 -0.72586739 3.4974637
0.49525115 -0.5848614 3.6612499
0.95736063 -0.94840932 3.2701252
1.011506 -0.98456621 3.0764127
0.81908476 -1.0153452 3.1780958
0.99624997 -0.75088799 3.3685675
0.9774546 -0.79901135 3.3481696
0.93434203 -0.98847973 3.2615402
0.90900356 -0.93793768 3.3095851
0.99216354 -0.9301222 3.2505677
1.0606349 -0.65613025 3.3805397
0.93750346 -1.0362293 3.2218163
1.036166 -0.74244648 3.3567188
0.91482306 -0.84757483 3.3570318
1.0160187 -0.9645772 3.2131913
0.93541253 -0.90667945 3.3026872
1.2124736 -0.48989156 2.7980752
0.97776097 -0.96381652 3.0069921
0.81630909 -0.50321025 3.8356125
0.5084644 -0.50148606 3.7249377
0.72041184 -1.1191791 3.000288
0.71831197 -1.0739846 3.2918472
0.97177136 -0.86449242 3.2912335
0.82535493 -1.0289471 3.200475
0.69264925 -1.1215764 3.0276563
0.95107585 -1.0129249 3.0733492
0.69110668 -0.51700646 3.6683748
0.9922145 -0.93782288 2.9768369
0.99399137 -0.47953796 2.9425387
0.71537179 -1.0083365 3.1164143
0.8499108 -0.97061932 2.9865036
0.64859974 -1.1440685 2.8981571
1.1108208 -0.98754364 3.125592
1.158664 -0.1889558 3.1693149
0.75854045 -0.98503029 3.1054745
0.70398128 -1.1481564 3.0256729
0.98657817 -0.95213813 3.2412422
0.64775646 -1.1293621 2.8985031
0.8520366 -0.73743677 3.4819856
0.96737546 -1.0393952 3.1875896
-0.21457449 -0.30905473 4.0474038
0.034005441 -0.34565854 4.0773768
-0.1929864 -0.28220943 4.0321736
-0.1710903 -0.28553757 4.0448899
-0.18164714 -0.28039521 4.0398669
0.85377258 -0.27280483 2.445883
0.041047372 -0.34171414 4.0706172
1.1877085 -0.49384812 2.8358722
1.1385766 -0.13820589 3.2239707
0.69471455 -1.050513 3.0845008
1.1400247 -0.18730652 3.284508
0.80576241 -0.47537825 3.8727734
0.67815715 -1.0548004 3.3253613
0.78177565 -0.48073766 3.9102955
0.82080686 -0.47756335 3.861299
0.94871289 -0.58383286 2.9767938
1.1335742 -0.3028878 3.3748894
0.65495974 -0.55275959 3.9249737
1.1735979 -0.4385739 2.8698668
1.2159986 -0.48900849 2.803468
0.98348236 -0.95190918 3.0061774
0.90839559 -0.955948 2.9947946
0.40336502 0.0066098087 2.0300982
0.28851116 0.10133368 1.9656506
0.67549706 -0.99060094 2.7240829
0.95899379 -0.82033491 3.378005
1.0198069 -0.44085053 2.9378335
0.89151824 -0.83062214 2.8639312
0.86169595 -1.0009772 3.047538
0.80106837 -0.49564001 2.8199425
0.91017139 -0.86386877 3.3429966
0.82449281 -0.40629375 2.6648588
1.0450628 -0.68833488 3.3687766
0.75689167 -0.4485549 2.7261415
0.82619268 -0.43283904 2.6990745
0.84504628 -0.72396088 3.4321191
1.051206 -0.18581149 3.2153695
0.61558652 -1.2898344 3.2164285
0.93035388 -0.57447052 2.9873316
0.99284887 -0.91662103 2.9690552
-0.46890959 -0.65268797 4.0312166
0.70407164 -0.2623103 2.4370697
0.71224838 -0.27737927 2.4491148
1.1925089 -0.40136063 2.901284
-0.52531624 -0.4024547 4.2490096
-0.46806335 -0.44524983 4.2092648
-0.48565561 -0.37987742 4.23738
0.67374742 -0.22814377 2.278842
1.0258658 -1.0405692 3.1725373
0.68255723 -0.16442098 2.3069253
0.90660876 -0.96374172 3.0079823
1.0464989 -0.37699148 2.9130666
1.0357912 -0.35012212 2.9044368
0.83177835 -1.0379714 3.2100143
0.25507921 -0.064824611 2.1773331
0.93280554 -0.97604686 3.2608345
-0.47215456 -0.38990819 4.1841455
1.2210476 -0.49379691 2.8088236
0.9464848 -0.86231422 3.3295469
0.49879262 -0.49433443 3.7278442
0.82203132 -0.4281508 2.6958716
-0.79343247 -0.29216242 4.0818844
0.44880965 -0.27152589 2.4539976
0.44997227 -0.27721447 2.4561656
0.31343511 -0.29016817 2.5158889
1.0209168 -0.97988999 3.0624642
0.88744658 -0.83491385 2.8640478
0.66956609 -0.88449222 3.4524477
0.10977583 -0.13214585 2.3191173
0.31288648 0.01003936 2.0595937
0.94527054 -0.87841004 2.921433
0.74522716 -1.0852666 3.3340757
0.98049176 -0.92777461 3.2553303
1.2268721 -0.50044638 2.8102725
-0.012899322 -0.10665293 2.0559042
0.87196511 -1.0142753 3.0640244
1.2674881 -0.36276281 2.6489019
0.83709133 -0.2899408 2.4170408
0.54588741 -0.37667543 2.6899047
0.54233235 -0.39116693 2.6877987
0.55710363 -0.24777834 2.4603796
0.47781008 -0.33752823 2.6677299
1.2105396 -0.046951007 2.8149407
0.51766038 -0.27867496 2.4169769
0.5528276 -0.26131049 2.4489548
0.69952941 -0.60165513 2.7336776
0.55794328 -0.43852654 2.6683288
1.0170934 -0.94628924 3.2205408
1.048488 -0.71211922 3.4245734
1.2152328 -0.46537662 2.8257806
0.6819278 -0.99376893 3.1141798
0.34737763 -0.31452504 2.5243485
0.93870211 -1.0247028 3.102334
1.2158442 -0.47121462 2.7942085
0.80784047 -0.96793532 3.0003755
0.2094828 -0.15413494 2.2946529
0.21775919 -0.086205684 2.2544582
1.181253 -0.44975808 2.8681288
0.80862904 -1.0107493 3.1181946
0.66739351 -0.52393013 3.6677487
0.69274521 -1.149384 3.3014472
1.0068104 -0.098123059 3.142241
1.0879457 -0.2278557 3.2109797
0.85835552 -0.97791016 2.9850247
0.95207953 -0.91959387 3.3039467
0.90191728 -0.96259516 3.0142801
0.55871671 -0.24867316 2.4600203
0.8394528 -0.99388337 3.0718303
0.64751512 -0.31072479 2.4686079
1.0511801 -0.67553043 3.3716433
0.93396914 -1.0035695 3.1155059
1.0072312 -0.8959648 3.2966053
1.0692713 -0.62434542 3.3916962
0.82252467 -1.0006782 3.0660007
0.60451502 0.33283874 1.7562141
0.77952003 -0.2083769 2.4262626
0.96352661 -0.86547321 3.3000946
0.95062441 -0.71780878 3.4422946
0.55530381 -0.29588243 2.4224267
0.82382298 -0.57884806 2.9049938
0.32989395 -0.38103601 2.4899516
0.53535873 0.28289732 1.7072695
0.88020587 -0.96381885 2.9886484
0.68086237 -1.3338587 3.1515255
0.13324797 -0.01101197 2.1136777
0.82757622 -0.42912075 2.6899581
0.75882971 -0.45023692 2.7350371
0.8727746 -0.66230059 3.4795923
0.91440737 -0.81258512 2.8842227
0.9167642 -0.81142521 2.8888221
0.90369469 -0.75554693 3.4785795
0.90283352 -0.71358752 3.4795933
0.96402496 -0.44560412 2.9628179
0.89489985 -0.79345214 2.8902435
0.89232385 -0.78990555 2.8924034
0.82296544 -0.43113589 2.7080021
1.0234506 -0.21666311 3.2954543
1.0642638 -0.18858048 3.2127709
0.82194 -0.41140306 2.6834376
0.7757116 -0.4884254 2.8212202
0.81821603 -0.40276304 2.6620069
1.0304611 -0.62957942 3.3938584
0.76575536 -0.41594076 2.6683512
0.68658721 -1.1482213 3.3030891
0.68898183 -1.3104581 3.2134399
0.99774498 -0.23305032 3.0525658
0.92278343 -0.95825154 2.9842055
0.97077513 -0.85155964 3.3210642
0.86355948 -0.42254841 2.7607477
0.81232762 -0.50448138 2.8186643
0.82186538 -0.3085804 3.7900717
0.44235072 -0.41244736 4.2315936
0.47275549 -0.44052264 4.210609
1.0533365 -0.48629802 2.9478581
0.84141088 -0.43828279 2.7038491
0.78030324 -0.43062019 2.7160308
1.0510334 -0.071062483 2.6747558
0.96575063 -0.95219773 3.0761027
1.2975872 -0.4117583 2.6553371
1.2762054 -0.11350489 2.8712125
0.68763447 -1.1550555 3.0154905
0.74346119 -0.97369277 3.073231
1.0821317 -0.11396363 3.0849264
0.68184477 -1.1099708 3.0305665
0.78383577 -0.4894475 2.8196666
0.98685867 -0.81980622 3.3402236
0.68847054 -0.98206234 3.0197189
1.1018438 -0.54674071 2.8155591
0.85068858 -1.0042287 3.0515311
0.73837823 -1.0819902 3.3333008
0.99481779 -0.52445793 2.9779911
0.90858001 -0.56094003 2.9889548
1.0208868 -0.49832097 2.7949579
0.93780589 -0.75584483 3.4228475
1.0106139 -0.48885432 2.7942612
0.69253474 -1.0001278 3.1115046
0.72408485 -1.0063082 3.0891359
0.42234859 -1.1070386 3.3386328
0.53691971 -1.1272428 3.3052368
1.0856364 -0.23740421 3.3096166
1.2365763 -0.065606125 2.8710289
0.92563421 -0.94914001 3.3033726
1.1296548 -0.16373819 3.2244167
1.0948659 -0.19139412 3.2798786
0.73935646 -0.49559516 3.9349368
0.93459022 -0.99474084 3.0461915
1.098142 -0.20172265 3.2764862
0.76932126 -0.49845448 3.9176412
0.55534977 -0.70751095 2.8213766
0.93290532 -0.44720557 2.9972897
0.81584501 -0.66864938 2.879523
1.0958647 -0.10546399 2.6938632
0.87397498 -0.95025086 3.3040669
1.0362751 -0.053827174 2.6725674
0.9858498 -0.191806 3.2442238
1.3015654 -0.41386589 2.6656137
0.73048264 -0.42119268 2.7313938
0.33695966 -0.92684948 3.6165431
0.83093405 -0.41462827 2.6806371
1.0671026 -0.76442575 3.3431485
1.0635232 -0.051742647 3.0926132
0.58558899 -1.0150183 3.3550601
0.46477646 -0.43061903 4.2154975
1.0335985 -0.92902505 3.2460451
0.74418801 -0.55261499 2.8317699
0.72046936 -0.4082821 2.6713612
0.99002224 -0.21712281 3.2400887
-0.079976372 -0.91920006 3.7006316
0.55257863 -0.24320795 2.4822717
0.76271117 -0.61141211 2.8061638
0.98466384 -0.79285288 3.3487234
0.69018894 -0.19943878 2.3169494
0.42933473 -0.34189627 2.6433554
0.91234714 -1.0021279 3.1131294
0.54975277 -0.30355576 2.4256322
1.1732521 0.012230771 2.8133924
0.19585066 -0.22570378 2.60621
1.2724447 -0.37860104 2.6513746
0.45182362 -0.29053643 2.4632599
0.44206998 -0.28471497 2.4599557
0.27402511 -0.25555396 2.5002654
0.60527194 -0.18593194 2.2278821
0.02941083 -0.66921973 2.346719
0.0020098714 -0.65230876 2.3363962
0.33152756 -0.32399336 2.5428865
-0.053474676 -0.94658709 3.7124264
-0.96025836 -0.19180936 4.0100827
0.40133527 0.46672228 1.8067353
0.086766265 0.12045944 1.9941458
0.010018856 -0.15137993 2.3131716
0.48338392 0.22127698 1.7230483
0.072349578 0.0075240834 2.0235221
0.3339062 0.29525122 1.5351886
0.90739244 -0.83964717 2.8602681
0.1515764 -0.16739438 2.2543299
0.1326648 0.50000674 1.3896945
0.78942615 -0.6975174 2.8181298
1.2748524 -0.014545401 2.9117243
1.0956771 -0.29056969 3.3338931
0.99440497 -0.46022514 2.9594827
1.063661 -0.20572168 3.3141954
0.72358924 -0.58588254 3.8949857
0.65653151 -1.2609341 3.2349169
0.89361882 -1.0142777 3.2011423
0.97189462 -1.0193473 3.1259325
1.0790899 -0.2470541 3.2835228
1.1023033 -0.1603291 3.3149276
0.91985261 -0.81822008 3.3647156
0.9750967 -0.70451343 2.9270239
0.95997572 -0.88868636 2.9539487
0.89679271 -1.0243529 3.1142883
1.2378982 -0.18375288 3.1666772
0.53449392 0.31200451 1.8179172
0.67663783 -1.320846 3.1639898
0.6836971 -1.1468607 2.9693789
0.75983226 -0.9614023 3.4164937
0.84467095 -1.0034368 3.052757
0.8388778 -1.0384637 3.2033136
0.8505215 -0.30660728 2.4244177
0.88711226 -0.29823303 2.4611382
0.76394564 -0.59006774 2.83742
0.72261864 -0.25231296 2.4425533
0.65041625 -0.2166158 2.4217892
0.29296091 -0.34748343 3.9838619
1.0628449 -0.70509088 3.3554552
0.6473738 -0.27142179 2.3882344
0.68537939 -0.89374411 2.9852855
0.97747833 -0.90293282 3.2708635
0.84515178 -1.0189772 3.0438192
0.97384709 -0.72776997 3.4012034
0.16724022 0.1105639 2.2824078
1.0416369 -1.0028418 3.1838775
0.58299935 -0.26526472 2.3431692
0.4161422 0.26821738 1.8846385
0.29386789 -0.32441503 2.5407817
1.0077666 -0.90532756 3.2726111
0.8448329 -0.72783613 3.4917414
1.0052197 -0.98417246 3.078038
0.93541437 -1.0123354 3.1174216
1.1851097 -0.22853781 2.8917589
0.97974211 -1.0075738 3.0115962
0.20590475 0.016701801 2.0586724
0.306797 0.019890118 2.0582571
1.0121704 -0.67873573 3.3912547
0.042631637 -0.089071035 2.2613771
0.99832165 -0.88049936 3.2717228
1.0086417 -0.97055018 3.0523174
1.0687459 -0.060487818 3.0936003
0.88765562 -0.42663091 2.6961102
0.96163708 -0.96980077 3.0212643
0.81054932 -0.35786468 2.6311121
0.97686887 -0.91808438 2.9826515
1.0764356 -0.27976057 3.3193514
-0.1868009 -0.8838374 3.7297807
0.8532654 -1.0169723 3.0610816
-0.33969653 -0.83642787 3.7794363
-0.0903164 -0.041476697 4.0709343
0.26276481 -0.09774828 2.2128134
-0.48808235 -1.1130754 3.8167892
0.34071195 -0.15560324 2.2347007
-0.3512609 -0.94768685 3.8136761
-0.47591585 -0.82059503 3.9169793
-0.32415286 -0.95775485 3.7849176
0.30598897 -0.36746499 2.4640603
-0.10572592 -0.32461494 4.0163302
-0.56515712 -0.61306697 4.0362077
0.21019307 -0.15676358 2.2971399
-0.43225938 -0.17685485 1.7747793
0.13236918 -0.27964702 2.4049838
0.40794548 0.27365485 1.8846809
-0.18133387 -0.073697209 2.0536537
0.40984887 0.58350009 2.3165317
-0.2765691 0.26431498 1.7829207
-0.17793119 0.035677325 2.1331801
0.74760509 -0.43107656 2.6821361
0.53926814 -0.21448807 2.2508018
0.82044184 -0.55040687 3.83639
0.78002942 -0.51117891 3.8616793
0.68835002 -1.1496968 3.0319166
0.99123132 -0.45683894 2.9608276
0.84720504 -0.8063423 3.4521549
0.7364803 -0.54268098 3.6477728
0.81193125 -0.95209134 2.9838808
0.53128374 -1.0846798 3.3833733
1.1989383 -0.032326251 2.810658
0.95698768 -0.87612903 3.2847068
1.1989392 -0.031344518 2.8548512
0.66381395 -0.8357662 2.7978652
0.65721732 -1.308022 3.2088678
0.70500988 -0.42565602 3.9703817
1.1137713 -0.14228809 3.2881935
0.81746149 -0.41975069 3.8264933
0.90608698 -0.74044865 2.8971572
0.91385239 -0.74325716 2.8960078
0.82813096 -0.446646 3.803818
0.83218575 -0.85436904 2.8778164
0.87660408 -0.71509653 2.8868604
0.7138617 -0.79484653 2.8644495
1.0921104 -0.15848471 3.2902372
0.78311026 -0.53702843 2.8849785
0.48274601 -0.74669135 3.5753453
0.4911966 -0.75044954 3.5710499
1.0240144 -0.88170528 3.2706113
0.82644826 -0.35957348 2.6731305
0.50444156 -1.1140893 3.3382044
0.84790826 -0.2659727 2.4434786
0.81790519 -0.49493659 2.7922521
0.8091116 -0.53790724 3.8421137
0.77125925 -0.42140934 3.7858815
0.64514422 -1.124299 2.899627
0.83423311 -0.42671818 3.7926946
1.0631397 -0.086468399 2.6760657
0.82622778 -0.40638393 2.6953833
1.0468035 -0.077477343 2.6676726
1.103331 -0.1518054 2.6879268
0.96501803 -0.18232305 3.236526
1.1815692 0.17605792 2.9020851
1.1761644 0.18456638 2.8971593
0.50817978 -0.50053406 3.7293756
0.29553291 -0.62200654 3.7072115
0.72811532 -0.52859777 2.8024247
1.0240511 0.29243588 2.8522859
0.68525219 -0.17588872 2.3124402
0.84924638 -0.50288641 2.5855374
0.55060524 -0.2618731 2.4517291
1.140489 0.048406202 2.8570666
0.57890397 -0.26326042 2.334142
1.1512322 0.025367726 2.8513956
1.0938631 0.12198386 2.8417928
0.68901932 0.0024552934 2.2218723
1.0153844 0.16985017 2.7908669
1.0318344 0.13264306 2.7881622
0.43014893 -0.71841604 3.5787907
0.7029441 -1.1326129 2.9957588
0.35656413 -0.36005509 2.6718271
0.24689782 -0.28244731 2.557827
0.4038139 -0.40956518 3.9098375
1.0277489 -0.50306535 2.8169997
0.80296546 -0.48759881 3.8998084
-0.061993439 -0.40933236 1.972293
0.12729055 -0.040794149 2.1119576
0.28032261 -0.34073064 3.9849455
-0.03592946 -0.023509443 2.0112503
0.83552861 -0.36626697 3.8574533
0.080960594 -0.59694868 2.257025
0.2042307 -0.033609897 2.378401
0.58648628 0.259018 1.7406269
-0.10647734 0.35258639 1.4690454
-0.080348186 0.36446729 1.4893724
-0.30054259 0.33013305 1.5192662
-0.30483034 0.36924654 1.5324286
0.58058852 -0.27075469 2.5011184
0.35761935 0.33208084 1.8405056
0.46598965 0.13873999 1.7405689
0.40161812 0.015232593 2.0305617
0.22493471 0.0087903384 2.0667901
-1.9478257 2.1477754 -0.44599694
-1.9363979 2.0899692 -0.60611248
-2.0039442 1.9106187 -0.31110427
-2.4198685 2.0755959 -0.49495372
-2.2749038 2.0929897 -0.47813869
0.49680263 -0.60216361 3.6612504
-2.5605018 2.0322657 -0.42213604
-2.6967516 1.7831862 -0.53615344
-3.0001416 2.1252275 -0.32263827
-3.0293925 1.0771809 -0.22714399
-3.0509884 1.2106923 0.06847921
-2.9920719 1.8322662 -0.52981281
-2.9769645 1.8282955 -0.53551185
-2.9350965 2.1541958 -0.31509385
1.0555488 -0.67758453 3.371619
-3.0098619 1.3429106 -0.14104156
0.28336406 0.35397974 1.487493
0.12145253 0.15508033 1.8308996
-0.044059459 0.36045429 1.4267249
1.1422222 -0.1665372 3.2244217
0.002787936 0.16310443 1.7940587
-0.10615769 0.13956495 1.8163539
0.45725834 -0.44673026 3.9095235
-0.0075782556 0.17426789 1.7735497
0.50114959 0.54321331 1.7423414
0.97437477 -0.71144938 3.4270232
-0.46141344 0.4903014 1.4487346
0.018587843 0.49516308 1.2645136
-0.23255898 0.28360632 1.5711168
0.35343978 1.0146307 1.6348885
-2.9106555 1.6741034 -0.53407311
0.8487004 -1.0038844 3.0522647
-3.0085731 1.640268 -0.62726206
0.0082923621 -0.12297779 2.057852
0.021771932 0.26344749 1.5502161
0.089272596 -0.21981291 2.3230689
-0.12779306 -0.057262357 2.1148334
-0.1967722 0.22562857 1.7175623
0.085993111 -0.181051 2.0895357
0.90997243 -0.9317463 2.9713104
-2.7109003 2.1110349 -0.46421272
0.0012969931 0.17033587 1.7765228
0.072552294 1.1086398 1.6283163
-0.34212375 0.31569934 1.6222209
-0.0037571145 1.2440834 1.5442158
-0.15664442 0.0083816107 2.1187849
-0.066029333 0.38987899 1.4395804
-3.405411 1.7653025 -0.78134477
-2.9037821 1.0094265 -0.15154278
-0.31296778 0.30143729 1.6220165
-0.087154336 -0.091903433 2.1596437
-0.14550368 0.35300854 1.4705851
-0.12980422 -0.068891659 2.2389731
-0.23811419 0.069701537 2.034687
-0.3343026 0.34027216 1.6695356
-0.02061037 0.18831141 1.7670438
0.97390532 -0.97731614 3.2339814
0.24601865 -0.27128324 3.8837345
-0.24637054 0.10640954 1.9016364
0.42072561 0.79365861 1.8558766
0.66374558 -0.21500008 2.2883861
-0.28663507 0.17411712 1.7185185
0.45755199 0.35182339 2.2945924
-0.22191426 0.23233357 1.7609236
-0.37567341 -0.44772106 4.1778264
0.58583331 -0.25409451 2.4049907
-2.7237566 2.0661647 -0.27084222
