# .PCD v0.7 - Point Cloud Data file format
VERSION 0.7
FIELDS x y z
SIZE 4 4 4
TYPE F F F
COUNT 1 1 1
WIDTH 493
HEIGHT 1
VIEWPOINT 0 0 0 1 0 0 0
POINTS 493
DATA ascii
1.1004357 -0.22726886 2.6642766
0.92643005 -0.76763541 3.0790954
0.80877441 -0.83273822 3.1484904
0.93288153 -0.57913828 3.2080386
0.91715914 -0.53599775 3.2558296
0.9465012 -0.72591412 3.0915072
1.017058 -0.7579475 2.9959743
0.81173354 -0.82172745 3.0386581
1.0724182 -0.67965919 3.0006015
1.0801338 -0.76157445 2.9153376
1.0271835 -0.79430538 2.9609535
0.92501515 -0.7687425 3.0804343
0.90063232 -0.72213811 3.1327639
0.90626782 -0.73007149 3.1293211
1.0399525 -0.43445992 3.2053807
0.96471262 -0.55435073 3.185859
0.99740267 -0.74206132 3.028832
0.6533072 -0.7856977 2.962456
1.1331499 -0.2330405 2.6216857
1.0808129 -0.74234509 2.93735
0.6988759 -0.90141904 2.8307164
0.81409317 -0.8134883 3.0262232
0.92339778 -0.54057038 3.2420826
1.0871558 -0.76507998 2.9207985
0.92777473 -0.78368598 2.8905332
0.94015312 -0.28713015 2.7942865
0.92699033 -0.24336721 2.7832501
0.69654655 -0.79639292 2.9522107
0.62061864 -0.92639196 2.7334573
1.089394 -0.75027794 2.931216
0.68638802 -0.93250197 2.8558547
0.938434 -0.55930513 3.2195551
0.84574032 -0.53361177 3.3188078
0.95495713 -0.81406993 3.001687
0.82147264 -0.81770563 3.024431
0.8088901 -0.82789999 3.1476789
0.94481516 -0.68853313 3.1403735
0.90447539 -0.72810972 2.8405652
0.056610208 -0.22277604 3.995425
-0.16498905 -0.17012064 3.9782934
0.7341904 -0.024428876 2.3100049
0.63369691 -0.78412962 2.5729671
0.76512641 -0.15213288 2.3540194
1.1118485 -0.24027388 2.6610749
0.95820057 -0.28501377 2.7815168
0.67597991 -0.83837217 2.9199803
1.0822626 0.04233548 3.126663
0.79509664 -0.30126214 3.7634757
0.82972151 -0.29338211 3.7117729
0.89115971 -0.35180777 2.8157735
1.0971949 -0.18759753 2.6987638
0.99876642 -0.77456945 2.9733956
1.1370431 -0.23216906 2.6268208
-0.7812525 -0.22040573 4.0732598
0.30949798 0.052869968 2.1111288
0.6237095 -0.7639389 2.5655971
0.94990832 -0.20290801 2.7784419
0.84020197 -0.59656125 2.6957188
0.83588254 -0.59496021 2.6909461
1.153317 -0.22229332 2.6537893
1.1443176 -0.20625591 2.6570742
0.66731387 -0.93315881 2.8689888
0.89997441 -0.6497032 3.1695967
0.73117346 -0.16910945 2.5237463
0.67153519 -0.21836224 2.5880032
0.69848502 -0.16769728 2.5304925
0.74903476 -0.21033764 2.564173
0.7372936 -0.19697645 2.5563688
1.0874434 -0.74991691 2.9314401
0.58365548 -1.072605 3.0740557
1.0094216 0.021857431 3.0572233
0.98816437 0.041094471 3.0648963
0.95089877 -0.28450388 2.7958815
0.87318331 -0.34413871 2.8281748
0.58224708 -0.02341661 2.3151641
-0.48225263 -0.32347795 4.2075815
0.53870577 0.015748456 2.1600785
0.398709 -0.040448826 2.3174422
0.97051066 -0.13640994 2.7548327
0.95750225 -0.10994048 2.7484109
-0.30908233 -0.83205092 3.7422822
1.0064005 -0.74100608 3.0303242
0.77167994 -0.65581191 2.800137
0.50645 -0.042744923 2.3428431
-0.43544489 -0.30463049 4.1394286
1.1427978 -0.23685047 2.6315191
0.82740217 -0.21805683 2.6188021
0.84333152 -0.77960324 2.9329896
0.75775743 -0.19586322 2.5574126
0.80608833 -0.68738824 2.8481913
0.94281411 -0.66412401 3.1420941
0.33361995 -0.055618048 2.3518429
0.83642501 -0.60111034 2.6959436
-0.024913592 0.07287892 2.2493589
0.23741829 0.24305034 1.9496504
0.90357202 -0.64430285 2.7547834
0.1471723 0.23936249 1.9819775
0.9013111 -0.64324087 2.7463758
0.87147325 -0.75729084 2.8939979
-0.17003526 0.10194743 1.9982115
1.1678652 -0.096112974 2.4751024
0.71629119 -0.041322272 2.2817557
0.45425734 -0.1588645 2.5720994
0.45143932 -0.1734495 2.569567
0.38231814 -0.12329748 2.557318
1.1053852 0.20764831 2.6605058
0.39783823 -0.050923549 2.3074183
0.32741603 -0.026684651 2.3565266
0.46828666 -0.21878125 2.5466123
1.0013871 -0.71947014 3.0351758
0.66220003 -0.78395307 2.9533405
0.80678368 -0.74337405 2.8156073
0.21485229 -0.087330937 2.4240081
0.23943172 -0.10252369 2.4259715
0.91855979 -0.79751796 2.9197857
0.82087117 -0.83402461 3.1431229
0.073621184 0.05854506 2.216058
0.074392922 0.12858275 2.17874
1.105355 -0.19817063 2.6958778
0.78960848 -0.79279429 2.9465158
0.66413534 -0.34103957 3.5288596
0.93263316 0.12885275 2.9999137
1.0269362 0.0017718803 3.0555542
0.94189399 -0.70079207 3.1246614
0.97821212 -0.73587126 2.8793607
0.53332138 -0.14580336 2.5499947
0.44035524 -0.02024341 2.3485217
0.8154428 -0.7719171 2.8987565
0.91363001 -0.77734238 2.9343171
0.75733769 -0.74199617 2.8632095
0.79854429 -0.77953672 2.8939505
0.94964021 -0.6459226 3.122597
0.56015778 -0.11203845 2.3993349
0.76074737 -0.35180476 2.7543719
0.31425631 -0.044365175 2.3461685
-0.33643636 -0.58854651 3.9302351
0.84605277 -0.48367634 3.3579195
0.79536152 -0.65394324 2.7642314
0.86352193 -0.57798606 2.7150097
0.86617118 -0.57687968 2.7194605
0.84343332 -0.56045163 2.7234864
0.73470861 -0.19588448 2.5655961
1.0011114 0.039300863 3.0611434
0.73046726 -0.17519213 2.5421934
0.69769204 -0.16898385 2.5307751
0.72447944 -0.16587283 2.5215757
0.97314417 -0.81300986 2.9964907
0.56604815 -0.17089324 2.5523918
0.68052143 -0.90973443 2.848249
0.9398281 -0.62613612 3.1161532
0.88898146 -0.72708046 2.8067052
0.75834787 -0.21347037 2.6106663
0.73768294 -0.27459621 2.6729949
0.81456554 -0.12170179 3.649116
0.50978315 -0.29462761 4.0888233
0.93687373 -0.78600097 2.9438975
0.98687464 -0.246471 2.7835362
0.85771662 -0.58386886 2.7087326
0.7531569 -0.20162211 2.5596547
0.69289505 -0.19850861 2.5769773
0.93673414 0.17941618 2.532306
1.0583771 -0.037913553 3.0449529
0.98274064 -0.54754812 3.191895
1.1793979 0.14309262 2.7080727
1.1881657 0.10530573 2.7034538
0.76867181 -0.32483691 3.7804043
1.003846 0.12051251 2.93613
0.75233126 -0.25395635 2.6372213
0.70849866 -0.26151189 2.6769803
0.97332489 -0.60065305 3.1629689
0.6394462 -0.75946528 2.8647418
1.0280235 -0.29770282 2.6450033
1.0017991 -0.80024791 2.9864075
1.1801366 0.061944053 3.0306726
0.66071284 -0.77072304 2.875834
0.92735511 -0.54374921 3.2522588
0.67292333 -0.78948176 2.949527
0.79687017 -0.65720165 2.7669885
0.72989488 -0.50441587 2.663799
1.137789 -0.20756103 2.6513579
0.70285863 -0.79259455 2.924464
1.0332915 -0.012265683 3.1534741
1.1370182 0.18826562 2.713378
0.91735613 -0.73194575 3.1247146
0.95805377 -0.21483061 2.7859046
1.065585 0.067815222 3.0688131
0.80382007 -0.29441452 3.7494245
0.75582796 -0.31993145 3.7906189
0.90803736 -0.76543117 2.86569
0.7626425 -0.41048318 3.7454944
0.81547409 -0.3036209 3.5342393
0.86871493 -0.21754445 2.8441737
0.75624704 -0.44071892 2.7252049
0.86609292 -0.73645335 3.1294217
1.0499837 -0.5403406 3.1622934
0.97899491 -0.73141348 3.0366302
0.58736956 -0.82208747 3.1997187
0.80712295 -0.595644 2.7056055
1.0573052 -0.25283867 2.6927109
1.1739713 -0.11168812 2.4763916
0.15454818 0.18716347 2.050334
0.38730767 0.12718199 2.0890076
-0.17788373 -0.46090403 2.1771548
0.82311851 -0.73981518 2.8670437
-0.089899249 0.33758855 1.9400836
0.85624808 -0.60436058 2.6903751
1.1506439 0.011375599 3.1003253
1.1955888 -0.028355345 3.0436046
1.1043752 0.032077346 3.0071738
1.1385572 0.041063793 3.0430484
0.58308363 -0.60364717 2.6493924
0.72672051 -0.46850148 2.6647336
1.1230772 0.039343648 3.1113608
0.9276005 -0.22483788 2.8010418
0.61298215 -0.92620748 2.7339442
0.82092732 -0.24387276 3.6803453
0.78430003 -0.21773098 3.6704779
0.74242496 -0.40919697 3.7476244
0.66322792 -1.05729 3.0623615
1.0413997 -0.41797999 3.2198441
0.81899178 -0.8086639 3.0034862
0.92075151 -0.46818775 2.7581806
0.95341825 -0.26481 2.7942648
0.85954893 -0.5415231 3.317811
0.71479285 -0.72385478 2.8885512
0.98333424 -0.30008066 2.798506
0.94215322 -0.22086437 2.6536975
0.72866541 -0.62290961 3.3359151
0.8175239 -0.24924314 3.6687589
0.77899384 -0.24427302 3.6483033
0.8040635 -0.76864195 2.8779361
0.6615274 -0.93004042 2.8014672
-0.36416823 0.24135266 1.9608227
-0.30356979 0.19017227 1.9796915
0.95417422 -0.81007338 3.0020952
0.94451886 -0.71656728 2.8242748
0.76242751 -0.75999385 3.2498043
-0.032739829 0.1796986 2.039463
0.73127836 -0.057387587 2.2872193
0.77016526 -0.048278935 2.3213112
1.0458511 -0.29982635 2.7274992
0.80256957 -0.79218143 2.9334815
0.60219282 -0.01240785 2.3180361
0.52647758 0.019388335 2.3048139
0.42616817 -0.14618072 2.5676334
0.64894682 -0.67830634 2.8296728
0.82036346 -0.79532069 2.8691785
0.64834088 -0.91490746 2.826406
1.0747758 -0.25127405 2.6847353
0.83012754 -0.57467282 3.2984583
0.19065128 -0.14669523 2.3831179
0.83878213 -0.52494287 3.3295634
0.98025101 -0.75169921 2.8923554
0.86385989 -0.73176306 2.8412998
0.91576302 -0.7860716 2.9356778
1.0005327 -0.26037934 2.7271252
0.040266957 0.23906711 1.9898189
1.0210911 -0.73712254 3.0579603
0.99400759 -0.46063066 3.2187514
0.98285609 -0.65737605 3.0908644
0.94690043 -0.73459226 2.8857348
0.95151162 0.17804834 2.5371022
0.76591957 -0.18054372 2.5723636
0.98071474 -0.7367571 2.8671494
0.97624683 -0.008441166 3.5659542
0.3886334 -0.76686275 3.2931433
0.76235127 -0.19303761 2.5700688
1.1353843 -0.21538207 2.6370749
0.84401685 -0.28470868 3.7264056
0.74094886 -0.21855763 3.8009183
0.92255896 0.098478742 2.9626019
0.71483535 -0.24883701 2.7000346
0.79781026 -0.18664749 2.5488811
0.81221586 -0.24636599 3.6915326
0.76373553 -0.22182798 3.8366017
0.77323407 -0.21336086 3.8344045
0.7447381 -0.19974113 3.8375235
0.89292413 -0.77118027 2.8975358
0.78753245 -0.1855114 2.5502706
0.93137139 -0.7377007 2.8399715
0.81583065 -0.23367284 3.658792
0.81180227 -0.23525918 3.659518
0.71047926 -0.21778448 2.6007988
0.71156746 -0.1202461 2.4936361
0.76801741 -0.17285715 2.5005624
0.79164416 -0.20394616 2.5321867
0.8167997 -0.070367649 3.66008
0.80623186 -0.11658745 3.6534581
0.79930091 -0.1190048 3.6514359
0.64505899 -0.92816955 2.810003
1.0014091 -0.79005933 2.9896877
0.65833646 -0.93076491 2.7950187
1.1829375 -0.043921769 3.1439257
1.1319686 -0.0011937118 3.1737733
1.0772054 0.051482398 3.1829555
0.99866009 -0.69502103 3.0673075
-0.30933547 -0.72319812 3.7039845
-0.086279191 0.07263542 4.0138288
0.14980978 -0.080204852 2.5070651
0.11646642 0.12185582 2.1331594
-0.43688777 -1.0103171 3.7392049
0.92585748 -0.79128659 2.9316835
0.19934984 0.068295747 2.1459527
0.95046693 -0.76883548 2.9281633
-0.41925728 -1.0259928 3.728745
-0.31120214 -0.83638144 3.7334924
0.95468992 -0.72411156 3.0893772
-0.29880428 -0.84441507 3.7273443
-0.3279117 -0.83775651 3.7302363
-0.39525065 -0.73285472 3.831598
-0.43456614 -0.72239059 3.8524468
-0.50627077 -0.70449811 3.8682737
-0.42169216 -0.72513336 3.8289409
-0.31798625 -0.76583403 3.7774646
-0.27854457 -0.66390091 3.8367851
1.0107083 -0.55584913 3.1530659
0.11445226 0.028611865 2.2308097
-0.40218562 -0.57593858 3.9418781
0.94166207 -0.78977704 2.9431648
0.074692629 0.055860799 2.2183485
-0.60586959 0.017060928 1.7478815
0.67822659 -1.1235611 2.9795132
0.90379637 -0.78302068 2.9440224
0.85175902 -0.68928713 2.7969275
-0.33979556 0.12391409 2.0108702
-0.38647103 0.3311013 1.9904932
0.88140428 -0.32459721 2.8429973
0.82864153 -0.21998577 2.6057675
0.19981091 0.03296487 2.2191372
0.025197685 -0.41776741 2.1751077
0.13085587 -0.24234249 3.9470534
-0.46802741 0.29741463 1.9798555
-0.25161842 0.29565886 1.9900184
-0.36668804 0.19387566 2.0630798
0.39711255 -0.039806776 2.3231561
0.80946606 -0.8245104 3.1487994
0.96590465 -0.59196651 3.1661093
0.41277528 -0.85473859 3.2661819
0.84272921 -0.60129684 3.2860844
0.84707892 -0.70947474 2.8133602
0.51393408 -0.88659638 3.2324908
0.95381701 -0.57874507 3.1699893
0.87817067 -0.30839452 2.8453164
1.0886091 -0.21840504 2.6679976
0.94253212 -0.65629035 3.107265
0.67440903 -0.90106404 2.8621559
1.1234533 0.2026166 2.7007482
0.75866693 -0.28303066 3.8135574
0.85627878 -0.61832511 2.745764
0.87538254 -0.73625159 2.838846
1.0536819 0.085338198 3.1346245
0.90324128 -0.78586525 2.9417236
0.81999481 -0.23442625 3.6802368
1.0547078 0.086074546 3.1724284
0.85967314 -0.50943202 2.7302113
0.8304069 -0.25953776 3.6554906
0.66132122 -0.57250756 2.7120001
1.1455183 -0.21862973 2.6488998
0.71604156 -0.31188437 2.7397165
0.81279486 -0.21719982 3.6687565
1.1360761 -0.22358166 2.635371
0.48658967 -0.57105893 3.4404047
0.73623538 -0.25443846 2.6485043
0.67045391 -0.93304038 2.8512926
1.0883452 0.050988544 3.1081259
1.0708795 0.070227236 3.1111982
1.0460237 0.050075743 3.1817064
0.51135767 -0.92539632 3.1844375
0.75475794 -0.33133069 2.7530577
1.0823284 0.032319251 3.1412778
1.0305208 0.0036441502 3.0623329
0.41596013 -0.85205251 3.2553923
0.87629378 -0.25695673 2.608813
0.92768031 0.20360726 2.5338013
0.81741875 -0.29197109 3.7198505
0.82900077 -0.21220525 2.6166379
0.66929102 -0.098103508 2.4949126
0.81954193 -0.27414542 3.6172965
0.77081591 -0.23729478 3.6433594
1.0323846 -0.67340684 3.073947
0.91613626 -0.77458936 2.9102368
0.83434284 -0.23878132 3.6449187
0.73540092 -0.17043795 2.5539973
0.99479634 0.10175243 2.5373113
0.90394413 0.038013525 3.0929246
0.94730175 0.1063673 2.9947078
0.76954567 -0.35166278 2.7370105
0.72517109 -0.25575882 2.5880628
0.50935829 -0.33083019 3.6039202
0.30347922 -0.46481293 3.5926087
0.6540665 -0.3034111 2.6622701
0.50611931 -0.29247949 4.0876408
0.67130983 -0.90198684 2.8521929
0.43241951 -0.033564165 2.3402538
0.75742215 -0.77551621 2.9451711
1.0332867 0.2962741 2.7126782
1.0449257 0.27425918 2.7050476
0.98113483 0.36725795 2.7047782
0.53506804 0.24914876 2.1135406
0.895962 0.41211176 2.6626205
0.95920783 -0.72614157 3.0709491
0.91439104 0.37621319 2.6567941
1.0753391 -0.25076014 2.6851342
0.1920688 0.15583199 2.0585954
0.66939968 -0.7813462 2.9267526
0.88373792 -0.30324817 2.8511543
0.76161957 -0.17796525 2.5427053
0.85220885 -0.34974924 2.6463904
0.8588534 -0.10821211 3.6365869
0.91710603 -0.024749918 3.6415248
0.90774161 -0.01450407 3.6487153
0.82018417 -0.06952665 3.6754708
0.8242029 -0.080649488 3.6708226
0.68195498 -0.91574985 2.8269196
0.64148813 -0.041822854 2.4140105
0.98744214 -0.66542512 3.092452
0.99973607 -0.029846758 3.1568432
0.89949459 0.03950182 3.091856
0.85196936 -0.091202162 3.7199435
0.86841601 -0.11158749 3.702867
0.84040266 -0.095988117 3.7210271
0.72162557 -0.34236616 2.7247434
0.73472989 -0.35660395 2.7157373
0.6943711 -0.33034816 2.7062201
0.70426601 -0.019528888 2.2710109
0.70319533 -0.035903737 2.2847047
0.25272423 -0.18723422 2.5064871
0.19622542 -0.050080255 2.5437708
0.26342756 -0.15384394 2.5698388
1.042577 -0.44319898 3.1986759
1.018935 -0.7929824 2.9669333
-0.23191653 -1.0471729 3.6727078
-0.16341853 -0.40719274 2.1074097
-0.25574407 -0.37102517 2.0792732
0.18089058 -0.13280334 2.4042194
0.89815646 -0.79257071 2.9056482
1.1998858 0.094681799 2.6958761
0.71094197 -0.21566698 2.600867
0.92562103 -0.72635132 3.1069896
0.66310674 -0.18743685 2.5455763
0.9257648 -0.76170069 2.8888855
0.81573939 -0.30625543 3.7510254
0.99648243 -0.29789242 2.7525017
-0.32652369 -0.13717136 1.8550636
-0.03004436 0.17426276 2.0462282
0.29377428 -0.19770409 3.8842289
0.65535069 -0.89167231 2.8674157
0.47110334 -0.026677841 2.2142494
0.23987751 -0.17606394 2.5017815
-0.0822253 -0.46890169 2.2501221
0.17934948 -0.097781405 2.4579837
-0.36292073 -0.73934639 3.8159909
0.81409591 -0.1611623 3.7353864
0.15886061 -0.091651596 2.460288
0.1561736 -0.090107545 2.459861
0.66834354 -0.097455516 2.4245949
0.46682996 -0.042649675 2.3866279
0.15396497 0.57302159 1.7762185
0.047749493 1.0572919 1.9080853
-3.3750198 2.2490098 -0.18052806
-3.4493654 1.9523031 -0.25285992
-3.4123414 1.5974629 0.23100728
-3.4138942 1.7006294 0.28515244
0.70109069 -0.84227115 2.9014163
-0.20509408 0.39484501 1.7305349
-0.70253056 0.69467789 1.4584953
0.81950223 -0.23974949 3.680553
-0.45216715 0.49813351 1.5521066
-3.373811 1.8028522 -0.26426727
0.82365656 -0.78041738 2.8780532
-3.4767559 1.7668624 -0.35100797
-0.14779225 0.086969361 1.9976748
0.54727447 0.017442564 2.1688466
-0.19964056 0.49555174 1.5102606
-0.32431972 0.29518577 1.9151262
-0.19467966 1.3379668 1.6257621
-0.36836392 0.19391173 2.0427208
0.98533189 -0.56279957 3.1703284
-0.52908778 0.50841022 1.6100022
-0.23632424 0.10721362 2.1080809
-0.37805411 0.57744998 1.4485784
-0.27367765 0.12385881 2.1915636
-0.21945286 0.40828291 1.7257777
0.2471063 -0.1262282 3.7895892
-0.42798987 0.30595034 1.873531
-0.63567835 0.31814197 1.5894935
0.28929162 0.57911152 2.2214384
-4.2475367 -0.30681086 4.5078464
-0.33643377 -0.3556906 4.1226797
0.90210861 0.35028878 2.6404941
0.72134471 -0.55547404 2.7439232
0.99704081 -0.54860002 3.161021
-0.35507983 0.3899962 1.7635353
