# .PCD v0.7 - Point Cloud Data file format
VERSION 0.7
FIELDS x y z
SIZE 4 4 4
TYPE F F F
COUNT 1 1 1
WIDTH 515
HEIGHT 1
VIEWPOINT 0 0 0 1 0 0 0
POINTS 515
DATA ascii
1.0235912 0.27216014 2.594346
1.0046824 -0.089924783 3.0240321
1.1019039 0.20004882 2.5807176
0.92021072 -0.24616507 3.03163
0.68457615 -0.51870054 2.6846251
1.0689931 0.24246173 2.5938523
0.90471143 -0.28577319 3.0201371
0.88881207 0.030017469 2.4571471
0.86335462 0.06780193 2.4533255
0.67252314 -0.54936165 2.7469046
0.68994725 -0.5483076 2.7312157
1.011971 0.091537274 2.4628108
1.0229409 0.11280315 2.4934192
0.91995788 -0.28561136 3.0076559
0.9110539 -0.2559334 3.0374737
0.90452254 -0.24508506 3.0577722
0.83313644 -0.24087198 3.143435
1.0031912 -0.47315645 2.7308955
1.0580734 -0.44789317 2.699064
0.91806376 -0.47231129 2.8756177
1.0136409 -0.13205695 3.0007539
0.64013511 -0.51048034 2.7790236
0.5071978 -0.083990604 3.4416866
0.68462229 -0.61881256 2.6407909
0.6468519 -0.48364666 2.7584417
0.90999371 -0.24878711 3.0434484
1.0045843 -0.47584283 2.7367001
0.60115969 -0.6484167 2.5493319
1.0675881 -0.4361794 2.714483
0.92470378 -0.2656258 3.0192692
0.83851343 -0.25037706 3.1262367
0.67462093 -0.53246325 2.72241
1.0079433 -0.4850997 2.7463377
0.87470078 -0.42835906 2.6394019
-0.14278892 0.0082109887 3.8737652
0.58889931 -0.50204915 2.3925104
1.0241604 0.079659753 2.4583411
1.0457561 -0.45891714 2.7263899
0.64122736 -0.55162835 2.7406752
0.82715642 -0.054229666 2.6266806
1.0335033 0.22791928 3.0131996
1.0081472 0.12999949 2.498584
0.57664984 -0.48265696 2.3865421
0.93745667 -0.3095291 3.0003991
0.86714649 -0.23446059 3.1188908
1.0632029 0.10137267 2.4483287
0.64449608 0.019231014 2.5025115
1.0531564 0.11648043 2.4527786
0.65911448 -0.65404087 2.6804984
1.0656384 -0.43599629 2.7148707
0.82150012 -0.2352272 3.0793524
0.90997714 0.34008673 2.8786716
0.80956227 -0.045885656 2.6395428
0.80965459 -0.048446156 2.6406803
0.87941319 0.019612228 2.6033163
-0.37143993 -0.4027496 3.8789198
1.0265043 0.16776779 2.5296655
-0.426043 -0.1774656 4.1228414
-0.37381935 -0.14883722 4.1088095
0.39236891 0.29529536 2.0118232
0.29783505 0.18814911 2.1889787
0.84542078 -0.43725735 2.6323755
0.86679751 0.1939607 2.561343
0.99242812 -0.43642858 2.8200636
0.73334551 -0.36714131 2.6117048
0.66031969 0.095045567 2.3843014
0.95340925 -0.40495878 2.867383
-0.33195093 0.32240334 1.9090078
0.35696229 0.10488635 2.42398
0.3552106 0.090169519 2.4212554
0.31145823 0.24726033 2.2069983
0.27017754 0.21326284 2.1678288
0.20215553 0.23012744 2.2230289
0.64807564 -0.50775993 2.769289
0.99918395 -0.48818684 2.7677944
0.10106738 0.15834607 2.297399
0.12693845 0.14533339 2.2969732
0.6579324 -0.61833686 2.6786792
0.70087296 -0.63099217 2.6308393
0.80289847 -0.4725588 2.6923573
-0.068585269 0.29579371 2.1055779
-0.076862663 0.36643434 2.0703659
0.6762982 -0.65451854 2.6683064
0.95109481 0.30454066 2.8651583
0.79654884 -0.45731786 2.6160879
0.95173758 -0.43046218 2.6720107
0.43255591 0.12533219 2.3960891
0.81290388 -0.46740314 2.7163043
0.31310025 0.24664761 2.2063198
0.7947787 -0.48109716 2.7031457
0.7316252 -0.45562333 2.6731827
0.77826256 -0.49006501 2.69947
-0.18558618 0.42248318 1.9584509
0.44407091 0.1646415 2.2448249
0.69267154 -0.064336874 2.5757961
-0.28101191 -0.42250469 3.8272631
0.14540084 0.073411353 2.2508409
0.70172781 -0.84555095 2.7779822
-0.32420951 0.47398099 1.8450112
-0.25316682 0.42332593 1.9139217
0.75378501 -0.36240622 2.5741105
0.86111301 0.00073868339 2.6115687
0.81094915 -0.2796835 2.5218868
0.81384635 -0.27844697 2.5261447
0.86509132 -0.0017917909 2.6092916
0.7901842 -0.26417431 2.5324292
0.63809872 0.092817552 2.3942757
0.62826967 0.056851506 2.4485917
0.61867988 0.071440004 2.4086218
0.63021004 0.1135682 2.371892
0.62178981 0.12277765 2.3520908
0.9628396 -0.51031315 2.786885
0.68523324 0.10443898 2.4406114
0.65653157 0.012321667 2.4987721
0.51672864 -0.037132896 3.9547019
0.54692042 -0.058900923 3.9269958
0.92023361 -0.48544368 2.7381275
0.91053879 0.059799366 2.5900583
0.80517989 -0.28591391 2.5159197
0.96544439 -0.24941175 2.9885492
0.95049727 -0.31027535 2.9845262
0.66027611 -0.66014487 2.6578643
0.86189431 -0.41112533 2.6177151
0.66640013 0.03495365 2.462568
0.62675202 0.022698531 2.5054283
0.95830518 -0.3024877 2.9589269
0.63712388 -0.48964322 2.6762593
0.61618412 -0.48341849 2.6835129
0.80074984 -0.47156698 2.698272
0.80385095 -0.48837352 2.6805608
0.88031733 0.036076318 2.603097
0.98937923 -0.49486211 2.774945
0.65128249 -0.35593161 2.5941401
0.85523027 0.051942267 2.4435823
0.84153396 0.059594702 2.445873
0.6391691 -0.49300507 2.6925592
0.5542807 -0.47898099 2.3866706
0.91502261 -0.25182948 3.0531836
0.84374064 0.059736636 2.4452765
0.65888882 -0.51223904 2.7644815
0.75578672 -0.3655794 2.5766439
1.0463213 0.11473284 2.4475603
0.68684638 -0.51215434 2.7370529
0.81131786 -0.02535069 3.5655849
0.8834824 -0.46576813 2.6630721
0.81558698 -0.0056808381 3.5396841
0.69280463 -0.06503538 2.5771682
0.69346833 -0.15263718 2.5445054
0.96391582 -0.35245961 2.9006524
0.81542856 0.0036582896 3.4773347
0.86076009 -0.4464159 2.9300227
1.0291936 -0.23566929 2.9539516
0.96490306 -0.4294239 2.8287902
1.0038685 -0.39745912 2.8498979
0.52874851 0.10171608 2.3760097
0.75569779 -0.30201945 2.5164571
0.95372963 -0.27674267 2.9698725
0.23055196 0.12396344 2.3991318
0.25555205 0.067684337 2.4304509
0.80526769 -0.41075057 2.623785
0.79706913 -0.44775289 2.6718717
0.90993983 -0.41335601 2.6229069
-0.270419 0.45006278 1.873381
0.81490046 -0.51866168 2.8014979
0.86752611 -0.4947176 2.7414625
0.66041189 -0.18095328 2.4856541
0.52935082 -0.3284454 2.4779046
0.66162354 -0.18156691 2.4857736
0.79884827 -0.41779187 2.9459205
0.98796791 0.23664077 2.9797466
0.85124415 0.075746246 2.6128113
0.80996239 -0.51969147 2.8061562
0.87783068 -0.35182288 2.5771348
0.68987876 -0.441856 2.7023218
0.91284162 0.0057688435 2.6036973
0.85338861 0.084233724 2.4649556
0.64761776 -0.64995426 2.6137638
0.60019588 0.2365848 2.1211801
0.64079666 0.24832244 2.1523445
0.78655535 -0.50317597 2.7381754
0.47065547 0.26935118 2.1633887
0.61580223 -0.40098467 2.6501753
0.31978074 0.24090701 2.0861471
0.078860253 0.12636298 2.3206325
0.83474314 -0.43558425 2.6432354
0.8986094 -0.48718861 2.7316017
-0.24619344 0.33620548 2.1041157
0.9667846 -0.35654843 2.8846776
0.81896329 0.4848997 2.3596225
0.6683234 0.11068968 2.3989997
0.88687742 -0.45236582 2.666291
0.82480305 -0.039173856 3.5285811
0.66566646 0.097984158 2.396632
0.84853035 -0.011643097 3.5397551
0.74655575 0.043530647 3.6240647
0.88902491 0.4735662 2.7664857
0.63382816 0.035369657 2.5282686
0.81082833 0.024515478 3.508631
0.77236122 0.041489676 3.6577272
0.78088778 0.050805476 3.6550336
0.75167543 0.061795179 3.6607873
0.87155473 -0.47352481 2.6958315
0.77886379 -0.50331908 2.7373834
1.0086858 -0.154626 2.9905076
0.90218353 -0.43553299 2.6364076
0.8106693 0.038196556 3.4760897
0.66391593 0.12011325 2.3275108
0.69261444 0.09053155 2.3562541
0.79771501 0.20088632 3.4820402
0.7906518 0.15407382 3.4749339
0.78381282 0.15110172 3.4733961
0.64398777 -0.650814 2.6075692
0.66531265 -0.61598516 2.6418343
0.99322873 -0.25542331 2.9487112
0.84532833 -0.43879342 2.6429386
0.80976671 -0.50110751 2.6885045
0.88656598 -0.35332772 2.5723648
-0.36005929 -0.84715539 3.6325922
0.90875655 -0.49140656 2.7266731
0.93098003 -0.46680671 2.721874
-0.34205583 -0.86098582 3.6203215
0.82080638 -0.53565359 2.8385274
-0.25065216 -0.6627602 3.6220262
0.94442481 -0.42545259 2.8834815
-0.23815067 -0.66953522 3.6146874
-0.33503371 -0.56921315 3.729429
0.92760873 -0.40294486 2.9173732
-0.22753453 -0.6668182 3.5886741
0.08410237 0.090289108 2.2396536
-0.024272395 0.26924783 2.116183
0.92525309 -0.48876712 2.7369094
-0.067104876 0.29316416 2.1076977
0.87121701 -0.44519141 2.6123803
0.69527352 -0.84513867 2.7842381
0.8871423 -0.48538634 2.7409508
0.81547695 -0.39336795 2.6012099
-0.50137973 0.32907614 1.9356667
0.025368517 1.0529146 2.1572616
-0.68741256 0.66371596 1.7120008
0.64310032 -0.38562661 2.6224999
0.61819273 -0.59272993 3.0110259
0.84751546 -0.24794821 3.12782
0.84007347 -0.47367626 2.6982489
0.85918832 -0.25392362 3.1278667
0.73670483 0.076187059 2.4261858
0.9922964 0.23152143 2.9793863
0.05916651 0.28134459 2.0979371
-0.079099268 -0.18191174 2.0547612
0.15464695 -0.037015706 3.8171735
0.81249774 -0.28831774 2.5146825
0.80821884 -0.47817972 2.7262266
-0.43025953 0.50832593 1.9129137
0.84316993 -0.49951291 2.7851295
0.96128625 -0.43963948 2.6836913
0.80035919 -0.38679162 2.607857
-0.5298509 0.3952336 1.9918473
0.89525235 -0.45465091 2.6065536
0.85710412 -0.031217212 2.6223242
0.8874653 -0.45187879 2.6676896
0.83308566 -0.29297441 3.1029098
0.89043212 -0.38605168 2.6130376
0.82975668 -0.28053796 3.1068316
0.57942647 0.089940265 2.3799877
0.56026477 0.082782529 2.380513
0.80318433 -0.41775671 2.6368806
0.81646979 -0.075778 3.5158627
0.82690483 -0.045768891 3.5056226
0.84075868 -0.048619218 3.5152576
0.82778496 -0.036055192 3.4889216
0.44422549 0.16400595 2.2925925
0.8230325 -0.0071110008 3.5730293
0.82200122 -0.020858221 3.5570495
0.82432204 -0.0027183704 3.4693146
0.82281005 -0.0079943007 3.4184651
0.56838369 -0.042681232 2.5217328
0.79017693 0.037222013 3.4537988
0.78708732 0.039105698 3.4533994
0.82197815 0.093717031 3.5594363
0.42277563 0.11913373 2.4004409
0.2192618 0.31918684 2.0790844
0.34185916 0.26364014 2.0577211
0.38656303 0.10438145 2.429961
0.88571942 -0.38787398 2.6307955
0.35562572 0.27907732 2.1033044
0.98508584 -0.11973739 3.017621
0.83042419 0.18067148 3.4697924
0.069583416 -0.23390259 2.0725791
0.39650896 0.097044215 2.4232795
0.32812554 0.2340029 2.0728073
0.2807194 0.19919483 2.1735332
0.29475188 0.19419578 2.1726296
0.29238626 0.25111124 2.0689871
0.2545481 0.28968534 2.0062234
0.82213581 -0.44931477 2.661284
0.17674409 0.33494699 1.9967129
0.83490646 -0.46861058 2.698786
0.95044619 -0.2945585 2.9628947
0.83867747 -0.31732628 3.0919011
0.81389737 -0.41424644 2.6173675
0.74737716 -0.43894178 2.6243095
1.1554953 0.071951561 2.2250316
0.81292999 -0.012788862 2.6584055
0.92798173 -0.35937405 2.9042363
0.66284949 -0.62130368 2.6740618
0.80971766 -0.32117185 2.5519323
0.84637123 -0.43898717 2.63975
0.8226372 0.01588521 3.4983728
0.81661034 0.03733917 3.4971075
0.80247581 -0.21208535 2.5393298
0.68587363 -0.086040705 2.5632138
0.87195909 -0.4416714 2.6116042
0.64366144 -0.028187679 2.5658832
0.80704957 0.054115023 3.4867373
1.0446976 0.098980308 2.4312999
0.99184281 -0.35371193 2.8794966
0.6513747 0.032809556 2.4750683
0.62158877 0.020524587 2.5089531
0.66078538 -0.65325642 2.6626203
0.98120803 -0.35003832 2.880434
0.68485951 -0.044444613 2.5755544
0.79758167 -0.44976574 2.7263155
0.70961934 -0.061785199 2.5762088
0.71845829 0.079945475 2.4270275
0.78744471 0.043490332 2.4243834
1.0323262 0.23148674 2.5703163
0.58328414 -0.63158381 2.5535307
0.79283649 0.50833112 2.3589578
0.58686429 -0.042110913 2.5439835
0.71281481 -0.077070184 2.5725455
0.65518802 -0.022769585 2.5700672
0.66594285 0.035476167 2.4659288
0.59501261 0.27513719 2.1437225
0.65623236 0.024150608 2.4726989
1.0152149 0.1211821 2.4944293
1.0159687 -0.36778575 2.8634431
0.81966138 0.096301764 3.5642059
0.89592826 -0.47515944 2.7065554
0.82836378 0.035042655 3.4606552
0.63565946 0.11847611 2.3834023
0.77445853 -0.4948937 2.6846426
0.6279065 0.14148711 2.3306148
0.67203128 -0.045157876 2.5559504
0.67186415 -0.050526153 2.5593207
0.51023048 -0.08429312 3.4427943
0.78699887 -0.29740012 2.4979603
0.83323091 -0.46204031 2.6535769
0.75493389 -0.46058804 2.6437275
0.82752723 -0.49205923 2.7127964
0.35143635 0.37870106 2.0306997
0.65904212 -0.62227535 2.6643519
0.65658617 -0.61654502 2.6534598
0.65366393 0.033312693 2.2636871
0.30569243 0.23286645 2.1983211
0.74124271 -0.49080631 2.7538731
0.82528317 -0.41644272 2.6197631
0.3140015 0.24278408 2.0780628
0.92136067 -0.49296525 2.7213526
0.9907608 0.065476157 2.484894
0.19748791 0.20701259 2.2110739
0.72221249 -0.59030485 2.9327571
0.65284193 -0.50394422 2.7423024
0.81849045 -0.0073030484 2.6639326
0.98725474 0.22220694 2.9848967
0.96027446 0.25537035 2.9702525
0.7304135 -0.11881217 2.5933337
0.79929709 0.4931092 2.3543031
0.67825687 0.10857652 2.390352
0.97613102 0.35361445 2.8911569
0.96779096 0.27335399 2.9666362
0.95491296 0.29019707 2.9089713
0.95091498 0.29097542 2.9756575
0.9184196 0.32169172 2.9609892
0.66142374 0.11353389 2.3698611
0.63491631 0.13651885 2.3472755
0.64012903 0.089085408 2.3983388
0.63275743 0.11993443 2.3512826
0.62530863 0.040908281 2.5167177
0.58749026 0.090748951 2.4127138
0.52159375 0.29268825 2.1137478
0.72828567 0.068406783 2.7174587
0.57781571 0.11874525 2.3772018
0.56832981 0.1086514 2.3591123
0.84081548 0.16741304 3.45421
0.6825856 0.021516601 2.4448977
0.80225331 0.20168182 3.4971337
0.8909719 -0.45835611 2.679225
0.91452599 -0.47586721 2.6995096
0.90532333 -0.38763154 2.6128974
0.66874206 -0.63448822 2.637928
0.5199945 0.24139427 2.255065
0.97215849 -0.36419621 2.8856637
0.82425475 0.33011058 2.9124923
0.83928818 0.18190864 3.5383086
0.8559832 0.16342986 3.5194018
0.91230261 -0.50672299 2.8358223
0.82830149 0.17610161 3.540163
0.64419407 -0.070359759 2.5265291
0.65060753 -0.057722721 2.5496366
0.62100804 -0.047741532 2.5336804
0.84320915 -0.45585525 2.6694674
0.76239723 -0.45854947 2.6574848
0.56880611 0.27227056 2.1082621
0.79030073 -0.47931796 2.7048416
0.93047899 -0.46697587 2.7204263
0.83491957 -0.46681809 2.6983616
0.61365068 -0.64370352 2.567539
0.15394916 0.060363658 2.3736925
1.0054973 -0.34895831 2.8904831
1.0172209 0.14178962 2.424823
0.089098036 0.19116348 2.4192903
0.1668551 0.093159705 2.4369442
0.9031052 0.068077542 2.5339589
0.9140619 -0.39874423 2.6049843
0.63994253 -0.6235013 2.6235261
0.42534953 -0.021284895 3.6441877
1.0164528 -0.14038138 2.9936118
-0.35459629 -0.21293221 1.9762203
0.61564451 -0.64757836 2.5490162
-0.15875985 -0.86437267 3.5490725
-0.27279907 -0.18646875 2.0025067
0.069640912 0.11051179 2.279042
0.8792457 -0.49454623 2.7028804
0.63783401 -0.38334149 2.6251593
0.80638421 0.033231009 2.528851
0.807823 -0.41596851 2.6838119
0.9370383 -0.4538447 2.6913111
0.99407941 -0.15662393 2.996568
0.70878315 -0.49877608 2.7656384
0.72848451 0.012765555 2.4691212
0.94807452 -0.22349671 3.0211363
0.79415023 -0.48001364 2.6699035
0.50903767 0.11791144 2.3487439
0.43325472 0.16747834 2.2757845
0.43567216 0.16834073 2.2696424
0.12185745 -0.24716046 2.0838799
0.82430029 -0.036130313 3.5658948
0.76593345 0.035115846 3.4327078
0.91997123 -0.38827902 2.588923
0.9317432 -0.44838902 2.688683
0.921974 0.010119006 2.5568812
0.28286824 0.12343835 2.4115672
0.27579659 0.11700194 2.4099939
-0.01714683 -0.60235393 3.5959184
0.086916663 -0.60382318 3.5320742
0.076725848 0.25331551 2.1283488
0.11225683 -0.61622328 3.5119755
-0.29411533 -0.18398795 1.9915212
0.064468592 0.097994156 2.2598369
-0.38964331 0.03417591 1.8061345
-0.47843662 0.073669799 1.7717805
-0.3505604 0.021228569 1.8091912
-0.31453523 -0.11688407 1.9980123
-0.43390515 0.51665419 1.9117877
0.26047161 0.050132666 3.7766628
0.30748945 0.023147739 3.7430017
0.26753962 0.034689829 3.7803075
-0.3757439 0.080110565 2.0875127
-0.41487506 -0.89227968 3.6153903
-0.33450967 -0.88026088 3.6096928
0.11176017 -0.027381545 3.8085685
-0.37397775 0.29851246 2.1500587
-0.048304942 1.0801556 2.1495707
-0.37368596 0.40348637 1.8755275
-0.7109257 0.09677837 1.6309791
-0.27523491 -0.42190212 3.8162339
0.094057471 -0.48190519 3.5265467
0.35556886 0.2314855 2.2207053
0.33328179 0.24590535 2.0699084
-0.13708945 -0.15854558 2.0517185
0.85036188 -0.46597573 2.7030051
0.94206703 -0.43566406 2.8639414
0.1398513 0.070462391 2.370343
0.17501682 0.16762124 2.3852224
-0.17528765 -0.24393451 2.1365082
0.069469608 0.14406784 2.3337545
0.91262817 -0.43878174 2.6311338
-0.47682276 0.41108906 2.0001035
-0.30364037 -0.57249147 3.7111354
-0.53920299 0.40547836 1.9971199
-0.19715701 -0.62343043 3.6158526
-0.36575416 -0.88791192 3.6110239
-0.21541405 -0.86879832 3.5525222
-0.3841702 -0.89861917 3.6316357
-0.35789967 -0.82111633 3.6409159
0.66708356 -0.54555553 2.7389054
0.68742436 -0.53908366 2.7316036
0.62245578 0.069298044 2.4238658
0.81252456 -0.48946306 2.6951976
0.69433981 -0.015878398 2.5847836
0.4283525 0.2359684 2.1694756
0.45072663 0.14558779 2.3686554
0.045949709 0.14963123 2.3376784
-0.21514328 0.25250208 2.1576619
0.34440762 0.22582029 2.2415493
0.39954507 0.22435577 2.1963713
1.0614828 -0.44781679 2.6976862
-0.44133222 0.34993649 1.9889472
-0.50849235 0.50311583 1.8440151
-0.53317136 0.39557141 1.9716938
-0.47819057 0.41000056 2.0027642
-0.38930562 0.31939608 2.0238757
-0.42104724 0.33084697 2.110496
-0.28537461 -0.19485304 4.0257893
-2.8105421 -1.1459756 5.4208097
0.76045913 -0.60075438 2.9689481
-2.8659372 -1.1523496 5.4573498
0.39428905 0.23657779 2.1220717
-2.6638663 -1.1400971 5.3224869
-2.8162835 -1.1148793 5.3334723
0.76351404 0.6498068 2.4715524
-2.6667104 -1.4519551 5.0612192
0.80935216 -0.28322846 2.4663367
-2.5094266 -1.1461095 5.2380233
0.77187461 0.040135555 3.4315548
0.64691889 -0.61728948 2.6727176
