# .PCD v0.7 - Point Cloud Data file format
VERSION 0.7
FIELDS x y z
SIZE 4 4 4
TYPE F F F
COUNT 1 1 1
WIDTH 1243
HEIGHT 1
VIEWPOINT 0 0 0 1 0 0 0
POINTS 1243
DATA ascii
-0.70997256 0.73478204 2.1537101
-0.29331011 -0.83919823 2.3255584
0.47646862 -0.1069438 2.2159424
-1.3866547 -0.3894234 2.7335653
-0.91201419 -0.15936254 2.2649467
-1.3661823 -0.64943397 2.5627539
-1.1611086 0.3434926 1.8221699
-1.1277484 0.41706371 1.8431342
-0.34990272 -0.89891458 2.2675817
0.6969344 -0.027630759 2.1140695
0.6969344 -0.027630759 2.1140695
-0.30889073 -0.14792401 2.308816
-0.57402158 -0.1719453 2.3644593
0.46947175 0.70802003 2.2520206
-0.33593911 -0.82835686 2.371156
0.61475289 -0.045028843 2.1184497
-0.37143821 -0.92946696 2.3610814
-0.053394206 -0.14383753 2.2719374
0.58919251 -0.042789642 2.0879145
0.58919251 -0.042789642 2.0879145
-1.0689657 -0.097825885 2.132221
-0.36684766 -0.18566328 2.2961922
-1.4509934 -0.76741797 2.7694042
-1.3844048 -0.4016172 2.7303224
-0.7353512 -0.73232388 2.3452494
-0.25630179 0.60150003 2.5791428
-0.25630179 0.60150003 2.5791428
0.49387273 0.66117877 2.1922483
0.25130317 0.61479485 2.260391
-0.057119671 -0.30956954 2.3867857
0.71236455 -0.41777247 2.300498
0.75281471 -0.53085798 2.2938311
0.59369552 -0.39705569 2.1220276
0.7024824 -0.44635329 2.3889077
0.7024824 -0.44635329 2.3889077
0.6959312 -0.36209714 2.3316407
0.38228551 0.063580558 1.7931191
-1.1876621 0.57631052 2.0384712
-0.025315091 -0.12320854 2.2348151
-0.022003189 -0.2050526 2.3759656
0.73223674 -0.66496629 2.3944359
0.6224215 -0.24233148 2.372376
0.66488343 -0.28500265 2.3532012
-0.38927373 -0.77086514 2.4863656
-0.80492431 -0.75924885 2.3396132
0.38211951 -0.33964112 2.5297749
-0.25563231 -0.14498688 2.3009329
-0.037865419 -0.23135261 2.4257617
0.13125017 -0.1849899 2.2597721
0.43252346 -0.31419888 2.5199699
-0.52175212 -0.17754245 2.3633099
0.30379096 0.096706592 1.8280315
0.96240509 0.43367252 2.6228213
0.89917594 0.66053736 2.3104875
-0.70766717 -0.19962318 2.3790588
0.042218294 0.062109642 1.8628274
0.0024480333 -0.0086141983 2.0337403
-1.0044223 0.65940964 2.1443622
0.40153405 -0.12075005 2.2557702
0.21089716 0.31200305 1.9386916
-0.20776179 0.031068787 2.0603576
0.19587393 0.78721774 2.0775361
-0.28757268 -0.22202152 2.427352
0.45112386 0.67779171 2.2604251
-0.28949553 0.58141017 2.4660347
-1.2278827 -0.71729881 2.2606277
-1.354793 -0.80455756 2.4981391
-1.008067 -0.75280136 2.249795
-1.2536343 -0.66016155 2.3556216
-0.84431684 -0.49461025 2.3169065
0.76781285 -0.40621758 2.3034317
0.1619682 -0.31973353 2.5722227
0.77994835 -0.53933948 2.3085043
0.579804 -0.24470432 2.4332643
0.026371475 -0.37110665 2.4174497
-1.1332927 0.41548026 1.8196441
-0.32316604 -0.95156997 2.2378619
0.69757086 -0.11230504 2.0879295
0.60735619 -0.29403412 2.3703525
-1.3276379 -0.76172107 2.5605061
-0.35829437 -0.69579327 2.3525634
0.44224134 -0.3374697 2.5123384
-0.80791932 -0.20384404 2.3993709
-0.49398857 -0.17766152 2.3450716
-0.49398857 -0.17766152 2.3450716
0.1518296 -0.081135847 2.1028447
-0.033070255 -0.32039434 2.4764354
-0.55982172 -0.099663414 2.2431891
-0.23548728 -0.1148289 2.2820656
0.39026532 -0.47733876 2.4660699
0.58395141 -0.28228876 2.4384382
-0.82750422 -0.81665969 2.2475488
-0.71699721 0.73965496 2.1335568
-0.11178204 -0.4986757 2.5226939
0.23422994 0.61651719 2.2446053
-0.28335118 0.583323 2.4878159
-0.75327504 0.70966345 2.1790931
0.95935351 -0.083516903 2.2102695
-1.1759133 0.61000317 2.157388
1.0632397 -0.57540548 2.4795101
-1.1852286 -0.028276084 2.1520042
-0.26547247 -0.24407591 2.4133003
-1.0057912 0.65731996 2.1388338
-0.65146065 -0.069772452 2.1927938
-1.3847629 -0.40165061 2.74016
0.2108153 0.35175344 1.9479291
-0.75397927 -0.86383903 2.2741659
-0.20878054 0.030483002 2.0599685
-1.4558284 -0.7779935 2.820857
0.77934051 -0.61698633 2.2158942
-1.0262911 -0.091888867 2.1492302
-1.0326716 -0.14296587 2.1061666
-1.2437727 -0.71485382 2.2759948
-0.15746455 -0.37370971 2.4923732
-0.8250199 -0.70134622 2.3193529
-0.055397987 -0.12635083 2.2783492
0.88742274 -0.27910456 2.4375453
0.82118404 -0.36044735 2.3860631
0.44136667 -0.15658636 2.2318912
0.57986748 -0.22614446 2.4111004
-0.30337915 -0.84854919 2.2747643
-1.1357597 0.41489318 1.8189427
0.69763255 -0.58062887 2.2080803
-0.00014140706 -0.016583323 2.033869
0.78000116 -0.39038759 2.360347
0.66803414 -0.17061324 2.3744285
-0.8329283 0.33678472 1.9149585
0.60440797 -0.17748044 2.3254194
-0.42822358 -0.1071123 2.2553701
0.04987251 -0.1373466 2.1805263
0.61446333 -0.38426048 2.3632493
-0.58896291 -0.065616906 2.2241712
-0.58079982 -0.11009961 2.2319458
-0.010028361 -0.078900859 2.0796888
0.6236375 -0.24406555 2.3712535
0.58485633 -0.24745947 2.3910155
0.62197727 -0.27062589 2.3946829
0.49367148 -0.33862111 2.5061255
-0.073449321 0.63286257 2.3304327
0.25143853 0.53883117 2.2667091
-0.10890466 -0.41497988 2.437907
-0.7167567 0.74046326 2.139133
-0.75764173 0.70918745 2.1773622
-0.19372396 0.58663148 2.4563725
-1.073383 -0.21873046 2.1788437
0.18355726 0.7764284 2.0678477
0.120626 0.77057272 2.0695312
0.18393558 0.092705645 1.7985688
-0.65061468 -0.073077112 2.1936185
0.031651497 0.061863065 1.8545904
0.71252066 -0.65664595 2.3647997
0.24191202 0.35672417 1.99779
1.0199 -0.30534229 2.5351751
-1.0054158 0.65943235 2.1455364
-0.93844044 0.52004713 1.8727589
-0.43719786 -0.16800453 2.3499577
-0.78854853 -0.71048284 2.3426003
0.34858057 -0.49988449 2.5335827
0.15107343 -0.49364793 2.4959369
0.20566885 0.31411791 1.9400028
0.15544868 -0.3248302 2.5767381
0.71525335 -0.42085263 2.302537
0.65773356 -0.3458851 2.3374617
0.62863958 -0.55333185 2.2630527
0.16069824 -0.20690581 2.316087
0.61481106 -0.40422368 2.3206291
-1.5351697 0.5849098 2.4762201
0.018622858 -0.37279361 2.4134884
-1.2826521 -0.33864522 2.5522003
-0.88211703 -0.49306279 2.3235645
-0.89794534 -0.99610817 2.3681564
-0.71177906 0.67928213 2.172096
0.15180176 -0.092390411 2.1075251
0.94446284 -0.13998894 2.2778902
-1.0305126 -0.20280953 2.1291065
-1.2931908 -0.83905226 2.2128465
-1.2633592 -0.30145118 2.5619442
-0.71214521 -0.20334992 2.3794782
-0.12090594 -0.29124078 2.5322826
0.4568322 0.70983219 2.215656
-0.85854429 -0.042722777 2.1611633
-0.30710468 -0.22626786 2.3674564
0.15671454 -0.42706457 2.5218942
-1.0683404 0.63343757 2.1477821
-0.93789506 0.5334096 1.9177834
-0.82447374 -0.20268182 2.3868103
-1.1465402 -0.6786164 2.2688057
-1.0287091 -0.7212981 2.2548559
-0.82759118 -0.81529105 2.2848551
-0.25353691 -0.14463699 2.2970505
-1.4572124 -0.084243789 2.2452574
-1.372241 -0.55629724 2.6350651
-1.07494 0.6371634 2.0975013
0.79627544 -0.075068794 2.1459672
0.67596036 -0.6135031 2.2151575
0.39075676 -0.43064478 2.4932938
0.63957369 -0.13902621 2.1293778
0.155609 -0.20544203 2.3057697
0.013354606 -0.14186215 2.2148647
0.081775099 -0.24405602 2.466985
0.74920273 -0.38022196 2.3157187
-0.56437945 -0.17283519 2.3611836
-1.1802974 0.60687697 2.1547916
-1.4563689 -0.77557981 2.7588267
-0.89262921 -0.48992601 2.3184752
-0.78667617 0.30472752 1.9898229
0.28419799 0.54900956 2.2907419
0.17620592 0.1066766 1.8076054
0.20954245 0.31511468 1.9608644
-0.64909947 -0.075175896 2.1945341
-0.7122075 0.67679495 2.1635067
-0.78809315 -0.81648338 2.2629642
-0.89377815 -0.082590245 2.2338893
-0.97101933 -0.093125664 2.143496
-0.18134652 -0.14506741 2.3017635
0.03323533 -0.13248669 2.1239107
0.3935208 -0.43205732 2.5108848
0.58533496 -0.4286778 2.3445716
-1.3005768 -0.72184408 2.3784664
-0.37820336 -0.86481339 2.4149282
0.73611403 -0.25223461 2.3743868
0.62092596 -0.25034234 2.3648906
0.9075911 -0.2936309 2.4334726
0.0033963302 -0.14112827 2.2092352
0.60883635 -0.44530252 2.2880399
-0.55789346 -0.11100612 2.2552478
0.57824767 -0.25559515 2.4496994
0.018204849 -0.37402424 2.4211099
0.36853045 -0.34905446 2.547291
-0.98075676 -0.83714324 2.2029512
0.044147316 0.23612574 2.0647099
0.557383 -0.42157543 2.3709028
-0.49185079 -0.10350599 2.2411196
0.21049678 0.81076699 2.1524339
1.0613128 -0.10629972 2.3363371
0.16008884 -0.3728227 2.5584459
0.15580103 -0.49619251 2.4985535
1.0233234 -0.63613164 2.5608878
-0.37447485 -0.13697885 2.2716324
-0.82683849 -0.81860882 2.2865453
-0.30414414 -0.85335183 2.2796865
0.65400827 -0.590904 2.2457616
-1.077751 -0.20054334 2.203018
-1.0332384 -0.093254596 2.1389186
0.38711399 -0.48208398 2.4709105
0.35591739 -0.48803809 2.4904633
0.0020602343 -0.3197473 2.5032332
0.076970667 -0.32086641 2.4910369
-0.045346867 -0.22893436 2.4043469
0.81822556 -0.36033902 2.3643723
0.098182626 -0.12385963 2.1543965
0.52517068 -0.58257651 2.3660645
0.66280484 -0.37142518 2.329519
0.70073444 -0.40977797 2.2893419
0.047788892 -0.2373248 2.4243481
0.43034905 -0.14608745 2.2201097
-0.23932907 -0.14396808 2.3019853
-0.18647011 -0.14699276 2.2959163
0.42499834 0.66624677 2.2583961
0.33188152 0.10448385 1.8831326
-0.31660789 0.56410468 2.4385357
0.11334357 0.47095025 2.6586308
0.81133115 -0.536452 2.3892996
-0.28784677 -0.6891287 2.3824048
0.43416756 -0.33315083 2.5506725
-0.064095624 -0.35685641 2.4764705
-0.94078469 -0.2344981 2.1222699
0.082445987 -0.15306088 2.2349205
0.59011024 -0.19157925 2.2889779
-1.0309749 -0.23237528 2.1791284
-0.0057349559 -0.22995554 2.3814933
-0.89146656 -0.48922449 2.3224964
1.0024822 0.69376826 2.4758446
-1.2939323 -0.78720331 2.4758122
0.51535517 0.66769123 2.2426343
0.052191462 0.10576055 1.8905737
0.38182935 -0.48364678 2.4697075
0.29842752 0.10922605 1.8441679
0.20161368 0.33541244 2.2129812
-0.37263674 -0.86904305 2.4129055
0.53374648 -0.50162506 2.4035451
-0.85917646 0.2128973 1.707085
0.14412384 0.062546223 2.0095453
0.51644033 -0.56072968 2.4283347
-0.31222069 -0.12022707 2.2845342
0.045243107 0.24093103 2.0345831
0.44032729 -0.023550009 2.1542783
0.29287535 -0.053309806 2.1091981
-0.085555039 -0.35059991 2.4101915
-0.9444986 -0.093543403 2.1871214
0.15218855 -0.098775424 2.115756
0.70879328 -0.65466511 2.3581216
-0.96930271 -0.14318907 2.1156292
-1.1688038 0.34945577 1.8375319
-1.2035275 0.37041289 1.8671272
-1.2026261 0.36607978 1.8702658
-1.3344715 0.41579217 2.0138199
-0.9649713 -0.21565679 2.2635877
-0.83667618 0.33348063 1.8839506
-0.83667618 0.33348063 1.8839506
-0.83511448 0.33614734 1.9006038
-0.83511448 0.33614734 1.9006038
-0.23915699 -0.32735595 2.289289
0.15163374 -0.20527582 2.3061488
0.67377859 -0.27253604 2.3912442
-1.3765763 -0.051667955 2.5956411
0.2024634 -0.0033090254 1.894294
-1.4522851 -0.56002831 2.952636
-0.34587726 -0.70869082 2.4716153
-0.252839 -0.13122511 2.2509677
-0.2583901 -0.14408928 2.293694
0.39184555 -0.33455884 1.8299205
0.066303827 -0.23619446 2.4291308
-0.85185468 0.35504684 1.8941845
0.53497124 -0.46794525 2.4662821
-1.4635252 -0.077101417 2.2318087
-0.019265354 -0.42704999 2.3842525
0.89216399 -0.25702563 2.4213209
-1.000434 0.65158838 2.1035712
-0.8615126 -0.049344145 2.1719427
-0.8615126 -0.049344145 2.1719427
-0.5112282 -0.033131272 2.125205
0.23191477 0.39870414 2.0152307
0.22706906 0.30444244 1.8917719
-1.389383 -0.058668505 2.8646173
-1.1593416 -0.58637637 2.3702369
-1.0720679 -0.92202294 2.2374361
-0.70138764 0.69135439 2.17167
-0.77656484 -0.68612075 2.444824
-0.78313196 -0.67590415 2.410279
-0.9211536 0.52148116 1.916725
-1.1553283 -0.3121627 2.5323653
-0.52223319 -0.14802293 2.3153698
-0.028857999 -0.11443462 2.1589077
-1.3900181 -0.91421735 3.1494675
-1.0015095 0.34052905 1.704862
-1.4540496 -0.90468711 2.6914382
-1.4029078 -0.064690493 2.7020605
-0.78888643 -0.92452878 2.2506433
0.52281332 -0.063551076 1.9924847
-1.4517767 -0.78362805 2.6884911
0.071810752 0.32774088 1.9277093
-0.37137079 -0.92668116 2.3572557
0.17185764 -0.10147579 2.1117232
-0.36869624 -0.79244834 2.4604797
-0.74587464 0.71429998 2.198457
-1.1897449 0.36489078 1.8747514
-1.1897449 0.36489078 1.8747514
0.2509791 0.35996446 2.1622326
-0.95422536 -0.046145495 2.160686
-0.79408896 0.30851775 1.9688931
-0.9725818 -0.14276929 2.1106789
-1.034048 -0.092797332 2.1345553
-0.79187524 -0.82105052 2.2577724
-1.3646754 -0.69814783 2.5708735
-1.3026512 -0.90920842 2.2892635
-1.3026512 -0.90920842 2.2892635
-0.65392697 -0.067433715 2.1898735
-1.3610693 0.083773315 1.7643993
-0.96305919 -0.094351001 2.1419747
0.16014811 0.73016942 2.1234651
-1.048376 -0.68814051 2.4134803
0.14461581 -0.19970866 2.3003507
-0.39534256 -0.25182012 2.4236927
0.61147642 -0.02625474 2.1740468
0.281344 -0.062348235 2.0906534
-0.3454636 -0.85761154 2.2779496
-0.35183385 -0.89979476 2.2539501
-1.4695303 -0.7555176 2.8432074
0.0026028634 -0.14467421 2.3827863
0.21808611 -0.051774666 2.012929
-0.12375231 -0.13792731 2.1408763
-1.0777363 -0.19835696 2.2172339
-1.4483029 -0.52468008 2.9741139
0.61122495 -0.50486302 2.2921238
0.6291706 -0.3971456 2.2170126
0.41823325 -0.12590006 2.2784965
0.41823325 -0.12590006 2.2784965
-1.4117762 -0.033978991 2.9400983
-1.6409022 0.043863453 3.0380418
-0.89135367 -0.27622911 2.3848135
-0.068285361 -0.037325602 2.1191125
0.6581707 -0.32977429 2.3901286
0.77470165 -0.61802405 2.2167175
0.87288648 -0.65578538 2.3411655
-0.1230752 -0.29285944 2.5406995
1.0266446 -0.70081204 2.3327627
0.49727556 -0.59645009 2.3733523
-1.4532746 -0.55595523 2.8875067
-1.4535549 -0.56904972 2.9138565
0.56266397 -0.36201069 2.4318576
0.4427771 0.53629452 2.4558692
0.4427771 0.53629452 2.4558692
0.50323898 -0.40632722 2.737406
0.69458413 -0.14950256 2.1728604
-1.6178489 0.2048385 3.1640356
-1.6178489 0.2048385 3.1640356
0.49209848 -0.30062678 2.5323994
0.031368684 -0.46542606 2.4470525
0.98290974 -0.30224082 2.4783897
0.95430851 -0.39179394 2.4227738
-1.4221512 0.12709765 3.0734117
0.74611515 -0.3394866 2.3180883
-1.526908 0.04269471 3.0189068
-1.2573597 -0.034106772 2.1646371
-0.94612581 0.40155697 1.8095858
0.14601742 0.56238639 2.4361064
-1.2889304 0.55703032 2.3231077
0.57674778 -0.37192345 2.3934777
0.9431085 -0.57131857 2.3275905
0.9431085 -0.57131857 2.3275905
0.55891007 -0.2214767 2.4370186
-1.3008777 -0.72931486 2.3051383
-1.3008777 -0.72931486 2.3051383
-1.4453679 0.1794614 3.003546
0.85674161 -0.2753312 2.3853385
-0.91536731 -0.26603645 2.3515272
-0.45601237 -0.13358971 2.264689
-1.4272753 0.4492467 2.4970226
-1.2909364 -0.026956983 2.0420804
0.40297198 0.052795496 1.7924976
0.3857666 -0.30336973 2.5577831
0.097510673 0.47131246 2.5568552
0.51897281 -0.39264882 2.5186448
-0.92277765 -0.25228086 2.2475197
-1.5927769 0.07706847 2.9305344
-0.18295702 -0.34828776 2.3448732
-1.1476108 -0.74260187 2.1874654
-1.0270711 -0.72950381 2.2730329
-1.656008 0.18607584 3.237803
-1.656008 0.18607584 3.237803
-0.10807394 -0.57709235 2.3582361
0.337221 -0.38234481 2.5198052
-1.411026 0.20294125 2.9758675
-1.444715 0.16814364 3.1170306
0.43782207 -0.3191534 2.541595
-0.73952109 -0.19706962 2.3865998
-0.94258237 -0.25696164 2.2760899
-1.372629 -0.55457717 2.6446099
0.80772322 -0.3518638 2.3836427
-1.5370939 0.098677397 3.1442676
-1.4925176 0.084328167 2.9911611
0.64478195 -0.22374022 2.3496346
-0.17499527 0.55319858 2.4487393
-0.30282852 -0.58044845 2.2112608
-0.2225084 -0.39853707 2.3277903
0.86387444 -0.42953148 2.3699667
0.86387444 -0.42953148 2.3699667
-0.19183941 -0.46315956 2.3430741
-1.4199972 0.11478008 3.039253
-1.4122159 0.21827072 3.0628488
-1.3790908 0.23814858 2.9689012
-1.4288518 0.20231012 3.0932169
-1.6544435 0.18297346 3.1915641
0.67039239 -0.11954287 2.1576784
-0.04096948 -0.40055907 2.5120802
0.49436244 -0.57921022 2.4164953
0.48999456 -0.30325672 2.5142691
-1.0475636 -0.27354896 2.5808764
-0.04769735 -0.31838554 2.4477129
-1.0787243 -0.083659843 2.1664827
0.66886306 -0.37617663 2.3239801
0.21053839 0.32767543 2.2115042
-0.32710731 -0.7881614 2.3608084
-0.35210684 -0.14390236 2.3102565
-0.39683846 -0.1569913 2.334743
-0.34385881 -0.14390717 2.3168786
-0.6157282 -0.62649924 2.289288
-1.2228117 -0.71242523 2.2499743
0.26190674 -0.03569435 2.11836
-1.3572822 -0.66372615 2.572892
-0.88391948 -0.27764148 2.3955028
0.38241422 -0.42023957 2.5159972
0.33982661 -0.42622921 2.5162683
0.40620342 -0.33383584 2.5128303
0.33948827 -0.32328144 2.5852525
0.00028474239 -0.086509027 2.1242523
-0.23747298 -0.3514798 2.3459063
-0.069566324 -0.22962835 2.3735716
-0.098001331 -0.32355145 2.4989257
-1.4604644 -0.79948592 2.8094068
-1.3920753 -0.27178928 2.8008714
-0.6152944 -0.62071133 2.2766111
0.58214962 -0.49268439 2.3093207
-1.005242 -0.81236279 3.607969
-1.1234647 -0.20209572 2.1602452
-1.4026996 -0.17814171 2.4689562
-0.059244666 -0.27899656 2.4060481
-0.59123939 -0.070094749 2.1857941
-0.58906972 -0.13000497 2.2815866
-1.1572917 -0.58598822 2.3701386
-0.38465399 -0.8885147 2.3750701
-0.97046375 -0.03963419 2.1440365
-1.312987 -0.75275314 2.3193486
-0.054877669 -0.1454486 2.2724485
0.17447829 0.68169898 2.2028303
-1.0844451 -0.18814398 2.1786563
-1.2507131 -0.29570004 2.5687897
-1.2226529 -0.7115128 2.2507071
0.59147865 -0.42396703 2.3515956
0.59309042 -0.18373279 2.3576927
-1.2692227 -0.71841908 2.2927833
-0.20765367 -0.12035556 2.2709589
-0.9187749 -0.21033962 2.4080744
-0.37393552 -0.79101145 2.4563112
-0.065987311 -0.068452343 2.145323
-1.3121234 -0.85190189 2.2332878
-1.2967355 -0.76276332 2.2897851
0.68472201 -0.10147087 2.0606031
0.50162184 -0.37150025 2.4802306
-0.25859213 -0.27959403 2.4007857
-0.27255908 -0.14180517 2.3307238
-1.2727449 -0.90041167 2.1962025
-1.3705785 -0.37918833 2.7191877
-1.2868731 -0.77085072 2.2353106
-1.3667672 -0.27288905 2.5321624
-0.26059252 -0.65391231 2.3454225
-0.81639707 -0.6689083 2.4165649
-1.2556683 -0.7818048 2.5115132
-1.3644881 -0.27360994 2.5373559
-0.16475853 0.57339424 2.4522436
0.20069283 -0.19685207 2.3155169
0.61851656 -0.11024839 2.1289694
-1.4461379 -0.86176765 3.1338518
-0.43508697 -0.014710709 2.1028359
-1.1012666 -0.17986205 2.15064
-0.33376569 -0.14391597 2.3282156
-1.2624803 -0.46005541 2.4641604
-1.4441056 -0.85941249 3.0190313
-0.92930299 -0.38723686 2.3758204
-0.92214841 -0.19068862 2.2310369
-1.3003068 -0.72488475 2.3460393
0.082567155 -0.12390324 2.1545222
0.51533097 -0.53162456 2.4417717
0.89457011 0.6548202 2.3193016
4.2042437 -0.46734816 2.325887
-1.2636293 -0.54384047 2.4136996
-0.35765389 -0.84767812 2.2584913
0.30557829 -0.032628503 2.1264946
-1.4536014 -0.67145318 3.1909983
-1.4370277 -0.54527324 3.3550537
0.5897485 -0.48998085 2.3273435
-1.4635646 -0.52313626 3.1207457
-1.1379117 0.19266266 2.2622395
-0.35460249 -0.66063035 2.3134723
-1.0721853 -0.1589694 2.1463296
-1.3900869 -0.41725889 2.5819571
-1.3153099 -0.96102512 3.0985224
-1.4795384 -0.54018378 3.0807025
-1.4133736 -0.45372477 3.5551655
-0.36448169 -0.24393915 2.3766999
-1.4340932 -0.99627674 2.704664
-0.90315247 -0.21674849 2.242944
-1.3617506 -0.2753346 2.5400388
-1.4486465 -0.82153761 3.1330974
-0.082329966 -0.10467393 2.1175101
-0.98710328 0.36374658 2.8375902
-1.1834701 -0.060014684 2.1684022
-1.2258999 -0.42638469 3.7762699
-1.4579196 -0.6211735 3.2269776
-1.0749342 -0.1426917 2.2373412
-1.4329314 -0.9306919 3.2655599
-1.1496197 -0.76738441 3.4452813
-1.4511403 -0.82621443 3.1523097
-1.4551675 -0.70206189 3.1925712
-1.3343003 -0.96337163 3.0773599
-1.2153717 -0.7972331 2.8662703
-1.4864143 -0.76052469 3.1427462
-1.3656958 -0.51478565 2.6664741
-1.4930265 -0.29001492 3.1223063
-1.4760131 -0.55740577 3.2374218
-1.2215704 -0.79858643 2.8642273
-1.3562279 -0.81086624 2.4936876
-1.2105669 -0.42529804 3.7913024
-0.021165535 -0.087799273 2.1233802
-1.1825505 -0.41583803 3.7093651
-1.2093223 -0.86793089 2.9335148
-1.4506133 -0.65207773 3.2096522
-1.365684 -0.55682981 2.635108
-1.4529641 -0.57809287 2.9054322
-1.4331282 -0.33329085 3.0500646
-1.3906876 -0.85640192 2.9642792
-1.1573439 -0.85448533 2.9164867
-1.0238664 -0.1601855 2.2790985
-1.0264705 0.62882608 2.3153777
-1.3087983 -0.92224962 3.0372291
0.19078687 -0.71660632 3.3029304
-0.85135406 0.22816283 1.7861823
-1.0968391 0.64834654 2.1378038
-1.0479717 -0.4059791 3.7227619
-1.4510028 -0.44672054 2.7744102
0.33361447 -0.64810371 3.2642941
-1.4494874 -0.26719156 3.0457528
-1.0335239 -0.73024684 3.4223285
-1.4677948 -0.57331622 3.2744582
-1.4473902 -0.62874109 3.2867308
-1.3505702 -0.79914534 2.4979606
-1.4509912 -0.94998968 3.1245747
-0.80786037 -0.76306003 3.3964942
-1.1244056 0.23437627 2.2550483
-1.4562751 -0.70318788 3.1417336
-0.70587307 -0.757061 3.3405445
0.20701703 -0.66065335 3.2246747
-1.4441595 -0.80711275 3.1401556
-0.4987672 -0.57979196 3.1099463
-1.208407 -0.96270603 3.036679
-1.1398106 0.1947984 2.285651
-1.4719146 -0.77013171 3.1761076
-1.2063724 -0.89584625 2.9818759
0.37281206 -0.61686099 3.1835215
0.4271856 -0.61857557 3.1218026
-0.80365831 -0.76000559 3.3848374
-1.4446794 -0.92972875 3.0888383
-1.2465645 -0.99743158 2.7942076
-0.92194992 -1.0530366 2.8897839
-0.8889274 -0.80979019 3.4529705
-1.0476415 -0.93171644 3.1310551
0.41954294 -0.75843257 3.5485575
-0.53929758 -0.60344696 3.1286705
-1.2986722 -0.89365268 2.9716768
-1.0742638 -0.94627512 3.1810193
-1.2080902 -0.92734647 3.0648048
-1.2399273 -0.9453693 3.1448274
-1.1760123 -0.92793161 3.0129206
-1.1480513 -0.30625272 3.6854
-0.9383918 -0.74815923 3.220942
-0.98224252 -0.87220854 3.6247709
0.44299883 -0.6869911 3.608037
0.43274048 -0.74352103 3.5481703
-1.2782319 -0.87810183 3.0234571
-1.3680568 -0.92149067 3.0942059
-1.0483921 -0.67869413 3.3513477
-1.2308223 -0.95078617 3.1209645
-0.90114045 -0.81331515 3.4447706
-1.4488969 -0.77740294 3.1781318
-1.5510123 0.061631698 3.3437331
-0.35998252 -0.4735187 3.0118666
-0.29204184 -0.52165383 2.9605556
-1.2448392 -0.98099446 3.1619856
-1.4361615 -0.15777943 1.9190969
-1.2144388 -0.97299325 2.8150325
-1.2154589 -0.9825021 2.8272738
-1.2796476 -0.98628801 3.1319132
-1.4395654 0.31817502 2.8225045
-0.6865499 -0.63354695 3.1588888
-0.51083374 -0.59062582 3.1862957
-1.3827587 -0.85162646 2.979248
-1.1456171 -0.87211156 2.9965093
-1.3410709 -0.95768696 3.0961325
-1.2295809 -0.84098858 2.8754461
-0.80618656 -0.76665139 3.397778
-1.1020443 -1.0053706 2.7486644
-1.0645461 -0.74084944 3.3570895
-1.1960655 -0.89392143 2.9593487
-1.2475368 -0.86621648 2.9284804
-0.93241644 -0.71119303 3.123522
-0.5616883 -0.76655996 3.3634117
-0.59076989 -0.66553617 3.2244389
-0.59859473 -0.64320832 3.1754546
-0.81225437 -0.75483841 3.3696234
-0.09264759 -0.74883825 3.3604612
-0.0050136703 -0.81944418 3.4968879
-0.59270018 -0.71454835 3.3011703
-0.4539105 -0.8157863 3.4649713
-0.13649417 -0.60802007 2.6855669
-0.40941128 -0.73391986 3.3022916
-0.20467363 -0.8250013 3.5281122
-0.2406823 -0.79437351 3.3103092
-0.23607159 -0.7958551 3.3060594
-0.19025171 -0.78719848 3.2957008
-0.22590169 -0.80233812 3.3947625
-0.29924381 -0.54095936 2.9670362
-0.70303446 -0.6122247 3.1552863
-0.10683504 -0.80132538 3.3217695
0.80911511 -0.79803801 3.4487486
0.2546449 -0.84484404 2.7119246
0.46087143 -0.74171263 3.6758499
0.21311629 -0.62093812 3.0579383
0.63992846 -0.10310804 3.7340453
1.0422475 -0.50741655 2.96503
1.0025285 -0.56058282 2.9569159
-0.096266374 -0.63196671 3.103698
0.4117462 -0.21649036 3.7015073
0.45191088 -0.21144658 3.7536104
0.65535784 -0.094819836 3.7423654
-0.1291703 -0.81315625 3.3463104
0.45993632 -0.77297938 3.4950016
-0.15774269 -0.79787803 3.397068
-0.043172035 -0.73232758 3.334667
-0.32445163 -0.70304263 3.2252984
0.46355054 -0.72723669 3.6719856
0.62059015 -0.78637642 3.5204027
-0.43267354 -0.85752743 3.4565811
-0.045878515 -0.74904746 3.3408597
-0.39629984 -0.71402305 3.2770307
0.8620134 -0.55881208 2.6270409
-0.47594398 -0.73254484 3.2921562
-0.4865647 -0.75228256 3.3242159
-0.39192331 -0.81041145 3.4853592
-0.4482581 -0.73850393 3.2894027
0.50332296 -0.79585493 3.5674462
0.53218347 -0.47358263 2.8913548
-0.063066438 -0.50008821 2.8934071
0.027718116 -0.69110584 3.2188859
-0.2862139 -0.66599143 3.1436734
-0.068034776 -0.52459967 2.7532542
-0.10837971 -0.71692061 2.6497529
-0.22223058 -0.77838933 3.2928226
-0.024636494 -0.49529549 2.8391287
-0.27874103 -0.73221451 3.2150836
-0.27711046 -0.73606354 3.2163279
0.51169592 -0.49280792 2.9447463
0.86076349 -0.5624969 2.6342201
-0.096579626 -0.6876651 3.1616781
-0.2610493 -0.76399553 3.2644951
-0.22997741 -0.77478868 3.2687423
0.035057779 -0.67330474 3.2554154
-0.10901303 -0.73233968 3.199291
0.63385046 -0.53784239 2.9488885
0.24497654 -0.57740808 3.024605
0.33585882 -0.59949517 3.033303
0.43480873 -0.59811503 3.0344834
-0.10949615 -0.50007486 2.8656893
0.068688489 -0.46248412 2.8466141
0.3370707 -0.51071787 2.9776783
-0.1413863 -0.5197652 2.7802269
0.38852584 -0.49631041 2.9040427
-0.10208844 -0.76883876 3.2624238
-0.23343033 -0.53530145 2.7735786
-0.51491517 -0.75857115 3.3420353
-0.22408389 -0.77445972 3.4103847
-0.13588013 -0.61270338 3.0847516
0.2359859 -0.61351097 3.0766141
0.23781848 -0.55906075 2.8711233
0.052033745 -0.50818473 2.8936629
-0.049792863 -0.50268072 2.8763573
-0.02553202 -0.49115628 2.8378425
-0.20639353 -0.79258388 3.3012223
0.027440213 -0.70113242 3.2379034
0.030557651 -0.70082957 3.2171016
0.23393735 -0.61539686 3.0780222
0.30213472 -0.56606251 3.0030131
0.14863405 -0.5239988 2.9617367
0.26049271 -0.494055 2.9464839
-0.5897913 -0.59071606 3.0814288
-0.053230111 -0.55923343 2.9733121
-0.079330258 -0.49954 2.8637099
0.3972421 -0.5455544 2.8672805
0.60331953 -0.7872045 3.5866411
0.93090254 -0.39176071 2.7608938
0.68151069 -0.6073696 3.1346829
0.7743938 -1.0127298 3.6464803
0.75010949 -0.70530623 3.4417851
0.20638487 -0.57617521 3.0702889
1.0040987 -0.4770698 2.8328555
0.72018707 -1.0980145 3.3818867
0.44355887 -0.62051785 3.1038234
0.81869799 -0.71830666 3.4059975
0.71609128 -1.0809799 3.3792834
0.18017116 -0.70776117 3.2698126
0.39809993 -0.46769059 2.9233696
0.83439934 -0.73886019 3.4199822
0.76998544 -1.1656002 3.5536935
0.63194704 -0.88921595 3.6807909
0.75240713 -1.1539608 3.531925
0.71411806 -1.0511181 3.4848216
0.7397666 -1.1035244 3.4787953
0.7268706 -1.0391634 3.5315821
0.79425722 -1.0992575 3.6420155
0.97997808 -0.65072125 3.1917787
0.56156135 -0.83490181 3.7022939
0.78189886 -1.1120696 3.4208648
0.86679482 -0.72109836 3.3849828
0.80647475 -1.1786659 3.5773554
0.7127257 -1.0514096 3.4847016
0.92218447 -1.2000839 3.5040534
0.49590412 -0.75431597 3.6835194
0.48840126 -0.76446432 3.6515751
0.81077909 -1.0775793 3.3943632
0.6575774 -0.6051833 3.0879691
0.6756162 -0.97933495 3.7243912
0.99484956 -1.057242 3.3785138
0.59912616 -0.8867203 3.7166672
1.050915 -0.57222641 2.7145262
1.0504546 -0.57381445 2.7293854
0.62992036 -0.91947925 3.7514997
0.65345579 -0.8255623 3.5231175
0.94696343 -0.51683736 2.7658346
0.94773757 -0.51600236 2.7743113
0.86719787 -0.40610528 2.7552831
0.43792462 -0.78513628 3.6165426
0.47585124 -0.45906276 2.8129056
-0.4043493 -0.78687197 3.4510522
0.85428542 -1.1629505 3.6005394
0.88655561 -1.1731361 3.4655108
-0.039773256 -0.73622394 3.4919827
0.44461459 -0.79357189 3.6064534
0.96995193 -0.61273706 2.4362383
0.050508492 -0.55338031 2.9518833
-0.97273552 -0.83072013 3.6271017
0.95396584 -0.67769498 2.4667108
-0.4066585 -0.81709576 3.4842856
-0.22916067 -0.79322195 3.386965
-0.28443402 -0.63859475 3.128046
-0.353448 -0.65254176 2.9807279
-0.70771873 -0.729743 3.2779884
0.035851765 -0.51103282 2.8554275
-0.08797247 -0.75428551 3.2500291
0.0065678861 -0.68662053 3.2259161
0.93939602 -0.86719745 3.5245764
-1.3785582 -0.67840558 3.4036589
0.65546274 -0.49291974 2.9280415
-0.73851156 -0.78724915 3.3735893
-0.87211931 -0.76828539 3.3922985
-0.74475956 -0.73563147 3.285666
-0.95201224 -0.76107556 3.1764603
-1.0527976 -0.72634387 3.3082612
-0.92572713 -0.70119435 3.1202557
0.42857927 -0.52123165 2.9528337
-0.27402791 -0.4649905 4.2167768
-0.25746253 -0.64603704 3.1938396
-0.20521967 -0.54035276 2.7551677
-0.42120883 -0.52574503 2.9090466
-0.94658536 -0.75802284 3.1720235
0.3446278 -0.54218572 2.9871719
0.45130938 -0.59939867 3.1015494
0.20643282 -0.72583961 3.2726173
0.94881618 -0.81316561 3.4698453
0.77663028 -0.59583008 2.3263493
1.002532 -0.66136444 3.1499002
1.0590917 -0.31259203 2.740778
0.83930326 -0.35719663 2.6915784
0.73023361 -0.13893129 3.6447165
0.93904132 -0.87067646 3.493124
0.94798183 -0.59633422 2.6730125
0.95480293 -0.12973334 2.280889
0.88242668 -0.74282408 2.443979
0.84341264 -0.56069046 2.6106098
0.14384313 -0.71058267 3.2876084
-0.037112344 -0.56475651 3.1199541
-0.22419655 -0.67810923 3.1325023
1.1280557 -0.57271826 3.146704
0.39890617 -0.50933528 2.9293051
1.0839386 -0.43497476 2.930059
0.84791374 0.67085797 2.3167634
0.20791076 -0.6142779 3.116714
1.0053869 -0.3995018 2.816751
0.95649785 -0.41739568 2.4195933
-0.10345655 -0.75948989 3.2560701
1.0259489 -0.75467879 2.4065259
0.70484465 -0.52083701 2.9820085
0.013666532 -0.68323737 3.2453649
1.0010346 -0.45525357 2.8219941
0.9692902 -0.56035107 2.9588411
0.01005952 -0.59660155 3.1270041
-0.069611385 -0.62680107 3.0922651
0.89504087 -0.38992849 2.7269917
1.035659 -0.58218575 2.7427118
0.6946708 -0.57636917 2.851222
0.12949412 -0.080060557 2.1104987
0.78756988 -0.57013059 2.3563325
0.83490884 -0.061584629 2.0853305
0.83101839 -0.055465911 2.0854878
0.63500744 -0.31436247 3.8064473
0.44875231 0.69569319 2.1897159
0.72723126 -0.21203814 2.2101688
-0.12751162 -0.6679734 3.1428475
1.1095709 -0.43253759 2.8004456
0.30587938 -0.58623207 3.0334942
0.66874146 -0.053187739 2.0448406
-0.53889668 -0.69353199 3.239552
0.93390727 -0.73578507 3.4267628
-0.54691648 -0.48473921 2.9378316
0.9888162 -0.299474 2.4881532
0.78679848 -0.45191646 2.3608587
0.14796717 0.76772976 2.118717
1.042223 0.17830718 2.969224
1.0448291 0.23880433 3.0566337
1.0452478 -0.14990605 2.7702801
0.97755575 -0.38386041 2.5192597
0.38877431 0.022076659 2.0368614
0.99820834 -0.99777585 3.3281865
1.0331494 -0.32813111 2.6667731
1.0156078 -0.65334707 3.190217
1.136366 -0.64621317 3.3455949
1.0341525 -0.32628632 2.5641572
1.0281192 -0.30716413 2.5799694
0.0029879732 -0.78687149 3.2925603
0.78590095 -0.59021699 2.3153484
0.77098829 -0.40436032 2.3116286
0.68730497 -0.53636497 2.2687616
0.79742473 -0.40963733 2.3018134
0.13524923 0.47711828 2.568347
1.0157701 -0.16996755 2.5392623
0.79968697 -1.0778654 3.39591
1.0668849 0.011839894 2.9993615
0.98022771 -0.0055646771 2.3794374
-0.25208974 -0.1050515 2.2538176
-0.96741951 -0.035094753 2.3051674
-0.98285419 -0.2029147 2.2566864
0.87319696 -0.10076567 2.1740868
0.643484 -0.22430624 2.3767712
0.78839129 -0.99092245 3.379405
0.082246117 -0.018586721 2.1291065
-0.060065389 -0.19671056 2.4078891
-0.36377785 -0.66291231 2.3449268
0.61894542 -0.42581338 3.902416
1.0777975 -0.44179845 2.9124725
0.7911123 -0.43287924 2.3090274
-0.1598352 0.66121328 2.3782983
-0.71989059 -0.19305129 2.3907475
0.63211077 -0.17885283 2.3552725
-0.27639034 -0.23041126 2.4234009
0.77106327 -0.55843508 2.2750993
0.85695481 -0.49428397 2.3935351
1.0117099 -0.76292235 3.3685257
1.0142903 -0.76568323 3.3768947
0.74584073 -0.49424425 2.2862
-0.16740008 -0.14278926 2.2892041
0.71755546 -0.63346386 2.426672
-0.082309723 -0.4052324 2.503839
0.12762138 0.49892843 2.5733097
-0.0082947668 -0.443165 2.3640563
0.85001278 -0.42257431 2.3903313
0.037508059 -0.3318781 2.4515853
0.24243055 -0.26095542 2.3256967
0.7589317 -0.63367218 2.2616246
0.65929192 -0.3657746 2.4058831
0.10961841 -0.087575257 2.1044776
0.13351461 -0.16093162 2.2599847
0.57719159 -0.62138224 2.328279
1.0321517 0.053406823 2.8187673
0.49408057 -0.8006711 3.5624542
0.64579833 -0.10452159 2.0516386
0.13187855 -0.31698942 2.5890427
0.63577175 -0.40355578 2.3485985
1.0486815 0.25265554 3.0836639
0.62905031 -0.62860107 2.3098438
0.012338331 -0.39862666 2.5620143
0.8153615 -0.52336758 2.4052296
0.16265012 -0.4901306 2.4971693
0.61724627 -0.37815112 2.3472683
0.11146256 -0.096653409 2.1212397
1.0224838 -0.27387738 2.6081095
1.1337954 -0.71077943 3.4107771
0.63209307 -0.5590986 2.4177971
-0.2795113 -0.13029061 2.2801995
0.15767802 0.48795062 2.5519505
0.94312876 -0.257112 3.8300133
0.73966938 -0.35064527 2.357749
0.052715749 -0.11617602 2.1613731
0.7497685 -0.5717231 2.3919547
0.7413224 -0.24934481 2.3325827
1.0696685 -0.19639869 3.6897004
0.95488012 -0.73642331 2.8994322
0.65953988 -0.37433136 2.322053
0.41693401 0.26426309 2.0148416
0.59590143 -0.38778201 2.3793237
0.40283117 0.06893786 1.86482
0.60744846 -0.35584074 2.3756528
0.51382661 -0.14580013 2.2385006
0.5779618 -0.33539778 2.4517839
0.73890269 -0.54841006 2.2582974
0.68452495 -0.52144027 2.278089
0.16869648 -0.42766774 2.5342131
0.14533441 -0.12278403 2.2512219
0.73854405 -0.56806052 2.3873191
0.79358965 -0.034473188 2.087055
0.38698131 0.2720373 2.0213451
0.76319867 -0.38367957 2.3123696
-0.63082635 -0.086084209 2.2210753
0.087851278 -0.22097473 2.4084952
-0.096325457 0.60075122 2.3582468
0.60467249 -0.38530335 2.3593402
0.77999091 -0.55988526 2.3118513
0.65086991 -0.61113423 2.2251763
0.95588905 -0.46551526 2.41731
0.99764401 -0.23517057 3.8305328
0.15172037 -0.43108648 2.5466597
1.0464662 0.24962951 2.9916456
0.78050429 -0.6413855 2.2572618
0.68123764 -0.61176914 2.2274649
0.82793319 -0.38055077 2.3484018
0.94694686 -0.2767919 2.5133476
0.59206599 -0.40354455 2.3615925
0.58977371 -0.43012825 2.3519654
0.73295927 -0.5708555 2.3184562
0.43594211 -0.14485259 2.2286921
0.61234236 -0.55620337 2.2834313
0.61241734 -0.3872472 2.3510489
0.60957748 -0.55827552 2.3105993
0.39426345 -0.42591375 2.4924061
0.57529438 -0.2906799 2.4617918
0.44046444 -0.34336266 2.5167332
0.7160418 -0.083480768 2.1837673
0.13362807 -0.37668514 2.5608096
1.1830187 -0.16954228 3.4690058
0.8017714 -0.4268184 2.3372002
-0.95976084 -0.20534389 2.1170409
0.63480091 -0.53306562 2.2687814
0.60251147 -0.59657973 2.2766347
0.29964665 -0.035742886 2.0478325
0.42047042 0.020125585 2.0300815
0.61624986 -0.35893634 2.3653781
0.46942621 -0.37186116 2.5194185
0.91461539 0.10408649 1.9124438
0.45985693 -0.35978237 2.5194118
0.61624813 -0.12083613 2.1036932
0.50714368 -0.3545382 2.499016
0.4780286 -0.3560687 2.5119438
0.92021811 0.10830846 1.9171197
0.54476237 -0.51080245 2.3892698
0.98081428 -0.13703741 2.3148541
0.60838795 -0.51075953 2.2901657
0.67252719 -0.34009114 2.359843
0.66848159 -0.34739158 2.3332291
0.60554647 -0.55671924 2.2890222
0.33523867 -0.47278523 2.5005665
0.78129601 -0.60420263 2.2298551
0.82174969 -0.057207987 2.1642771
0.61564672 -0.20402716 2.3932662
0.8764441 -0.0041119377 2.098392
0.98097849 -0.36697835 2.4346998
0.93800771 -0.38942227 2.4689939
0.12552068 -0.081629112 2.1354902
-0.065825485 -0.11301517 2.2586429
-0.024351498 -0.074151523 2.1304312
-0.024635533 -0.081271224 2.1624324
-0.0072870511 -0.21138366 2.3952494
0.60853416 -0.32226124 2.3550551
0.042838167 -0.14672112 2.2312472
0.61665994 -0.41123316 2.3524795
0.9558199 -0.52206844 2.4014661
0.052085388 -0.11986483 2.1730537
-0.0090926085 -0.073681101 2.1118498
0.17876121 -0.085528955 2.1251848
0.57949305 -0.47215217 2.3382885
-0.0036440028 -0.24646311 2.4388418
-0.51734924 -0.085292123 2.287358
0.5520457 -0.1653197 2.3156292
-0.02368539 -0.082741842 2.1557252
0.022805734 -0.13470276 2.1977293
-0.21161874 -0.14617646 2.3030682
-0.3103106 -0.14331935 2.3085005
-0.21623522 -0.14851254 2.2808821
-0.066083692 -0.11375997 2.2553418
0.63991636 -0.13552178 2.1252606
-0.034285963 -0.078637764 2.1195846
-0.30469266 -0.28037539 2.3869421
-0.30342436 -0.28143725 2.3856764
0.72755897 -0.38561523 2.2989593
0.14878504 -0.46435294 2.49505
-0.14394921 -0.41850397 2.499393
0.15177426 -0.41447979 2.5205169
0.45597354 -0.32119265 2.5063217
-0.0070290077 -0.0097830473 2.0146894
-0.37262368 -0.14103325 2.3041358
0.52102762 -0.37317637 2.5179162
-0.41374886 -0.14297372 2.3090003
-0.12738445 -0.42647821 2.5357983
0.0042349459 -0.04404366 2.0388665
0.54499936 -0.17018555 2.2959397
0.14858718 -0.3737725 2.5365021
-0.48067009 -0.10901827 2.2568121
-1.2388443 -0.70817339 2.2498214
-1.0093977 -0.74084634 2.2371852
0.17107278 0.091356933 1.7867612
-1.061051 -0.76459748 2.2043827
-0.55592173 -0.052998178 2.1513057
-0.81191432 -0.69872844 2.3256786
-0.54059601 -0.098188408 2.2277489
-1.0376281 -0.20037054 2.1461153
-0.028061517 -0.32667369 2.4786015
-0.57469875 -0.084666044 2.2073174
0.54198331 -0.24877778 2.2922091
-0.7930395 -0.80794758 2.2312593
-0.13465883 -0.38183621 2.5059872
-1.0207337 -0.20351893 2.1244609
-1.2329682 -0.75306219 2.2016156
-1.1719497 -0.82818234 2.1846297
-0.92439401 -0.78130347 2.5212216
-0.9924227 -0.21654674 2.1595848
-0.79199404 -0.68831468 2.3073714
-0.90653992 -0.8867659 2.3819911
-0.15112478 -0.5061695 2.2734568
0.36794487 -0.48879555 2.4743731
0.36794487 -0.48879555 2.4743731
0.19250788 -0.4841696 2.5646689
-0.82599908 -0.73453504 2.3240254
-0.23226438 -0.50564826 2.2962043
0.64913261 -0.37493426 2.3318505
-0.3354685 -0.19979057 2.3624439
0.41418025 0.35805681 2.0821965
-0.38727969 -0.87257463 2.3707805
-1.3581766 -0.67281979 2.5813427
-1.4039159 -0.57496583 2.7478604
-0.83454555 -0.78824848 2.4877639
-0.89624166 -0.91156512 2.2914567
0.21048546 0.47155043 2.181529
0.17057866 -0.10311966 2.120851
-0.29259688 -0.9240616 2.4453382
-0.33278385 -0.83534068 2.369467
-0.32968283 -0.92109632 2.2952733
0.26846561 0.55659401 2.2921576
0.62801987 -0.20596398 2.3223202
0.5414204 0.46387699 2.2363591
0.5414204 0.46387699 2.2363591
-0.54280245 -0.052456088 2.1589537
-0.90058005 -0.9942472 2.4161682
-1.5953074 0.090646833 3.035862
-1.5929455 0.042619169 3.0093839
-1.5638448 0.06946858 3.0267277
-1.4468589 -0.29359236 3.0943594
0.2533752 0.622069 2.2260032
-0.37037188 -0.88732809 2.2220237
0.16031009 0.78645581 2.1086993
0.16031009 0.78645581 2.1086993
-0.4809339 -0.097839743 2.2445753
-1.6561438 0.12523651 3.1461029
-0.045082744 -0.22764301 2.408011
-0.53527319 -0.043682195 2.1616428
-0.066221341 -0.067749284 2.1711156
0.33080313 0.34748149 2.0233088
-1.0361384 -0.14464614 2.1211133
0.049201924 0.11556451 1.8932424
-0.53113174 -0.046929058 2.1861398
0.61090904 -0.54863524 2.3298407
-0.054986019 -0.22408235 2.3807626
-0.20147109 -0.64224517 2.41769
0.61357838 -0.37207371 2.3778644
0.63196182 -0.32743019 2.3583212
0.49403334 -0.57602757 2.4168
0.019626955 -0.54269022 2.5296335
0.46877319 -0.38466296 2.451483
0.42957458 -0.34936467 2.6057775
1.0052303 -0.30401459 2.504447
3.6511199 -0.55787402 4.4960093
3.6511199 -0.55787402 4.4960093
-0.5599851 -0.23381858 2.4410627
-1.1532255 -0.69356078 2.3227823
-0.31436792 -0.81098032 2.2564199
5.6116161 -1.6950891 6.0533271
5.9877911 -1.8104357 6.3917651
-0.90809882 -0.16699684 2.1526036
0.53202057 -0.32978031 2.5130639
-0.75809604 -0.85297722 2.2635701
-0.8006618 -0.85732657 2.3162553
4.0030198 -3.2430081 6.1476898
2.9532411 -3.6914463 6.9441037
-0.43547404 -0.084509671 2.2272675
-0.2130807 0.20207068 3.0695894
1.167686 -0.43036053 2.6443222
-1.4863539 -0.77273971 2.8602273
-0.76242918 -0.62981617 2.2621729
0.20606259 0.12763904 1.7874876
0.26470348 0.35901237 1.9691337
0.53420627 -0.42869359 2.4212794
0.2994214 0.44251308 2.1264315
-2.5156655 -2.9126811 8.3590498
3.5628147 -0.6164372 4.5009203
-0.20857169 -0.12062033 2.2606614
-0.10316337 0.36130482 2.8161721
-1.082845 -0.19659603 2.2545295
-1.082845 -0.19659603 2.2545295
-1.4923629 -0.12714382 3.2626536
-1.2349145 -0.72389132 2.4987111
0.60911268 -0.21799152 2.4229965
5.7708411 -0.65946943 4.3201866
0.75098062 -0.11025967 2.1081741
4.1744375 0.15417793 2.5670393
4.1862307 -0.36457399 2.3646626
4.2543449 -0.54818749 2.5430951
4.0321779 -0.38289753 2.5137453
3.990525 0.12875184 2.4653783
4.3278399 -0.60674989 2.5483794
4.3733773 0.42342374 2.22717
4.3302398 -0.32140774 2.0722365
0.23170215 0.45339724 2.0332079
3.0868909 -0.18356578 1.3863283
4.3835363 -0.21648635 1.8817941
3.8802559 0.31482345 1.4690508
3.9955256 -0.0078301104 1.4033047
-1.4165585 -0.99592507 3.2169788
0.62961876 -0.90442544 3.7050097
0.60908151 -0.87080145 3.6786392
0.81445307 -1.1433715 3.6418512
4.8373475 -0.30248094 2.8193173
4.773602 -0.57089329 2.7259946
5.0323606 -0.26448438 3.084167
4.6108336 -0.33665732 2.8263004
4.5410762 -0.018011315 2.9775591
1.9543183 2.7454031 -1.4108422
0.69846189 -0.59153265 2.9136043
2.6001503 2.7090569 -1.3474185
4.077877 0.087420821 2.7903202
4.6954694 -0.61705059 2.6826415
4.3431687 -0.20083499 2.0679522
4.7163992 -0.52234322 2.6570935
0.98843902 -0.49950957 2.882642
0.84548241 2.4732018 -1.0833229
0.63945037 -0.60399073 3.0787959
-0.87363869 0.2119472 1.7546928
4.2993541 -0.41053259 2.4774916
4.1454325 -0.2007762 2.4032805
-1.374845 -0.93820494 3.0749335
-3.1351662 2.0242791 -0.001357034
-3.3696215 2.1911042 -1.2087921
-3.2686584 1.9721648 -0.95306993
-3.1589673 2.0964117 -0.066403247
-3.2101583 2.2991567 -0.67933142
-3.4075558 2.2696707 -1.3115524
-3.126405 1.9858015 0.023227541
-2.9809508 1.7412474 0.23195505
3.7639251 0.58450699 1.3137366
4.3945165 0.39323679 2.2610714
-0.43788663 -0.75329375 3.3388879
3.9610407 0.42075202 1.5867072
0.74301249 -1.104054 3.4783175
0.96337992 -0.57718134 2.9361925
0.91620839 -0.69414908 3.376096
3.8318849 0.47291684 1.5585215
0.72332215 -0.70791322 3.4357119
3.7299092 0.7222594 1.5786743
3.7880991 0.73515958 1.7220819
5.1876125 -0.016731774 3.2791595
4.4768901 0.49518168 1.887476
4.0178833 0.3722434 1.5757704
4.0041289 0.36283046 1.580793
3.9547131 2.8139672 -1.4291247
-0.35631967 -0.79029143 3.3620875
0.95023501 -0.5602529 2.9351444
0.9443543 -0.53672701 2.8878632
0.99255049 -0.47612187 2.7240484
0.78849751 -0.94140434 3.4639721
0.50411099 0.70089889 2.2550886
0.66997737 -0.235035 2.3567803
0.20083183 0.34736258 1.9882867
-0.32463649 -0.82655132 2.2827461
0.91919851 -1.2467909 3.849273
0.50728017 -0.59530443 2.3494284
0.96016747 -2.3627927 7.2240887
1.1778827 -2.6186345 7.7099118
0.98558241 -2.5337489 7.4635921
