# .PCD v0.7 - Point Cloud Data file format
VERSION 0.7
FIELDS x y z
SIZE 4 4 4
TYPE F F F
COUNT 1 1 1
WIDTH 620
HEIGHT 1
VIEWPOINT 0 0 0 1 0 0 0
POINTS 620
DATA ascii
0.96369934 0.38951626 2.1668169
1.0246133 0.038010012 2.6013579
1.04791 -0.30433822 2.2778828
0.66022128 0.19153006 2.0563247
1.0183043 -0.31968096 2.3914781
0.95053095 -0.12205036 2.6236451
0.68353313 -0.4148896 2.3184092
0.99497014 -0.31200963 2.409277
0.78582937 0.14512846 2.0799749
0.91783589 -0.34651878 2.3281512
0.64104182 -0.28314117 2.2407508
0.95887512 0.22631034 2.0694847
0.95744848 0.22780855 2.0699003
0.85000557 -0.43060693 2.5641148
0.8305586 -0.41968045 2.4548457
0.17188126 -0.51114786 3.2829993
0.87982649 -0.11831072 2.7465158
0.97355634 -0.37196773 2.3905444
1.002587 -0.35215643 2.3183689
1.0510341 -0.32497481 2.2786505
0.76340312 -0.48183683 2.550339
1.0143623 -0.36425534 2.3340406
0.9671064 -0.38787469 2.3826592
0.99196744 -0.10472684 2.5718179
1.0324649 -0.0041959635 2.5778153
0.74554867 -0.34613949 2.2847722
0.92387521 -0.22019136 2.5821757
0.65238339 -0.40651926 2.4179747
0.96641082 0.20365174 1.992673
1.0539774 -0.30566755 2.3004069
0.68279833 -0.51595652 2.2768304
0.82552677 -0.41172704 2.4441462
0.6547026 -0.37991419 2.396167
0.68079841 -0.45738596 2.368783
0.81964368 0.1756701 2.0552967
0.86358333 -0.35858473 2.2986557
0.74322098 -0.22949395 2.1383495
0.82539988 0.1251304 2.2022316
0.8043735 0.16661517 2.195364
0.77257556 -0.34427762 2.238147
0.58904928 -0.55205762 2.198632
1.0619744 -0.31240648 2.2923555
0.768098 -0.026035642 2.1926389
1.0479785 -0.3031913 2.2766449
0.86427999 -0.36050072 2.3049481
0.71272475 -0.37759018 2.3653297
0.9562512 -0.39334583 2.3892074
0.63621789 -0.35292611 2.3213468
0.67972279 -0.42816955 2.3574648
0.66782719 -0.50958836 2.2971494
0.6736266 -0.54410255 2.3062229
-0.20859715 -0.071394362 3.8303499
0.95551378 0.19388554 2.0356085
0.83972591 0.12958398 2.1858552
0.91146582 0.10964018 3.1366765
0.79150128 0.054557774 2.232491
0.94262505 0.24436231 2.0767906
0.97119009 0.20508246 1.9968442
0.53312558 -0.39195022 2.0379593
0.63273901 -0.69883227 2.5566454
0.9915483 0.21727917 2.0197887
0.98142987 0.23196909 2.0253386
0.66503048 -0.55140376 2.3203752
0.5478785 0.21163511 1.9870753
0.51108444 0.15521695 2.0617392
0.51760435 0.20864281 2.0008798
0.56474203 0.18510273 2.0169067
1.0600913 -0.31231219 2.2930117
0.85903931 -0.11489594 2.6846282
0.365529 -0.38692287 3.0769336
0.77584958 0.05980549 2.2487156
0.9314422 -0.37828603 2.3330278
0.33959115 0.33446631 1.8178144
0.35365424 0.32102802 1.8256028
0.16617605 0.27522856 1.8580744
1.0395876 0.0053893286 2.5878744
-0.23124838 -0.093596645 3.8926797
-0.18311559 -0.062735751 3.8708935
0.16384901 0.2923815 1.8619792
0.19385034 0.25867262 1.8696384
0.80824381 0.3026863 2.1577196
1.0058732 -0.37849608 2.3581092
1.0024741 -0.31375751 2.4074826
0.27384883 0.30493653 1.8629898
0.95710325 0.19511035 2.0406249
0.97841585 0.20126167 2.0000527
0.66841739 0.17692907 2.057483
0.559021 0.18894765 2.0154779
0.76151299 -0.28921819 2.2751658
0.9554497 -0.24539566 2.5322301
-0.27561867 0.34658378 1.8913887
0.82924676 -0.23398539 2.1636043
0.84417957 -0.34924355 2.3038538
0.96884233 -0.28310129 2.4592617
0.82479393 -0.38461429 2.3017702
0.2897003 0.18451835 2.0954001
0.20667835 0.31883627 1.884478
0.21216872 0.20986885 2.0976272
0.16219682 0.28181097 1.8521564
0.10177682 0.29662228 1.9160976
0.3056553 0.12687488 2.0660896
0.9974485 -0.05912723 2.5715241
0.76249111 -0.34483209 2.2419581
1.004601 -0.36642438 2.3557303
0.04231507 0.2100523 2.0014517
0.86067659 -0.43027773 2.5561891
0.66169453 -0.51586288 2.3180945
0.73699385 -0.35037991 2.2639589
0.79912841 -0.36265212 2.3085096
-0.18587621 0.34552348 1.8369031
0.95128787 0.23497482 2.071939
0.8077935 0.53775811 2.4139135
0.35943469 0.20803614 2.0567431
0.79306972 -0.37131166 2.3204901
0.89650697 -0.36307898 2.3334394
0.77670574 -0.38119254 2.3193476
-0.213689 0.34041661 1.8289742
0.95529073 -0.22658177 2.5121295
0.34751633 0.24400768 1.9046816
0.089146584 0.27724069 1.9084885
0.057956092 0.13800123 1.9544857
0.51591635 0.15373001 2.0694954
0.82001162 0.11076692 2.2117395
0.77626288 -0.17253548 2.1389258
0.82376134 0.10838325 2.2089694
0.56413871 0.18590227 2.026499
0.54809511 0.16394445 2.0438302
0.55209112 0.2056509 2.0050819
0.54049802 0.21391581 1.9865054
0.49579728 0.19039577 2.0068691
0.67006052 -0.52655756 2.2977779
0.83773816 -0.31758749 2.2155607
0.63964581 -0.53730828 2.2827787
0.69690788 0.068896972 3.5592239
0.53736895 0.24042022 1.9679148
0.66333413 -0.55801636 2.2979186
0.84370601 -0.30024192 2.2251799
0.9905777 -0.36247632 2.368705
0.88284808 0.071842141 3.2007887
0.87298864 -0.26676843 2.200181
0.6543079 -0.51538497 2.3177812
0.60478944 0.13130043 2.091146
0.57225269 0.11815625 2.1393929
0.87869173 0.12548053 2.0370703
1.0403084 -0.2999382 2.2865653
0.83591861 0.1468014 2.2
0.99626678 -0.37340161 2.3643143
0.78791189 0.15730925 2.0453684
0.63837546 -0.39132494 2.3322113
0.51083076 -0.38940597 2.0411801
0.77637225 0.16455439 2.0485272
0.66898113 -0.40769929 2.4009631
0.97403449 0.22974625 2.0211706
0.83113861 0.19912706 2.1917686
0.87204158 0.075033069 3.2136884
0.90540689 0.12571959 3.13694
0.87078315 0.097380854 2.9509087
0.89601266 0.13344634 3.0750792
0.47733793 -0.41953185 2.9925711
0.45298979 0.18880136 2.0237069
0.26163864 0.14493603 2.1378479
0.76636058 -0.36550334 2.2965562
0.97665387 -0.15246148 2.558336
1.0089294 -0.32048175 2.3154583
0.16021664 0.1965508 2.0883181
0.1923372 0.14242205 2.1168063
0.78916562 -0.33870238 2.2886066
0.8961525 -0.3476603 2.2883604
-0.24988966 0.32202032 1.8144354
0.79534042 0.056170572 2.235043
0.82458425 -0.40645182 2.421005
0.85059881 -0.24126445 2.1816866
0.64288086 -0.34484318 2.3397391
0.75542766 0.12963523 2.1245809
0.68713969 -0.33744922 2.3337829
0.64409316 -0.54960519 2.2558715
0.57740808 0.015173804 2.15365
0.85576135 -0.017351719 3.1834154
0.79103094 -0.39287725 2.3567247
0.35677934 0.34781566 1.8184216
0.60440469 -0.30171174 2.2918925
0.12699471 0.29927868 1.8540747
0.63483912 -0.53621846 2.2834394
0.19831137 0.30983242 1.7637984
-0.00088736357 0.18928859 2.0320063
0.9264096 0.17812701 2.0665894
0.82174855 -0.32538161 2.2547193
0.90003932 -0.371427 2.3340976
0.98189688 -0.23365237 2.4736125
0.91216826 -0.31656876 2.2797155
0.71709919 0.58560294 1.9595386
0.59372604 0.20539184 2.026581
0.87742251 -0.33891705 2.2704787
0.94838047 -0.33823568 2.3065431
0.93830675 0.12143153 3.1324642
0.84634578 0.17351897 3.2293205
0.58177084 0.13174653 2.1607707
0.62015849 0.20350274 1.9965235
0.89473307 0.15483578 3.1063282
0.8766858 0.17364196 3.2590311
0.88423944 0.18330458 3.2549913
0.78332317 -0.39342856 2.3570299
1.027339 -0.027240209 2.5687828
0.88746607 -0.32210037 2.2384324
0.88928282 0.16765738 3.0738931
0.55145532 0.16117673 2.0656614
0.51572657 0.25715479 1.963141
0.88050199 -0.26742542 2.2015584
0.57884562 0.21275544 1.9562728
0.61283171 0.18540239 1.9812049
0.86312318 0.28230935 3.0734761
0.8563053 0.27895758 3.0729742
0.62982142 -0.54992568 2.2678626
0.83234417 -0.3280589 2.2529883
-0.19884247 -0.77138186 3.4102488
0.80699354 -0.2951479 2.2161858
0.92958868 -0.34969178 2.3195262
-0.10203096 -0.58202863 3.3809907
0.96331328 -0.30360541 2.4768369
0.95023131 -0.28111854 2.5123506
-0.083631441 -0.58576345 3.3447862
1.008934 -0.12882052 2.5304613
-0.29504052 -0.30246684 3.6840334
-0.18397468 0.34302691 1.8388398
0.72555375 -0.73772597 2.4214137
1.0398364 -0.087106921 2.517323
0.60503399 -0.11309007 2.1225951
0.59877175 -0.10816649 2.1214616
0.83625358 -0.36886624 2.3954213
0.83676821 -0.36174116 2.3091094
-0.059867091 0.33735108 1.8115538
0.85338855 -0.38516536 2.3951354
0.9472664 -0.25770724 2.5170174
-0.58144367 0.3897405 1.7791016
0.81926697 0.078933991 2.223531
0.84671408 0.095993914 2.182853
1.0457323 -0.074762434 2.5192456
0.86992234 -0.27388716 2.216064
0.78269058 -0.30860433 2.2516665
0.48579454 0.17160371 2.0240548
0.90669608 0.055171888 3.1145074
0.91397065 0.085398659 3.1023536
0.9207136 -0.15842396 2.6033986
0.91198015 0.094715491 3.0855224
0.84947276 -0.38550717 2.3974471
0.9175176 0.12551759 3.1689191
0.96826649 -0.25246921 2.5186882
0.84559387 -0.32943434 2.2422984
0.84767914 -0.36574838 2.2420902
0.52033174 0.050350562 2.1649625
0.86595082 0.16508177 3.0547423
0.90366393 -0.36270183 2.2466741
0.86273926 0.16679631 3.0547495
0.82732087 -0.3799392 2.3564796
0.68308955 -0.69966745 2.4724793
0.72900778 -0.26369569 2.2113585
0.093747452 0.38273314 1.7695895
1.0427856 -0.077083007 2.5189028
0.8542586 -0.38213232 2.3245273
0.31983119 0.18566085 2.0971472
0.77043134 -0.29019421 2.2426703
1.0059369 0.0070925183 2.5983214
0.90030032 0.31074095 3.0622861
0.76764852 -0.2751492 2.2249551
0.98276317 -0.29220057 2.4303193
0.93495184 -0.29433906 2.5011992
0.17417227 0.26844302 1.8565682
0.16348416 0.29284334 1.8679177
0.18818706 0.26413721 1.8537821
0.97338402 -0.17059241 2.5522163
0.77966201 0.096022919 2.265151
0.93166173 0.21244486 2.0479727
0.94642544 -0.2379335 2.4985049
0.87490529 0.11214775 3.2362759
0.77808315 -0.214743 2.1658082
0.83293879 -0.32828099 2.2496884
0.905433 0.14655387 3.0946629
0.75589454 -0.10534254 2.1559958
0.63778085 -0.52448601 2.2642477
0.76331425 -0.10651787 2.1523795
0.90610319 0.14398904 3.0668757
0.70167017 -0.23117383 2.1497097
0.64462739 0.014048342 2.1902082
0.85443664 -0.33038688 2.2182631
0.60016829 0.069746137 2.1977649
0.97099429 0.21352246 2.0055912
0.99682701 -0.34482679 2.2519658
0.59180057 0.12872 2.1056805
0.56775826 0.11581503 2.1436505
0.87452435 -0.4379636 2.5483694
0.94975817 -0.17348464 2.5902839
0.66413516 -0.55099195 2.3024294
0.60331368 -0.54510748 2.21315
0.99521369 -0.22653283 2.4672563
0.64312607 0.055841267 2.201812
0.79740971 -0.33929825 2.3424594
0.64886802 0.17794193 2.0477974
0.71865577 0.14495988 2.0360949
0.57106286 -0.53604692 2.2050083
0.79721493 -0.3073979 2.2341936
0.68991989 0.60766119 1.9621471
0.91213846 0.11057353 3.1317585
0.75435573 0.12222621 2.2883234
0.67281699 -0.36484808 2.3216455
0.95331287 -0.33815071 2.2978973
0.8597225 0.18999819 2.1812315
0.66869807 0.18292728 2.0551543
0.74213141 0.1236136 2.0114856
0.67209089 0.024602273 2.1954758
0.75834322 -0.27129006 2.2171295
0.73586637 -0.1887832 2.1195145
0.57371068 0.20298976 2.0174375
0.74466139 -0.033911765 2.1921372
0.60478026 0.13188471 2.0945277
0.50858986 0.24152805 1.9456666
0.57497185 0.16287518 2.0302994
0.5109576 0.23935407 1.9427601
0.93783998 -0.36757234 2.3379695
0.52384216 0.19477406 2.0156784
0.92017716 -0.33178151 2.2923245
0.79062414 -0.3916468 2.3660312
0.46165752 0.18884878 2.0514572
0.50460929 0.16462694 2.0435853
0.98047638 -0.1781532 2.5434082
0.42533135 0.21913524 2.0406203
0.44075197 0.197513 2.0373569
0.41017064 0.21868651 1.9839127
0.94950277 0.23580988 2.0718396
0.41958192 0.11888238 2.1808543
1.0281506 -0.24293043 2.4458497
0.86657184 0.1323573 3.026957
0.89323431 -0.36019093 2.3094671
0.81283265 0.44456071 2.5088594
0.62832862 0.04869967 2.18769
0.61098617 0.048298325 2.1875474
0.82311964 -0.35160804 2.2656486
0.74425071 -0.3543613 2.2669351
0.82738721 -0.38035715 2.3256147
0.79080904 0.19311418 2.0458128
0.97413701 -0.30822858 2.4454587
0.66099489 -0.52010435 2.303828
0.65673339 -0.51478481 2.2932899
0.56441492 0.12394928 1.8961221
0.20053279 0.30395317 1.8769648
0.096724816 0.27300408 1.9053432
0.61303747 -0.35233545 2.3516433
0.75935107 -0.47815412 2.5599923
0.65945035 -0.40028837 2.379714
0.66950971 -0.53984815 2.2879562
0.5855158 -0.25584525 2.2668667
0.62977773 -0.37913239 2.3965936
0.94499898 -0.12650494 2.6423595
0.62712377 -0.27527061 2.2681746
0.58604372 -0.35183734 2.3523068
0.55028844 -0.34393764 2.3676069
0.77139765 -0.4866485 2.5726495
0.6409651 -0.38625342 2.3095841
0.65581512 -0.30259243 2.2950673
0.78564024 0.10192152 2.2697368
0.66890746 -0.38292456 2.3754368
0.68407893 -0.39671925 2.3717384
0.72982681 -0.48275566 2.6072125
0.75400746 -0.40140325 2.3476408
0.70610577 -0.31455511 2.2704442
0.719679 -0.51948464 2.60622
0.73458946 -0.48729819 2.6013827
0.9105171 -0.18378879 2.6691377
0.70767498 -0.52138722 2.616044
0.72705036 -0.52634698 2.6003873
0.88572794 -0.19088753 2.6878257
0.70182663 -0.54414821 2.606086
0.88873249 -0.17979063 2.6923866
0.81289172 0.24924706 2.250989
0.9851799 0.34776491 2.5594246
0.69463938 -0.015654664 2.2143226
0.69647038 0.59267104 1.9569031
0.83464491 0.12717478 2.1894491
0.71303767 -0.37718448 2.408721
0.76291728 -0.3546716 2.3652968
0.60244846 0.203563 2.0166564
0.95937783 -0.090241455 2.6274166
0.75156379 -0.110494 2.2026052
1.0333935 -0.07816378 2.5277009
0.58266878 0.20714042 1.9986627
0.78081864 0.15172231 2.0551898
0.82713532 -0.24544023 2.1685524
0.55206513 0.22817485 1.9796355
0.55138057 0.21161015 1.9842074
0.51679766 0.1817525 2.0519364
0.69990206 0.17432155 2.3340883
0.62808287 -0.5229938 2.2669117
0.91067213 -0.36013842 2.2998786
0.59269416 -0.55282605 2.1973393
0.6675362 -0.53248167 2.2765243
0.9877578 -0.24099153 2.473968
0.80809861 0.44542259 2.5088303
0.91859931 0.31417015 3.128829
0.60634094 0.040194798 2.1812382
0.61891836 0.027802782 2.1692469
0.57430583 0.048259199 2.1694455
0.83488047 -0.34452412 2.2798553
0.75344831 -0.35159856 2.2794607
0.7887848 -0.3697181 2.3227692
0.34297892 0.35923374 1.8147137
0.92889947 -0.34992284 2.318167
0.9105497 -0.32459477 2.2973042
1.0090989 -0.078691199 2.5585015
0.6036979 -0.54625744 2.2148032
0.94062787 0.25471124 2.002286
0.019589143 0.2570172 2.1270368
0.10418951 0.16354513 2.1353025
-0.047237691 0.22061357 2.0655982
0.89283597 -0.28557193 2.2049844
0.63645589 -0.52333313 2.2661388
0.97763693 -0.068585314 2.6155772
0.63936812 -0.5369252 2.3004725
-0.035352569 0.2219476 2.1003435
-0.010603126 -0.78053993 3.299454
-0.014981671 0.17193715 1.9924295
0.87726396 -0.38048244 2.3085382
0.8557232 -0.3756108 2.3806293
0.62173653 -0.28362241 2.2636991
0.76829576 -0.29105464 2.2502887
0.89156175 -0.26355067 2.145112
0.75257009 0.13833609 2.137008
0.93060112 -0.33722383 2.2881842
0.67345607 -0.30359766 2.2727218
0.93749571 -0.33167711 2.2963202
0.91069376 -0.1342196 2.7035251
0.82436299 -0.33240607 2.6902471
0.71775186 -0.39170989 2.3948152
0.92258209 -0.13429925 2.6978886
0.72093648 0.0033188821 2.2174366
0.55795038 0.20128126 1.9986697
0.57559586 0.16152966 2.0596302
0.72080249 -0.65263885 2.5063345
0.76162887 0.12536696 2.1236136
0.92259544 -0.1664806 2.6294067
0.7903077 -0.48613524 2.6038523
0.99991667 -0.11075716 2.5563734
0.80359352 -0.48637307 2.5919549
0.66921234 -0.30603263 2.2861562
0.58376789 -0.29032764 2.3112526
0.9382205 -0.11817178 2.6620102
0.96444142 -0.33691478 2.2891977
0.83857918 -0.34652251 2.2600269
0.83234519 -0.31330723 2.2884593
0.93135417 -0.33643314 2.2858856
0.81789839 -0.33502519 2.7024722
1.0058569 -0.35669565 2.3304477
0.52264756 -0.034756303 2.1511505
0.62889618 -0.51696301 2.2694924
0.69774133 -0.26688778 2.2277222
0.54183316 0.16426036 2.0671129
0.89110279 -0.29455215 2.2238636
0.53536689 0.15855166 2.0746608
0.49113548 0.19710401 2.0272722
0.47772673 0.20321155 2.0135086
0.92843556 -0.34942195 2.319351
0.48941305 0.18439235 2.0229242
1.0573112 -0.31308794 2.2959609
0.60864282 -0.11148753 2.1129718
0.53723979 -0.33788702 2.3800306
0.56293756 -0.08887057 2.1257739
0.78671443 0.26640925 2.4053612
0.59597957 -0.066687204 2.1227598
0.34100917 0.24708326 1.9368023
0.34249234 0.24790971 1.9303657
0.27168137 0.32723254 1.7816011
0.94507939 0.069594361 3.0786493
0.91500986 0.089986935 3.1219966
0.9705382 0.043779332 3.0798337
0.8960852 -0.34627336 2.2868204
0.93257517 0.077672765 3.1272058
0.02845264 -0.18750222 1.7983651
0.92432386 0.10054504 3.1418946
0.26961553 0.28516629 1.8858885
0.91249001 0.083395116 3.162997
0.91390824 0.0834179 3.1790886
0.8705045 0.18739899 3.0099432
0.90507853 0.14530094 3.1010449
0.91654527 0.098704509 3.1758211
0.86663693 0.13843529 3.2466688
0.91932559 0.09642683 3.1622045
0.21762718 0.16720457 2.1523504
0.8667838 0.16573754 3.0495682
0.74535215 0.049820565 3.2396128
-0.00093527307 0.17446297 1.9974357
0.99229723 -0.31200272 2.4094446
-0.31594378 -0.19649053 1.7202016
-0.29380676 -0.15160334 1.7522895
-0.46577621 -0.1126761 1.7535881
0.91262209 -0.36196932 2.2984109
0.87201768 0.12181013 2.1488411
0.21371162 0.19898427 2.0932453
-0.074518263 0.34998339 1.7844578
0.12193751 -0.51059818 3.3210649
-0.022116268 0.1586889 1.9743781
-0.42201224 -0.0816506 1.7726634
0.3951197 0.14449652 3.4518046
-0.25303146 -0.81963933 3.4017847
-0.17501782 -0.80372852 3.3845735
-0.46910304 0.22424436 1.9370985
-0.62252802 0.48623133 1.7406968
0.24838836 0.075381793 3.5029109
-0.48172468 0.33395681 1.924026
-0.11202104 -0.33784601 3.5723245
0.64756078 -0.51194054 2.3224208
0.64769 -0.50410223 2.3166072
0.71672219 -0.25625071 2.2034321
0.63792259 -0.54871613 2.2574902
0.94315267 -0.26383907 2.5407958
0.94214475 -0.35312688 2.4689367
0.25305554 0.30566263 1.8920994
0.7546097 -0.27353364 2.2252154
0.87011862 0.19555122 3.0784047
1.0537701 -0.028129878 2.545433
0.91473734 0.22284639 3.1225464
0.21794762 0.33191919 1.8642453
0.16560325 0.28478497 1.8280903
0.84528625 -0.014628413 3.1822691
0.93546021 -0.096498795 2.6209605
0.8669154 -0.033762265 3.1587157
0.83272791 -0.30004314 2.2338309
0.84719419 -0.35341239 2.3122239
0.83482057 -0.35524321 2.2891502
0.95879084 -0.31441766 2.458014
0.89488745 -0.32840592 2.2352245
0.74332261 -0.38095695 2.3343575
0.9861176 -0.12906389 2.5614817
0.91026282 -0.35144109 2.2781858
0.97368073 -0.28962019 2.4414427
-0.18719344 0.46042684 1.9283532
0.10102241 0.23698096 2.081605
0.85005534 -0.29144621 2.2290473
1.0186877 -0.29463726 2.4173324
0.8632592 -0.38106182 2.3562822
1.0060195 -0.30430615 2.4192705
-0.0092811817 0.20682563 2.0460002
0.1238736 0.19472125 2.012291
0.79404372 -0.39117157 2.2926252
0.79372597 -0.30320558 2.241451
0.1974813 -0.52632284 3.2715039
-0.01660209 0.33213821 1.7718971
0.99892139 -0.29210755 2.4350224
-0.38047016 0.36391407 1.8527886
-0.8559224 0.55997735 1.8962064
0.94294119 -0.3520962 2.4657252
0.87037408 -0.37279221 2.3128781
-0.61044973 0.4373394 1.7880884
0.99095887 -0.24546903 2.4721937
-0.18786205 -0.78592318 3.3999364
1.0049745 -0.089462779 2.5588751
-0.14676714 -0.49230742 3.4750407
0.97358096 -0.13844876 2.562577
0.89338112 -0.37179291 2.3242679
0.86292541 -0.32837403 2.2517273
0.83182138 -0.38500977 2.336494
-0.22002676 -0.54177153 3.5151806
-0.052113008 -0.54021901 3.3666093
-0.057245847 -0.55930996 3.3633521
0.95836782 -0.33628708 2.2931573
0.2699973 0.058402535 3.5422354
-0.20531234 -0.81291044 3.3904438
-0.22005799 -0.82400465 3.4136415
-0.30567366 -0.59133714 3.5660493
-0.10483825 -0.57989633 3.3846292
0.5693391 -0.34360465 2.3573136
0.55646187 -0.2838479 2.3081255
0.91199893 -0.35842991 2.2969892
0.6697771 0.026440592 3.2671273
-0.34146824 -0.77705693 3.5317092
0.67528355 -0.44120085 2.3750942
0.69546467 -0.30183887 2.2704144
0.69402426 -0.43389872 2.3648758
0.65715861 -0.40391159 2.3849597
0.55674124 -0.53579068 2.2049878
0.5340479 -0.53620255 2.2215478
0.92303622 -0.15585126 2.635391
0.88531351 -0.36235753 2.2921233
0.90965122 0.14179207 3.1208587
0.54347605 0.23331814 1.9644759
0.78933907 0.058012288 2.2443416
0.8099491 -0.37897107 2.3102677
0.47061607 0.28435329 1.9787916
0.87292939 0.16436759 3.0430362
0.61404848 0.10924967 2.134402
0.43261269 0.1985431 1.9634778
0.12467556 0.15025711 2.1240745
0.32992017 0.18083747 2.0892341
0.45565018 0.27334413 1.9058422
0.30670628 0.18315646 2.0794222
-0.2122343 0.31992924 1.8568848
-0.61854494 0.43818444 1.757875
0.24524507 0.29997447 1.9144104
0.29350588 0.30014372 1.8619299
-0.31795391 0.35151112 1.8165832
-0.57364875 0.37779167 1.7731404
-0.66931069 0.41827804 1.7682103
0.98917019 -0.13902552 2.5527215
0.98506951 -0.37410796 2.3806639
-2.3549926 -1.1478283 5.5318484
0.80279624 -0.48573378 2.5906005
0.27724263 0.3101868 1.7889088
-2.2240705 -1.1370622 5.4136996
-2.3745739 -1.119298 5.4456487
-2.2467914 -1.4552251 5.1611514
0.73700726 -0.28619498 2.2252877
1.0217183 -0.07619866 2.5487115
-2.0828931 -1.1374226 5.3083873
0.48408833 0.049504094 2.201659
0.77552152 0.29700971 2.4267068
0.77870435 0.29298031 2.4246511
0.99651778 -0.12343656 2.5413923
0.21778576 0.31977418 1.8227611
-3.7952845 -1.2888726 6.6041121
-2.6443005 -1.1521479 5.7042561
-2.2343898 -1.5026069 6.7054887
-1.7612226 -1.4589046 6.0048184
0.78306842 0.12051141 2.1057553
