# .PCD v0.7 - Point Cloud Data file format
VERSION 0.7
FIELDS x y z
SIZE 4 4 4
TYPE F F F
COUNT 1 1 1
WIDTH 569
HEIGHT 1
VIEWPOINT 0 0 0 1 0 0 0
POINTS 569
DATA ascii
0.78705341 -0.12456215 1.9966282
0.82918644 -0.04681493 1.8873301
0.37164298 0.40255931 1.7029595
0.79301113 -0.055042826 2.0242591
0.50601012 -0.21499194 2.0182247
0.71064448 -0.09937381 1.9537435
0.83437955 -0.067027315 1.8881725
0.81975061 0.26040635 2.1802626
0.83795196 -0.046810742 1.9089885
0.57578242 -0.12369666 1.8964479
0.63937581 -0.16908 2.0813746
0.46182185 -0.15515278 2.0535259
0.47675312 -0.30086592 1.9707236
0.74927086 0.1337878 2.252317
0.83990717 -0.069288298 1.8898697
0.50440389 -0.0057701385 1.7837051
0.55854595 0.35201639 1.8412192
0.39060473 -0.33924165 1.8691263
0.84557021 -0.053030822 1.9001871
0.51547909 0.20083128 1.8301237
0.82899719 -0.045708768 1.886068
0.75980461 0.11746284 2.2257257
0.51532471 -0.14839821 2.015913
0.83058846 0.25917596 2.1673191
0.48672754 -0.20210087 2.0131769
0.47585613 -0.28625298 1.9565314
0.31704015 -0.20762256 1.716053
0.54903984 0.31037426 1.8691186
0.46234229 -0.22435482 2.0401244
0.75453174 0.38096923 2.7469516
0.53540635 0.28456268 1.8650974
0.60673821 -0.083307609 1.8666495
0.46997321 -0.32693061 1.9724331
0.30087152 -0.19059666 1.7128246
0.4900676 -0.46916631 2.22247
0.47989771 -0.32734427 1.980841
0.22252707 0.4042719 1.6646438
0.22445658 0.35666943 1.7356508
0.56819063 0.36307415 1.8264914
0.72776568 -0.12953423 1.9576532
0.29212153 0.39146361 1.6695217
0.010721471 0.36192915 1.7863063
0.46940374 -0.17802201 2.0644863
0.54685354 -0.11524051 1.8867742
0.49331975 -0.32630587 1.9646262
0.57352102 -0.14748518 1.9626848
0.39560893 0.25226513 1.8512735
0.52791053 0.05211037 1.7757466
0.50835717 0.065303564 1.7907954
0.27373981 0.38689458 1.684996
0.77502453 -0.13559775 1.9997669
0.44902813 -0.31697404 1.9462566
0.30160347 0.32403544 1.797569
0.56022483 0.35437569 1.8523433
0.27896646 -0.19006106 1.7186376
0.46049553 -0.19722611 1.9937494
0.60966277 -0.090999082 1.8905627
0.47920904 -0.18129033 2.0571873
0.49900159 -0.17929424 2.0234497
0.5586102 -0.45042518 2.1588454
0.47715047 0.021991219 1.7856128
-0.11925185 0.3614459 1.794531
0.63860565 -0.16332692 2.0525894
0.53934211 0.2866151 1.8671348
0.40931377 -0.33049184 1.8793991
0.63521761 -0.16469522 2.0584025
0.61675256 -0.0058979671 1.8141092
0.4401013 -0.12326328 1.9981624
0.45147169 -0.32969067 1.9192877
0.31842741 0.22253443 1.813372
0.71735901 0.2509245 2.8028178
0.59319937 -0.1565077 1.9983238
0.65997833 -0.12711485 1.9006803
0.44424871 -0.31632116 1.9474643
0.73305517 -0.080683716 1.9003853
0.60501301 -0.089868873 1.8919094
0.69618571 -0.12563699 1.9623275
0.69644266 -0.071731217 1.9056878
0.30108693 0.40908083 1.6811016
0.66320395 -0.097555116 1.9011768
0.77941328 0.39509293 2.7392938
0.69478995 0.44148493 2.8453021
0.31218776 0.3391715 1.8173473
0.60258597 -0.10336898 1.9106356
0.53264248 0.39406553 1.6900989
0.73002458 0.42334244 2.717839
0.72824413 0.44546518 2.8711522
0.73429227 0.45565671 2.8660243
0.58567137 -0.15777333 1.9995626
0.55975848 -0.048292458 1.8594055
0.6677326 -0.080948479 1.8677951
0.26820847 0.36240804 1.7259315
0.65118933 -0.028440336 1.8308252
0.5657711 0.37223148 1.8266377
0.52326453 -0.04504383 1.8602382
0.66879022 -0.13431801 1.9381812
0.56873709 -0.13508731 1.8900828
0.70528418 -0.12874848 1.955076
0.58296275 -0.062469851 1.8547649
0.72155899 -0.10171071 1.943844
0.76881993 -0.047405384 2.0949244
0.8280459 0.17658176 2.1211653
0.51834869 -0.13229491 1.9396224
0.35461888 0.096481867 1.7820646
0.3478162 0.10075183 1.7815816
0.36015466 0.097806312 1.7730932
0.64008176 -0.1270542 2.0307827
0.62978113 -0.12280694 1.9448954
0.61661202 -0.093073025 1.8751639
0.80721509 0.27307528 2.2022777
0.7763775 -0.011697879 2.1053874
0.52889246 0.043280251 1.7686816
0.43923336 -0.3043249 1.9322969
0.82330596 -0.090986118 1.9322844
0.65127689 -0.040454891 1.8603677
0.73675406 -0.073410161 1.8982081
0.37030792 -0.07067062 1.9864389
0.6430642 -0.035382085 1.8466332
0.56441581 -0.076963641 1.8931907
0.55744499 -0.075728253 1.8997403
0.19742261 0.36519349 1.6922749
0.57053316 -0.077095918 1.893378
0.77145511 0.35573491 2.7189131
0.75050396 0.3644549 2.6964462
0.65500891 -0.1422963 2.0315757
0.77362454 0.0053428384 2.134743
0.73716766 0.39549527 2.6773045
0.62751973 -0.092067167 1.8768125
0.34433281 0.23513027 1.8144269
0.63310301 -0.12800893 1.8771563
0.582228 -0.10031389 1.9374144
0.69119346 0.43049654 2.6702154
0.62777221 -0.14021856 1.993446
0.55854815 -0.12522095 1.9404619
0.74292332 0.49688622 2.7616487
0.62343204 -0.1198795 1.8885677
0.65086496 -0.14092891 1.9585514
0.49774241 0.014377177 1.794106
0.64331329 -0.036562175 1.8650564
0.54944783 -0.060104098 1.8853251
0.63259202 -0.10202172 1.8996336
0.049533386 0.35962147 1.7756181
0.62420589 -0.11848202 1.9465863
0.77461374 0.088413924 2.1656032
0.74825442 0.017068645 2.1170075
0.47685024 -0.29495248 1.9725595
0.54063463 0.013115866 1.8064557
0.61576599 -0.091866262 1.8856386
0.73068976 0.43598446 2.7047851
0.44376135 -0.30501279 1.9278044
0.65964448 -0.15773407 2.0618615
0.38925359 0.22898176 1.841626
0.6335358 -0.092985459 1.8519174
0.31594074 0.33526161 1.7615322
0.47686988 -0.32762006 1.9631273
0.49087784 -0.0016140833 1.7919267
0.40572447 -0.33049423 1.8816732
0.38504755 0.27081162 1.852402
0.59259886 -0.1030738 1.9822195
0.43157178 0.36105952 1.6769034
0.37201214 -0.32479507 1.8772577
0.57660496 -0.074977942 1.8740805
0.43811306 -0.31803727 1.9722881
0.4695209 -0.14094883 1.9770565
0.74134409 -0.088713393 1.9192786
0.50730616 0.50890899 1.8499267
0.58359456 0.42404315 1.803058
0.38072366 0.3947604 1.7009714
0.44432113 -0.32977578 1.930476
0.53266209 -0.043290954 1.8610067
0.65457159 -0.071209766 1.8348852
0.61474627 -0.10980862 1.9287057
0.55398947 -0.15254211 1.9711803
0.52571052 -0.043948103 1.8757608
0.3350305 0.35237217 1.7594963
0.81006581 -0.068692483 2.0026622
0.55859262 -0.13464069 1.9432658
0.32715261 0.33926168 1.7488371
0.31999305 0.33592954 1.7626491
0.64762813 -0.091900222 1.8849964
0.51663482 -0.064793169 1.90482
0.60500801 -0.12486945 2.0351737
0.26326403 0.3818903 1.6952021
0.28714052 0.36513269 1.6879772
0.73362118 -0.11810517 1.961555
0.70732105 -0.0856895 1.9175782
0.60984445 -0.062294696 1.8689495
0.69470847 -0.13227403 1.9432722
0.73398638 -0.12000563 1.95601
0.59376752 -0.15501015 2.0075824
0.1750945 0.38099203 1.7219858
0.5982095 -0.0083915209 1.8001897
0.69928241 -0.073111959 1.830007
0.78132951 0.081265382 2.1561773
0.11338163 0.40355945 1.6604581
0.67295313 -0.12247062 1.9412664
0.68637657 -0.088747129 1.870755
0.083396383 0.38772652 1.7342863
0.63507766 -0.12784193 1.9702399
0.69508839 0.3956615 2.64293
0.73308671 0.43273237 2.6666291
0.26475409 0.41111955 1.6742747
0.61021024 -0.11546811 1.9031708
0.62426209 -0.14166181 1.9628122
0.041127864 0.36168781 1.7767854
0.47091338 -0.29713711 1.9642109
0.46494746 -0.29259935 1.9541447
0.71622616 -0.12892048 1.9467186
0.41273379 -0.13313526 2.0137198
0.60754848 -0.14394481 1.9888474
0.46657616 -0.1755276 2.0370755
0.49676383 -0.036142327 1.8468155
0.47939727 -0.31650978 1.947872
0.78408283 0.18470025 2.2151179
0.76372921 0.090850875 2.2067304
0.43000582 -0.053241398 1.8948758
0.36617658 -0.042566005 1.9307469
0.41787568 -0.16008826 1.9816846
0.66473645 -0.22914807 2.1972518
0.65131545 -0.093951799 1.8841296
0.46649244 -0.14644319 2.0127778
0.43716225 -0.15671253 2.0569193
0.75399733 0.14144897 2.255049
0.75281703 0.13262032 2.2575049
0.35252833 0.37539598 1.7031906
0.33248231 0.37697455 1.6988454
0.40934816 -0.05792385 1.9274863
0.38608503 -0.13516453 2.0176029
0.35176936 -0.13016601 2.0369
0.60825473 -0.24442902 2.2170591
0.43871921 -0.16565607 1.9693745
0.47629693 -0.073465787 1.8964131
0.44352329 -0.081500411 1.9513421
0.46183297 -0.15480912 2.0687809
0.5653047 -0.16522598 1.9898564
0.45508501 -0.14556949 2.0160921
0.47372547 -0.15750192 2.0313139
0.48963341 -0.16991955 2.0261288
0.55637753 -0.1687886 1.993933
0.45044109 -0.16332355 2.0465477
0.45000955 -0.1373768 1.9948061
0.49150863 -0.089482181 1.9211385
0.66599327 -0.039359231 1.824831
0.48008582 -0.17999291 2.0252581
0.57530743 -0.2475864 2.2500043
0.7646628 -0.024331249 2.125217
0.624704 -0.054874379 1.8652387
0.70827526 0.075968519 2.3150773
0.72589111 0.066260286 2.2904949
0.39309347 -0.062242534 1.9260948
0.6526072 -0.11351174 1.9089329
0.5935635 -0.12398496 1.9573674
0.61069947 -0.10872823 1.9076892
0.35990205 -0.31316367 1.8910003
0.36661127 -0.3142713 1.8870296
0.56590927 0.35944432 1.8156048
0.52067858 -0.14651185 2.0589345
0.56268752 -0.12085975 2.0093594
0.68193734 -0.14349599 1.9806057
0.308723 0.40775186 1.6702458
0.50855517 0.11557095 1.8438591
0.57905024 -0.054354183 1.850008
0.28671703 0.40884227 1.654678
0.49458402 0.37429315 1.6882565
0.31362736 0.35598466 1.7243419
0.59309363 -0.14628603 1.9397004
0.62533808 -0.054245915 1.864064
0.25218767 0.42624602 1.638997
0.2772733 0.38378152 1.6885149
0.23033863 0.37915048 1.7160093
0.20787346 0.40291286 1.6833115
0.66330218 -0.15439953 2.0591216
0.67128986 -0.10197579 1.9127963
0.43434331 -0.30435395 1.9315782
0.70158201 -0.11454782 1.9268403
0.3941305 -0.33970553 1.8674232
0.65750045 -0.034885943 1.8426818
0.84223974 0.01513636 1.9650819
0.50684363 -0.10413463 1.923777
0.33778697 0.23605415 1.8165259
0.34781042 0.25108373 1.8367352
0.31398082 0.25568983 1.8286924
0.62280613 -0.10683426 1.915706
0.54297167 -0.12157029 1.9252301
0.58473891 -0.13481404 1.96438
0.60363752 -0.061033022 1.8747786
0.72074121 -0.10205118 1.9425826
0.64069617 -0.13833947 1.96706
0.62383789 -0.11674021 1.946113
0.6976878 -0.07928057 1.9235164
0.80167109 0.18343385 2.1655352
0.40641019 -0.33154675 1.8832933
-0.32929072 0.36505148 1.7963142
0.45078951 -0.31602651 1.9638433
0.80259699 -0.10786913 1.9568435
0.49067783 -0.0030893215 1.7938595
0.67156649 -0.13765199 1.9398878
0.65824902 -0.1324231 2.013916
0.40431523 -0.066891894 1.9238739
0.54831392 -0.060906585 1.8931615
0.56657195 -0.057643317 1.86385
0.7917558 0.013264151 2.0793474
0.47756025 0.36104873 1.7731454
0.58651906 -0.071319252 1.9374045
0.45843771 -0.081584349 1.9270709
0.72489494 -0.083817638 1.9194663
0.65931433 -0.082025565 2.3240325
0.73793018 0.12460959 2.3154786
0.41101834 -0.10256371 1.9996538
0.74997717 -0.085743569 1.9079654
0.72545487 -0.076658309 1.9096835
0.61038721 -0.14458646 1.9911256
0.65611893 -0.094655871 1.9032884
0.46890798 0.22641861 1.859742
0.26286098 0.40068036 1.6577767
0.24604823 0.41408768 1.6424026
0.35871845 -0.34199691 1.8879617
0.52921331 -0.12615339 1.9180344
0.49268657 -0.046049159 1.8601934
0.58521187 -0.15440568 1.9943757
0.46308118 -0.2944881 1.9437557
0.51462549 -0.068540201 1.9119133
0.36831793 -0.34227997 1.8979831
0.50865185 -0.23913202 1.9989358
0.37921581 -0.34002429 1.8895743
0.45502546 -0.29493377 1.9543267
0.48644108 -0.059036691 1.89256
0.63306987 -0.23221141 2.2330408
0.60790712 -0.14286505 1.9121872
0.48621029 0.34855098 1.759051
0.73306245 0.090297766 2.248215
0.48317835 -0.30155495 1.9552491
0.5797199 -0.13747326 1.9296855
0.79547882 0.15059131 2.1652303
0.64230895 -0.24047044 2.2323561
0.45605558 -0.083957598 1.9409673
0.47722012 -0.16922417 2.0549841
0.38408691 0.2290372 1.8818346
0.49083698 -0.17811273 2.0354924
0.37301776 -0.075553581 1.9757714
0.26817474 0.36457559 1.7258754
0.74760646 0.14093009 2.277638
0.5422135 -0.11216458 1.8949974
0.44159314 0.044281423 1.8030314
0.52598101 -0.11592557 1.9095263
0.57672232 0.36050254 1.8167039
0.47775748 0.23235469 1.8788499
0.69006503 -0.10002455 1.9025869
0.50602096 -0.3355757 2.2874582
0.75120229 -0.08672493 1.9092827
0.73543364 0.12044124 2.3102303
0.71925467 0.037996035 2.2878397
0.66918606 0.058307435 2.3562346
0.56629759 -0.2893399 2.2532449
0.72805083 0.12530853 2.326077
0.62433344 -0.10913767 1.8956262
0.31982452 0.14774314 1.8696668
0.71806711 -0.089478746 1.9099504
0.65461361 -0.08483211 2.3369989
0.33511209 0.16287306 1.8917439
0.29169703 0.19329849 1.897525
0.7988984 -0.10111699 1.9456974
0.29768762 0.28238571 1.9789597
0.25340411 0.16263923 1.8194436
0.062781535 0.22604056 1.9108074
0.19966877 0.18294713 1.8481863
0.26889157 0.16760434 1.8185549
0.71017689 -0.16304992 2.1475403
0.43486038 -0.2981903 1.9339092
0.47358066 -0.044274416 1.8786868
0.66186309 -0.061653618 1.8485736
0.74856001 -0.054878294 2.1212666
0.66692907 -0.053683441 1.8522917
0.25361919 0.35857946 1.7368499
0.20058739 0.39117736 1.6942661
0.18512635 0.39552799 1.6820774
0.7203725 -0.10155693 1.9438024
0.19961725 0.37822142 1.6904372
0.84145057 -0.054028142 1.9043396
0.17760934 0.37301213 1.6986194
0.1227433 0.3955265 1.674454
0.35002935 0.098605119 1.786317
0.64218742 -0.030729285 1.8260522
0.3600001 0.25724483 1.8386867
0.6831367 -0.15751697 2.0430791
0.11353759 -0.23558857 1.9318237
0.33973813 -0.12496098 2.0506618
0.31102198 0.1167139 1.7897311
0.3286984 0.14330034 1.791366
0.5302394 0.5006873 2.0325832
0.34115756 0.1418027 1.7822905
0.78486413 0.34235308 2.6862111
0.75823379 0.36125752 2.7323897
0.74844408 0.37086654 2.7048986
0.71913469 -0.16385993 2.1326101
0.77231497 0.35180748 2.7370212
0.77740663 0.35083714 2.7357261
0.5570786 -0.15402272 1.969527
0.76873899 0.37330782 2.7507901
0.77272719 0.35318434 2.7369502
0.5069164 0.049732037 1.7805613
0.76119131 0.35583416 2.7735317
0.76447618 0.35652953 2.7893329
0.61225134 -0.14776653 1.9862607
0.76520646 0.37187874 2.7854369
0.68230784 0.40983489 2.6676316
0.71545666 0.41361606 2.6673939
0.69468695 0.42965123 2.6646116
-0.31672633 0.35191223 1.8089943
0.74888408 -0.087429471 1.8886529
0.66910011 -0.14865117 2.0398271
0.60826588 0.30922309 2.8703487
0.680049 -0.10455134 1.9081681
0.67588174 -0.12071765 1.9416009
0.66555595 -0.035212439 1.8157604
-0.16514382 0.3214215 1.8364428
0.80085939 -0.04475227 2.0252285
-0.28700933 0.32121915 1.7241274
0.79038846 -0.055282522 2.0247457
0.6098845 -0.007754948 1.8029786
0.58010608 0.0017637872 1.805364
0.70351607 -0.11623468 1.9251902
0.71111465 -0.08579424 1.9109955
0.67432332 -0.079640798 1.8635107
-0.20344937 0.32771063 1.7847263
-0.27451134 -0.64464378 3.170136
0.50896788 -0.10591657 1.9138943
0.52574831 0.29601574 1.8765595
0.47049487 -0.32568264 1.9918035
0.56227589 -0.003423495 1.8252556
0.45901772 -0.28965929 1.9840952
0.48410755 -0.071059786 1.9272107
0.51398915 -0.063812725 1.9173326
0.46362796 -0.29352954 1.9446061
0.48845434 -0.032713253 1.8520684
0.77881235 -0.048496425 2.086705
0.4454762 -0.32933408 1.9216144
0.55788785 -0.45641324 2.1576521
0.75250548 -0.0075992444 2.1599464
0.36250272 -0.059979238 1.9421718
0.78619862 0.034591701 2.0891778
-0.015108876 0.42801887 1.7661393
0.65343821 -0.092674866 1.8877379
0.84989828 -0.064739361 1.8821354
0.83934981 0.23751859 2.146096
0.7450524 0.49344203 2.7300396
0.6132918 -0.12079415 1.9559251
0.78309911 -0.067478307 2.0519347
0.70660615 0.25260729 2.8028753
0.72709119 0.23482171 2.7773268
0.64295173 -0.086135775 1.8832114
0.61094153 -0.064321265 1.8693022
0.65633261 -0.10529425 1.9219912
0.63963652 -0.11343194 1.9465535
0.62488294 -0.11719385 1.9251752
0.67530715 -0.086629495 1.8638606
0.78923577 -0.10662783 1.8629858
0.81164378 0.019761031 2.0554328
0.54226428 -0.14989813 1.9815785
0.42452815 0.040360559 1.8200946
0.78422785 0.13124558 2.172358
0.5631969 0.35801756 2.8965096
0.77355295 -0.033697516 2.0582433
0.59748006 -0.089074977 1.8946522
0.49881864 0.38494322 1.6780679
0.62666601 -0.054292753 1.862288
0.70198709 -0.12047051 1.9300957
0.66337645 -0.13795102 1.9889673
0.80434966 -0.046000745 2.0326841
0.57359779 -0.070892848 1.8816097
-0.30897808 0.35788023 1.8120308
0.58575159 -0.1420652 1.9854245
0.78433549 -0.0033373416 2.0731556
0.6768806 -0.083086118 1.8601007
0.79798889 -0.034005683 2.0489004
0.50446588 0.37450367 1.7051105
0.66451472 -0.1305052 1.9448519
0.79869074 0.17233974 2.1666379
0.77288288 0.12076161 2.1751547
0.64564967 -0.089061022 1.8840704
0.35081539 -0.31812194 1.8981009
0.5025779 -0.22016913 2.027456
0.55005896 -0.11761121 1.9204649
-0.11094666 -0.36843544 3.1027863
0.74560243 -0.086540885 1.9139268
-0.22933671 -0.63382578 3.153012
-0.15347835 -0.39269662 3.1300626
0.47724479 -0.31869391 1.9402715
0.25111699 0.15386699 1.8174325
0.36935845 -0.1283818 2.0243928
0.34503201 -0.071787715 1.9757975
0.37740421 -0.042689275 1.9194319
-0.21186785 0.3534528 1.7451032
-0.15011802 0.32330045 1.8416576
0.70238787 -0.11281947 1.9237758
0.70434642 0.28808734 2.8083248
0.63785326 0.3275843 2.9061189
0.66265881 0.32474521 2.8694775
0.59494394 0.33138964 3.1872747
-0.22448976 -0.56461596 3.1775761
-0.35084876 -0.60626912 3.308753
0.4856787 -0.21489517 2.0314941
0.47974664 -0.077834956 1.922104
0.50228959 -0.20620357 2.018945
0.62845743 -0.16318737 2.0633171
0.12193405 0.32832208 1.8731318
0.32863188 -0.076921634 2.0275874
0.71849686 0.41270152 2.6697302
0.46527976 -0.17917319 2.0426369
0.82622802 0.28595871 2.1842752
0.46642026 -0.29121527 1.9657264
0.47168216 -0.064096086 1.9176666
0.33738354 -0.3278887 1.8981138
-0.034391619 -0.56783283 2.9640415
0.62318373 -0.14945091 1.9255327
0.069843709 -0.37269562 2.8634322
0.52681708 -0.13485077 1.9338522
0.48784021 -0.15780118 1.973147
0.41029599 0.2561551 1.8959197
0.72199267 0.076696083 2.2852254
0.25946194 0.17671731 1.8258145
0.67582822 -0.11940835 1.9222311
0.14799049 0.31637099 1.8561127
0.74882656 0.41555026 2.7143266
0.51439577 -0.15881734 2.0118999
0.3609823 -0.071897827 1.9697403
0.6950618 0.46207827 2.693666
0.29759547 0.40861112 1.6781695
0.32860318 0.32856107 1.7543288
0.53432059 0.28819269 1.8770427
0.46168849 -0.28974584 1.9504938
0.60509443 -0.14244212 1.949639
0.70012909 0.42864931 2.6574218
0.22243288 0.3962653 1.6742766
0.21765181 0.40570956 1.6667291
0.23558557 0.43699774 1.6449361
0.34319532 0.31895033 1.7878025
0.088984385 0.38919532 1.7327691
-0.14566587 0.31322867 1.8353009
0.050107714 0.36185542 1.7754469
-0.3150644 0.35677049 1.7823282
0.011689387 0.36034009 1.7690603
0.51398754 -0.059861004 1.8719898
0.67099422 0.42783546 2.6530521
0.22847201 0.24949439 1.8714511
0.51868975 0.53079265 2.0544369
0.52198803 0.52701497 2.052104
-3.3542583 -1.3385199 6.7834911
-2.3355355 -1.1240118 5.7493787
-0.78183842 -1.278481 6.2812309
-1.7788767 -1.4004992 6.7017441
-1.5816116 -1.3358177 6.3777132
-1.3976139 -1.335834 5.9486217
-1.4857421 -1.3064717 6.2264862
-0.37911496 -1.4252588 5.7703524
-1.0238621 -1.4481127 6.3729682
-1.0649803 -1.4772562 6.4697342
0.79103583 0.12467126 2.1676154
-1.2450441 -1.5347193 6.701745
-1.3883028 -2.0758555 5.9119864
-1.4652742 -2.02966 5.8843598
-0.92511261 -1.474968 6.3959904
-2.0175872 -1.5559978 7.1133208
-1.8231722 -1.5510671 6.9188972
-1.8856622 -1.5029585 6.9966078
-1.6191808 -1.3531272 6.4367366
-2.486069 -1.7759578 8.033844
0.32022232 0.3459335 1.7912934
0.23977387 0.41463304 1.6477678
