# .PCD v0.7 - Point Cloud Data file format
VERSION 0.7
FIELDS x y z
SIZE 4 4 4
TYPE F F F
COUNT 1 1 1
WIDTH 546
HEIGHT 1
VIEWPOINT 0 0 0 1 0 0 0
POINTS 546
DATA ascii
0.22246641 0.49133116 1.5233247
0.37517005 -0.099725746 1.7769185
0.59596962 -0.002514469 1.7386461
0.37897739 -0.20125046 1.7366433
0.54400486 -0.082981773 1.8905393
0.65350884 0.22919136 2.035301
0.71834099 0.031876717 1.6642396
0.72190344 0.032688607 1.6649584
0.27679569 -0.25094962 1.6792321
0.72440606 0.048206959 1.6742077
0.38617218 -0.23281841 1.7632091
0.70647675 0.055157065 1.6616434
0.27208206 -0.2372015 1.6816564
0.40820637 -0.057757966 1.8168215
0.38102147 -0.11225125 1.8159709
0.18660086 -0.12027674 1.5344694
0.41606891 0.40300903 1.6726359
0.69430673 0.47230405 2.5302975
0.4028807 0.37684318 1.6695216
0.16973577 -0.10370588 1.532825
0.17918693 0.40938559 1.6140124
0.3750031 -0.23736815 1.7829906
0.080009885 0.44087654 1.5680339
0.43012702 0.45549425 1.62995
0.38934362 0.38298863 1.6875104
0.39027518 0.38056791 1.6885737
0.39205971 0.38361371 1.6851531
0.42996794 0.45659989 1.6290935
0.61421627 -0.032191474 1.7407458
0.40665719 0.40438461 1.6834731
-0.12863104 0.43944779 1.6369053
0.68832445 -0.010683618 1.7480726
0.36677223 -0.20259756 1.7813345
0.47878456 -0.033832286 1.7435852
0.3869437 -0.23580211 1.7656955
0.57843041 -0.021438638 1.7482055
0.7095747 0.061602965 1.6723545
0.40336633 -0.030583655 1.7495759
0.26338923 0.34057748 1.6674025
0.41922724 0.43554172 1.6432499
0.42261556 0.43356413 1.6397823
0.11457156 0.44967744 1.5339564
0.34098673 -0.22762039 1.751298
0.61943483 0.63259798 2.4701271
0.57614529 0.41734043 2.987745
0.38816324 0.13749775 1.5750457
0.35947433 -0.20305055 1.7825278
0.18331712 0.42570245 1.5688552
0.16310124 0.41000488 1.6227446
0.70060873 0.057714693 1.672906
0.37673151 -0.092036285 1.8606864
0.5423876 -0.015628224 1.6886238
0.68642491 0.48750666 2.5317411
0.49095777 -0.0094847661 1.722032
0.61897856 0.4497636 2.3567097
-0.14229624 0.39791796 1.6842823
-0.25734633 0.43508646 1.6562521
0.56704932 -0.0074821659 1.7040958
0.53456312 -0.06937056 1.8426155
0.40691724 0.37899309 1.6712357
0.62586617 0.53359842 2.4975433
0.53172874 -0.070885815 1.848683
0.34145978 -0.24003547 1.7240831
0.1841087 0.30891293 1.6359482
0.48447606 -0.063434817 1.7925251
0.33631241 -0.22711794 1.7529185
0.583058 -0.029260591 1.7481557
0.57689995 0.02509811 1.6922884
0.54414552 -0.0016506762 1.6903691
0.71802378 0.48721418 2.5206847
0.48475778 -0.0093173161 1.7049336
0.66618603 0.51418102 2.5038555
0.67698693 0.53496796 2.6569853
0.6822781 0.54537463 2.6514673
0.54530734 0.015358255 1.656903
0.65273124 0.52529073 2.4731686
0.42731014 0.46568081 1.6295458
0.33005261 -0.24178334 1.7387253
0.49546105 0.0030149997 1.6823744
0.59158313 -0.032043699 1.7401167
0.45923829 0.031451624 1.6513988
0.60605311 -0.0044481256 1.7278216
0.66458398 0.04996258 1.8748642
0.22104585 0.1842398 1.6002903
0.21410798 0.1883124 1.6004392
0.51534528 -0.028233625 1.7365204
0.70293611 0.37052831 1.9819787
0.66112965 0.11885593 1.8996576
0.39496398 0.13628261 1.5714219
0.32966968 -0.21514827 1.738368
0.70607942 0.0093500568 1.7076861
0.44123229 0.42337996 1.6095816
0.44449022 0.016101742 1.6911162
0.45060226 0.016147297 1.6907762
0.6929242 0.44758794 2.4962506
0.70946443 0.44781041 2.5006387
0.67060196 0.48689282 2.462559
0.51296753 -0.032773208 1.668694
0.46670306 -0.0070828302 1.7333927
0.12646627 0.33703312 1.6585245
-0.0023614268 0.40542465 1.677663
0.62320954 0.52058905 2.4598212
0.37851566 0.052816346 1.6624322
0.53803462 -0.045842547 1.7481195
0.51948822 0.059030883 1.6567502
0.51365417 -0.0069997311 1.6914115
0.54994589 -0.04514306 1.7231109
0.44267699 0.035366863 1.6854517
-0.090833947 0.43836764 1.6229002
-0.13571344 0.39890748 1.6809087
0.67852026 0.47310239 2.6352413
0.49540284 0.0027740218 1.679023
0.33381164 -0.2156658 1.7334961
0.55615443 -0.063240595 1.850107
0.51022696 0.0024563058 1.6438907
0.17395581 0.42194545 1.5857332
0.37046999 -0.23758543 1.7656001
0.2926845 -0.24186727 1.6905284
0.25244021 0.35879642 1.6696336
0.21145681 0.47619858 1.5173212
0.2585685 -0.2371223 1.6890852
0.46976864 -0.05218935 1.7361528
0.2315606 0.48381862 1.5204803
0.50369292 -0.016456263 1.6902393
0.25815308 0.32689464 1.6391106
0.69337004 0.051815998 1.7995256
0.35714373 0.12533666 1.5708992
0.4986077 -0.0155476 1.7218225
0.60031968 -0.0055747768 1.7507837
0.5249961 -0.059888087 1.7932363
0.69832009 0.030660702 1.7791773
0.18391414 0.42637774 1.5721663
0.17806859 0.42272258 1.5865052
0.54002249 -0.010943238 1.7188989
0.39756107 0.026769347 1.7069352
0.620058 -0.020628478 1.7442536
0.58915526 0.011366434 1.7030497
0.48722583 0.032296885 1.6632242
0.48579666 -0.061998211 1.8017164
0.028981453 0.46385437 1.5589205
0.72376251 0.038901739 1.6580896
0.52294624 -0.033321518 1.7612607
0.62573087 0.48611096 2.4319277
0.66455752 0.52408165 2.4526761
0.23613779 0.34946927 1.6588341
0.49205238 -0.021125339 1.6967118
0.41606393 -0.033621226 1.7140076
0.51192927 -0.047390331 1.7546402
0.36376292 -0.20730025 1.7675201
0.35682535 -0.20285587 1.7580529
0.30541468 -0.045491174 1.8236086
0.50548333 -0.1461257 1.9982297
0.29038799 0.039708164 1.7185099
0.25923887 -0.066480063 1.8309777
0.32148096 0.022571094 1.7405863
0.30337098 0.026887642 1.7550274
0.68637985 0.064009212 1.8257686
0.29908544 0.039838713 1.7131473
0.48979664 0.086455688 1.5890061
0.42253461 0.039968699 1.6847092
0.31010368 0.035858955 1.7045901
0.39833111 -0.11511549 1.8201224
0.24932294 0.044360403 1.7459216
0.57492071 -0.13559668 1.9837815
0.53073519 0.0017440619 1.6744454
0.50642765 0.0047651352 1.7262287
0.18741859 0.4214139 1.5797584
0.51370567 -0.020502759 1.7409778
0.14563484 0.45041645 1.5440133
0.37160161 -0.065709762 1.8671994
0.1381402 0.4601213 1.5666655
0.20422436 0.46361825 1.5249027
0.51535237 0.022178175 1.6090035
0.18384179 0.46464455 1.5223118
0.27926806 -0.048332926 1.829743
0.52349383 -0.007387579 1.726492
0.24661346 -0.044502903 1.8519678
0.4138594 0.40065283 1.6751999
0.35980025 -0.10121378 1.8615872
0.32840019 -0.076866865 1.7768477
0.32923377 0.0075403256 1.759379
0.36836445 -0.068204768 1.8356376
0.384114 -0.080107249 1.8289722
0.42403179 0.013185394 1.6876711
0.48689744 -0.15300539 2.0504775
0.44777778 -0.076752931 1.7911793
0.4836911 -0.051328022 1.7198212
0.37464735 0.001219729 1.725083
0.53868991 0.057234045 1.6146984
0.5014931 0.040180162 1.6583318
0.53471506 -0.017974939 1.6988336
0.48038471 -0.030576339 1.7520422
0.49273676 -0.014411782 1.701244
0.42686179 0.45299527 1.6184045
0.41718972 -0.05607285 1.8592423
0.37912571 0.2073192 1.6488438
0.34443954 0.46680409 1.4978172
0.46287706 0.081891134 1.6005254
0.08353553 0.46368271 1.5482037
0.32473868 -0.21531469 1.7380714
0.58505976 -0.017723646 1.7124581
0.28017345 -0.2512958 1.6772277
0.53164208 0.061308041 1.6332595
0.20327489 0.32296768 1.6375742
0.34354186 -0.22748734 1.7462178
0.21456936 0.33811623 1.6570095
0.50542998 -0.012230388 1.7082117
0.472509 -0.041717324 1.7596692
0.60513973 -0.0048019351 1.7266315
0.52856678 -0.043623071 1.7574972
0.50935853 -0.022354033 1.7383091
0.29353687 -0.24291265 1.6920722
0.33275834 -0.21463282 1.7356138
0.34422851 -0.22676773 1.7686777
0.688052 -0.008336137 1.7337487
0.36039653 0.088605247 1.5992854
0.55694997 -0.041805323 1.727784
0.28740546 0.021220868 1.7355376
0.42799476 0.031679582 1.6926428
0.48574907 -0.051290404 1.7528479
0.33517447 0.45236176 1.5837064
0.49047768 -0.044483755 1.7647871
0.52856213 -0.017483028 1.7246546
0.6532917 -0.034862354 1.8117403
0.42082226 -0.070292383 1.8447099
0.30162385 -0.014867279 1.8100727
0.63080913 0.012642631 1.6898103
0.51916099 0.014071389 1.6767834
0.60627705 0.020990573 1.6937251
0.50063342 -0.0509555 1.7840071
0.55554056 -0.023693977 1.7352297
0.68588835 0.0012580006 1.7364125
0.46464324 -0.053662859 1.7555028
0.53468907 0.00988073 1.6527975
0.69493008 0.0083433716 1.7262799
0.61978072 -0.073582485 1.8879515
0.41297403 -0.034303419 1.7183578
0.50094402 -0.026994305 1.746228
0.35802096 0.045270737 1.6770484
0.35052323 -0.034604598 1.7784709
0.47612157 -0.061535124 1.7893002
0.35412577 -0.20471215 1.7478427
0.34702644 -0.20548156 1.7590609
0.29857719 -0.22490758 1.8038125
0.342931 0.44024044 1.5687872
0.37399343 0.039411359 1.6841594
0.34089085 0.0055378135 1.7479408
0.51933092 -0.039782796 1.7595667
0.43402857 0.037832741 1.6682874
0.49367943 -0.044326268 1.7371341
0.37421727 -0.080015741 1.8587923
0.25520861 0.31676877 1.6985873
0.20834175 0.33962816 1.736624
0.26095355 0.011214728 1.7898338
0.42353794 -0.01974868 1.6944422
0.31095454 0.13443898 1.6131482
0.49488232 -0.017232077 1.7524242
0.40873086 -0.024104433 1.7102695
0.3481414 0.32285532 1.687608
0.2668291 0.36109143 1.751012
0.63217062 0.011686698 1.6910069
0.33581746 0.32469657 1.6941365
0.30822507 0.33498639 1.71427
0.62940508 0.13226916 2.0722332
0.42185467 0.046621941 1.6670617
0.50528717 -0.014321177 1.6880512
0.19247937 0.23372975 1.6911045
0.50071841 0.01866311 1.717063
0.67597806 0.064732015 1.8441172
0.15166351 0.28988859 1.7626094
0.16556925 0.27820808 1.7217647
0.44827947 0.034436956 1.6870723
0.3689476 0.19136374 1.5824473
0.68321633 -0.0016029867 1.723035
0.17601065 0.36675316 1.8033414
0.55577534 0.014540542 1.6456746
0.21581626 0.19377193 1.5843551
0.63654268 0.014169414 1.6837708
0.12158287 0.24708904 1.6469326
-0.062191263 0.30411431 1.7550031
0.069965988 0.26557362 1.6803998
0.13678849 0.25251323 1.6447712
0.61400914 -0.067784309 1.9310689
0.32527879 -0.20915812 1.7404158
0.35184908 0.046233557 1.6848177
0.44040498 0.015061832 1.6928928
0.53725684 0.034631748 1.6384659
0.54239506 0.042715844 1.6418211
0.11201833 0.4425804 1.548237
0.68364513 0.04175996 1.7996368
0.60486358 -0.0043288493 1.7278836
0.72068948 0.04705485 1.6786875
0.21678101 0.18619221 1.6049436
0.57792592 -0.062178966 1.8293805
0.1777126 0.2031208 1.6118894
0.20636828 0.22914313 1.6021602
0.72038287 0.43509948 2.4667637
0.68831491 0.041698255 1.7140609
0.69730091 0.45283097 2.5152593
0.56649727 -0.0061590527 1.7025976
0.71697897 0.44294974 2.516825
0.61910826 0.54070413 2.414314
0.5021615 -0.054039042 1.778966
0.68572646 0.059201822 1.8085821
0.3603057 0.123557 1.5756954
0.36034632 0.051425904 1.6688496
0.62623006 0.51989311 2.4539294
0.56341457 -0.053701732 1.8274416
0.56172258 -0.0082079284 1.6958125
0.56091255 -0.024766568 1.7293031
0.53469294 -0.016844431 1.7417512
0.53735507 0.061441433 1.6057441
0.48003 0.087360404 1.598086
0.51869428 -0.0090713566 1.7208476
0.58689177 -0.019339323 1.7106301
0.63289487 0.015284576 1.6601514
0.46122324 0.036559168 1.6905969
0.59236926 0.011427618 1.6961647
0.61818093 0.028034767 1.6925033
0.56264853 0.0052790185 1.6595911
0.4970437 0.040506884 1.6608765
0.39187893 -0.014635072 1.7161897
0.36653584 -0.23607396 1.7947371
0.4344129 0.090109251 1.6244135
0.35341582 -0.20033975 1.7884319
0.51471508 -0.051918209 1.6811845
0.36403954 0.058446433 1.657147
0.33567923 -0.23987414 1.7269197
0.72749513 0.036780655 1.6557256
0.68020552 0.58458722 2.5154769
0.49981654 -0.026796725 1.7489461
0.67567366 0.030674595 1.8305933
0.68917465 0.35281998 2.5513785
0.48840651 0.030300491 1.6634594
0.53931564 -0.009760513 1.7116117
0.52503574 -0.018587843 1.7374274
0.50860894 -0.022602933 1.7173553
0.55267364 0.0099345893 1.6522717
0.53638619 -0.043754797 1.7684389
0.2955412 0.12987798 1.6315701
0.57918823 -0.0097700432 1.6912768
0.4820106 0.03515343 1.6674609
0.47788909 0.0049531208 1.6896029
0.34747577 0.47765797 1.4874183
0.55302924 -0.042751901 1.7773794
0.45246395 0.022535058 1.6788559
0.41998124 -0.0074606887 1.6947099
0.52762407 -0.024657013 1.6926119
0.69558382 0.015198694 1.7215345
0.70341456 0.037097696 1.7004431
0.43080214 -0.041969951 1.7324808
0.55015117 -0.034909785 1.733412
0.68263888 0.089555547 1.8424988
0.57466024 -0.030732784 1.7398853
0.43766823 0.044841673 1.660868
0.5249483 0.006466974 1.6749254
0.35942313 0.060961183 1.6598557
0.64793777 -0.10255319 1.851603
0.54409492 -0.061028268 1.8606751
0.35340622 0.012069299 1.7371911
0.46277353 0.03920323 1.6735821
0.60709989 -0.066719867 1.9378105
0.38192579 0.013376357 1.6960459
0.23895732 0.30191582 1.6273265
0.19561321 0.43784869 1.5636412
0.16880667 0.44280082 1.5465676
0.43531424 -0.068755105 1.8332062
0.39855105 -0.12996508 1.8286408
0.2538946 0.34677359 1.6749191
0.25006634 0.33235747 1.6857214
0.63423187 -0.067443803 1.8595771
0.51901817 -0.051141996 1.7644044
0.36085176 0.43691108 1.5655179
0.62698859 0.011667932 1.6961163
0.1193819 0.23827055 1.6450307
0.23907079 0.1864548 1.5661262
0.17829533 0.27900222 1.7467895
0.63380092 -0.061437961 1.8535819
0.076666981 -0.1237751 1.6005497
0.23297814 0.014158274 1.792303
0.25953326 0.044660293 1.7336839
0.63070428 0.52588296 2.380362
0.39403304 0.052790355 1.6730652
0.65286535 0.50246179 2.4564402
0.40305015 0.052077048 1.6641095
0.51511031 -0.047523592 1.8005182
0.60279208 -0.027688455 1.7305791
0.60629869 0.026234524 1.7031324
0.47278458 -0.053931221 1.7453998
0.70543915 0.52069622 2.5878665
0.41177768 0.047192268 1.6596581
-0.28293961 0.39566255 1.70544
0.70618105 0.078391202 1.8189782
0.58554918 -0.015947023 1.7093546
0.65226048 0.37748444 2.5947459
0.59333879 0.41420168 2.6983082
0.61496717 0.41239542 2.6596439
0.61713254 0.010800184 1.7073969
0.61517054 -0.0044763046 1.7030898
0.53137535 0.013596768 1.6685457
0.69346374 -0.010557793 1.7378759
0.38191909 -0.12522249 1.8341713
0.39713302 -0.11594377 1.8203371
0.52537668 -0.069617651 1.8541757
0.34806123 0.0014396375 1.7356497
0.37741297 -0.092913978 1.8614936
0.32456318 -0.24412073 1.7536681
0.49816892 -0.14923799 2.0383852
0.49592805 -0.14790562 1.9937717
-0.0094415704 0.40839523 1.7134948
0.2837131 -0.048770808 1.8227026
0.25858194 -0.049406778 1.8415474
0.22125234 0.0081158495 1.8452511
0.36154619 -0.090207592 1.847409
0.18636903 0.46236241 1.5200802
0.21548076 0.44867602 1.5372704
0.71995306 0.38411263 1.9625504
0.35388035 0.026041692 1.7236003
0.56969213 -0.042638998 1.7747856
0.24462232 -0.23864864 1.6919749
0.22596705 -0.24140282 1.7128025
0.20409593 -0.26360902 1.7525231
0.69563073 0.2441313 1.9236441
0.5078665 -0.054897793 1.7175092
0.34563962 0.12943071 1.6908913
0.4121978 -0.043198377 1.734228
0.4304913 -0.021843078 1.7253224
0.42794812 0.38954958 1.6612146
0.49795267 -0.058135614 1.8343484
0.45979089 -0.055505399 1.8838018
0.60074079 -0.084948406 1.9624825
0.32448709 -0.072584912 1.7864256
0.12351878 0.4492929 1.5470339
0.67594105 0.24036224 1.9820499
0.60271817 0.0055951481 1.6929138
0.24114615 0.37197039 1.7050674
0.36687899 -0.0047694049 1.728319
0.38970262 -0.057788964 1.7770424
0.35532138 0.32077256 1.6811088
0.66965663 0.22508539 2.0095031
0.24028711 0.37233257 1.7532533
0.63654304 0.21800664 2.06934
0.33336514 -0.24797928 1.7771732
0.2429491 0.37027302 1.7510958
0.34290871 -0.24930611 1.7893084
0.30398142 -0.017599737 1.7988955
0.30678442 -0.01946988 1.8008794
0.28175014 0.3445254 1.7106622
0.630804 0.17105322 2.0698116
0.48390377 -0.1946539 2.0413306
0.62329888 0.13579856 2.0834937
0.12776332 0.26128525 1.6529115
0.086241767 0.28266063 1.6761341
0.55915368 -0.023298569 1.7100246
0.24207588 0.32411328 1.7166163
0.015382148 0.39735484 1.6941736
0.2303476 -0.04432793 1.8742244
0.53687263 -0.01930912 1.7290108
0.28047284 0.0090361349 1.759931
0.66769427 0.49905512 2.4695547
0.71304291 0.45098019 2.4476707
0.68507844 0.49401301 2.57602
0.68021458 0.57800639 2.5057726
0.1448407 0.4617734 1.5188816
0.46762791 -0.36034018 1.8951385
0.32297722 -0.06299369 1.7752101
0.38346899 -0.043988932 1.7560416
0.37362736 -0.075110361 1.8602324
0.24834409 0.014566077 1.784898
0.62818187 0.55207473 2.4831927
0.65732956 0.43566611 2.504312
0.1567999 0.49633941 1.4915942
0.1571063 0.47733822 1.4979126
0.19725314 0.43915248 1.5618466
0.18613656 0.41567901 1.5773975
0.20019941 0.44310948 1.5870275
0.35738721 -0.078654841 1.7503388
0.086526573 0.43954092 1.5694671
0.40272477 0.38034046 1.6815544
0.49172831 -0.048622742 1.7431536
0.10134802 0.30800641 3.3646758
0.64546192 0.44956321 2.5408936
0.09749876 0.44941711 1.5274659
-0.056078613 0.4694401 1.5771444
0.21836825 0.47371545 1.5152582
0.22222632 0.46366081 1.5254028
0.11166725 0.45768371 1.520335
-0.11515599 0.43975255 1.6178088
0.28833854 0.0089295032 1.7600617
0.22637482 0.18911314 1.5784987
-1.3281484 -1.454801 6.5421724
-0.48405558 -1.260766 6.1653032
-1.4352403 -1.4820929 6.5272517
-0.36171576 -1.1769738 5.7564678
-0.80966175 -1.5939769 6.5235248
-0.87301004 -1.9732784 6.6401691
-0.68471801 -1.5177593 6.4953237
-1.4372892 -1.4154468 6.6685171
-1.6893098 -1.5633092 7.183691
-0.52453846 -1.2854897 6.258316
-1.1243045 -1.3333805 5.8861866
-0.53348225 -1.2919331 6.2708893
-1.6067703 -1.5737926 6.8287444
-0.73630607 -1.4730142 6.3796992
-2.0111632 -1.7686776 7.6561747
-0.81963784 -1.8873479 6.4980268
-0.71234745 -1.4381754 6.2756429
0.60042751 -0.031829163 1.7480332
0.042162005 -1.3224307 6.14818
-0.36353686 -2.2412479 6.8774829
-0.2838859 -2.1324797 6.5529108
-0.74413162 -1.4693145 6.3752613
0.016918676 -1.3404742 6.2432475
-0.27132463 -1.7215463 6.6804051
-0.39587128 -2.2893538 6.999186
-0.89980239 -2.0451844 6.6931853
-0.90183365 -1.5339562 6.6212401
-0.75118762 -1.5613508 6.6904716
-1.0971034 -2.0724812 5.8408999
-1.1774529 -2.0283339 5.8204837
-0.61125714 -1.4623147 6.2898111
0.35440987 -0.2038517 1.7794551
-0.71471924 -1.4470614 6.3101649
-0.93046665 -2.0601745 6.7860475
-1.0826451 -1.7831053 7.5867677
-0.69135046 -1.8262769 6.1788626
0.054204211 -1.3218609 6.1032763
-1.3024256 -1.3612146 6.3913054
-0.59898239 -1.4619635 6.2851877
-0.78947598 -1.9050776 6.4220567
-0.57992435 -1.4420704 6.1898293
-0.6122576 -1.4075377 6.1990919
-0.82233405 -1.5504327 6.824851
-0.93305367 -1.7932661 7.1704712
-0.927517 -1.7940512 7.1893644
-1.2330848 -1.3374562 6.1811175
0.1503288 -1.440152 5.5890889
-0.7349177 -1.4737322 6.3804903
0.16150461 -1.4287653 5.5450211
0.078738049 -1.2505078 5.7585478
-0.054693393 -1.4303293 6.1407948
-0.077143371 -1.8953645 6.3326378
0.20901681 0.46009785 1.537786
-0.42124635 -1.7542641 6.9630408
-0.61538512 -1.5225214 6.202467
-0.0076520243 -1.8002502 6.0354595
