# .PCD v0.7 - Point Cloud Data file format
VERSION 0.7
FIELDS x y z
SIZE 4 4 4
TYPE F F F
COUNT 1 1 1
WIDTH 236
HEIGHT 1
VIEWPOINT 0 0 0 1 0 0 0
POINTS 236
DATA ascii
0.13930573 0.78209722 1.4120662
0.26480782 0.043331392 1.5413479
0.10913465 0.71240771 1.45839
0.11483245 0.18258828 1.4169304
0.28388059 0.053886823 1.5488931
0.12441067 0.59452492 1.5217316
0.3215279 0.055442125 1.5969889
0.57593328 0.31489465 1.5727923
0.31897995 0.081956111 1.5974547
0.47603428 0.37429282 1.4921517
0.51320308 0.26756981 1.5968195
0.14653088 0.65359992 1.5599824
0.10141695 0.70749402 1.4757943
0.19087733 0.64905548 1.551746
0.14873128 0.77542865 1.4083349
0.57207274 0.31275639 1.5960716
0.11796699 0.72670174 1.4714937
0.10550077 0.70858872 1.476283
0.36462414 0.32931957 1.5683115
0.59240258 0.29953834 1.5876551
0.5559836 0.32984564 1.5498192
0.46666226 0.24590239 1.6536255
0.49820122 0.27849099 1.6114072
0.35445136 0.091893241 1.6242281
0.44252419 0.39917466 1.4457188
0.27679509 0.33122799 1.5727082
0.12352258 0.75294644 1.4141617
0.23136589 0.2424439 1.7219156
0.35303104 0.22924361 1.6959329
0.36913309 0.21883987 1.6877701
0.34528497 0.30154711 1.5873339
0.50391459 0.29622814 1.5487659
0.41701323 0.39213705 1.4590549
0.55496657 0.30030257 1.5586338
0.15394023 0.62563109 1.5413448
0.31452826 0.39041516 1.465593
0.39338884 0.3370567 1.5519615
0.57151741 0.34106532 1.5395457
0.06687402 0.73518175 1.4370662
0.32156619 0.3452037 1.5419933
0.34316823 0.094143853 1.6054026
0.33702788 0.09252701 1.6170869
0.26659489 0.74004018 1.4469587
0.344345 0.097504891 1.60432
0.23641317 0.30060843 1.6605793
0.49783161 0.37663475 1.465609
0.51202893 0.33025095 1.4914423
0.59779269 0.33399269 1.5346451
0.16124961 0.48364028 1.4645288
0.6013878 0.33699766 1.5271829
0.31429055 0.08751411 1.599999
0.49762037 0.3502796 1.4899696
0.50233275 0.35867774 1.4931753
0.57474613 0.31491405 1.5729457
0.17171501 0.629924 1.5412341
0.49307403 0.37777331 1.4581434
0.55677807 0.29888698 1.556628
0.558649 0.33033428 1.5427206
0.51420224 0.33345509 1.5019649
0.36159021 0.062809527 1.6502963
0.38988113 0.39741507 1.4852155
0.34519967 0.097480908 1.6460456
-0.07548324 0.67566282 1.5733265
0.47375226 0.28337821 1.6010355
0.47974998 0.28902856 1.5690203
0.44489297 0.31460997 1.5444475
0.49042472 0.32034165 1.5263839
0.42589918 0.34786835 1.5306151
0.17882861 0.59227514 1.5088751
0.49729449 0.35409632 1.5157639
0.091643594 0.72877562 1.437755
0.59303272 0.33342624 1.5401207
0.5142073 0.24199003 1.6959167
0.52622634 0.29541126 1.5722288
0.51060301 0.24032916 1.7027656
0.31626606 0.2208187 1.6397064
0.25762796 0.073939584 1.5358455
0.34888542 0.33303222 1.6299361
0.42896095 0.27672124 1.5691601
0.56826144 0.3390182 1.5308787
0.49824753 0.15659933 1.8417618
0.2522679 0.73430264 1.4169388
-0.070043996 0.67586416 1.6163002
0.41356885 0.39795139 1.4660631
0.51257735 0.29040989 1.5672693
0.26907313 0.31337282 1.5917351
0.22912057 0.32499501 1.6033418
0.33256933 0.22739455 1.6616294
0.26523188 0.30300492 1.6169797
0.27352789 0.29973233 1.6099913
0.21067445 0.65912902 1.6383023
0.088386476 0.68802863 1.5267311
0.33811042 0.051356044 1.6849724
0.34475109 0.073823787 1.6697271
0.26276356 0.61511523 1.5370398
0.29996994 0.075521611 1.7259502
0.51271063 0.16281305 1.8272126
0.50005186 0.15776323 1.8519201
0.50022393 0.15924168 1.8508545
0.23239748 0.25143597 1.7101197
0.33536321 0.22118829 1.7411214
0.21728392 0.60874414 1.6099467
0.16977249 0.62130243 1.6224788
0.33368447 0.20459524 1.7508643
-0.059758823 0.10603043 1.6927999
0.10551088 0.75033873 1.4106368
0.13685152 0.73869354 1.425213
0.14799006 0.77603269 1.4027883
0.26611704 0.05192088 1.5653105
0.17278661 0.6129272 1.5125777
0.40514427 0.34833831 1.5092329
0.39516157 0.32507837 1.5440888
0.39276263 0.32923108 1.5503889
0.41126186 0.39312512 1.4647039
0.34143478 0.44105923 1.4342831
0.48011667 0.35523599 1.4983417
0.22427578 0.63627988 1.5900527
0.48337725 0.37242866 1.5093954
0.47750705 0.29552588 1.5774491
0.52948242 0.29267204 1.5579566
0.48203066 0.3788588 1.4757215
-0.045955755 0.66736633 1.5948769
0.41733733 0.33163744 1.5311265
0.49628931 0.35910639 1.4907269
0.18507695 0.63544542 1.5175264
0.3354615 0.4209317 1.4140905
0.30290598 0.23212765 1.6392074
0.35201663 0.25739005 1.6470246
0.36004063 0.25649855 1.6161952
0.51011002 0.33243167 1.5280707
0.14870103 0.5482707 1.6085794
0.48977974 0.32636324 1.5186887
0.19564255 0.60693181 1.5889269
0.33404735 0.41445422 1.442531
0.46144405 0.35443765 1.5076011
0.45870984 0.3545554 1.5096825
0.34552848 0.44167039 1.426156
0.53294379 0.26879877 1.6471373
0.1021333 0.73363149 1.4199015
0.10622483 0.73281217 1.414129
0.31327143 0.084722452 1.6030098
0.26799977 0.33789477 1.5393467
0.34741375 0.096643679 1.6126622
0.26591223 0.34722552 1.5439748
0.54791898 0.25482461 1.6787866
0.12137106 0.72712201 1.4507744
0.067093045 0.73548865 1.4378567
0.28076974 0.33179975 1.5711288
0.27998829 0.3332012 1.5715104
0.3385689 0.076137923 1.6054466
0.3429653 0.076171592 1.6001407
0.24961558 0.33827943 1.5717729
0.20744787 0.58213466 1.5112121
0.25825235 0.33907962 1.5583773
0.19991542 0.62015826 1.4901713
0.062078573 0.71742719 1.4363731
0.039980929 0.72810483 1.4483976
0.17863284 0.61920279 1.552574
0.16970296 0.65270722 1.5395081
0.019543111 0.72102135 1.4550856
0.52967572 0.22646046 1.7405266
0.0097386343 0.72304446 1.464503
0.27032238 0.31771442 1.5548867
0.31346336 0.22024348 1.6331245
0.31414264 0.24432406 1.621172
0.3209852 0.22460131 1.6187246
0.29727358 0.21402378 1.6268477
0.28283957 0.2357062 1.6437662
0.29224247 0.21090232 1.6448994
0.30755359 0.23513299 1.6406145
0.0083617764 0.71267939 1.4439203
0.011873187 0.71820879 1.4665657
0.33941483 0.68261606 1.5531636
0.40131369 0.35230646 1.5146329
0.40104401 0.33854103 1.5421689
0.47641689 0.29500422 1.6037341
0.40233949 0.34519285 1.5155214
0.15792163 0.76327962 1.3869307
0.48102692 0.28183281 1.590294
0.14753556 0.75916219 1.3946385
0.042063523 0.7218371 1.4259037
0.013790462 0.71397293 1.4650487
0.5490045 0.30967164 1.5445074
0.35065871 0.22722413 1.6685365
0.35878578 0.21713382 1.7358818
0.49518859 0.15554203 1.855378
0.57569033 0.34350011 1.5300709
0.32085323 0.31841975 1.5542517
0.30028984 0.319327 1.5812854
0.11180574 0.70908612 1.4583138
0.16684327 0.48176372 1.4626572
0.14067027 0.75742674 1.426648
0.13925724 0.76409286 1.4019653
0.31862241 0.35409269 1.5470506
0.23665084 0.74242795 1.4272386
0.35574508 0.28284541 1.5729511
0.13603441 0.76439971 1.4038033
0.13936624 0.77367216 1.4043096
0.15084364 0.76298207 1.3989758
0.13092276 0.77191514 1.414134
0.32842422 0.59696132 1.5074999
0.49735051 0.27085879 1.6045516
0.36974084 0.28440526 1.5537658
0.37489921 0.28828472 1.5591931
0.35740906 0.28838924 1.5855734
0.34528628 0.33844441 1.5354224
0.1414486 0.75445968 1.4133309
0.37283409 0.28126758 1.5645605
0.37306017 0.28083584 1.5641948
0.3470113 0.27260256 1.602883
0.34686917 0.24254949 1.6687882
0.37407339 0.2606259 1.5920268
0.38932848 0.2776607 1.5889953
0.36794937 0.26054195 1.6012441
0.421628 0.32743171 1.4750438
0.030713068 0.70082915 1.4860735
0.13370757 0.72644657 1.4331213
0.12364405 0.71246833 1.5217942
-0.068889067 -1.1316261 6.0393009
-0.273128 -1.3297976 6.1608763
-0.29463497 -1.365798 6.2615995
-0.1696409 -1.3458574 6.1668091
0.34578678 0.094276242 1.6369191
0.119962 0.18300714 1.4140594
-0.17555171 -1.404115 6.0782537
0.2505739 0.33595172 1.574738
0.56625336 0.16133061 1.8255014
0.26485449 0.34628186 1.5448724
0.14761023 0.78176266 1.4136913
0.015496554 0.71408117 1.4495785
0.10186228 0.70079452 1.5241892
-0.20227708 0.63905817 1.5990441
-0.20681684 0.65397859 1.5987804
0.55525959 0.35374552 1.5349144
0.49103823 0.32624924 1.5152752
0.085142724 0.75217319 1.40605
