# .PCD v0.7 - Point Cloud Data file format
VERSION 0.7
FIELDS x y z
SIZE 4 4 4
TYPE F F F
COUNT 1 1 1
WIDTH 334
HEIGHT 1
VIEWPOINT 0 0 0 1 0 0 0
POINTS 334
DATA ascii
0.73969227 0.71398306 1.6098192
0.59136635 0.70290291 1.5700294
0.085570037 0.63192153 1.6311435
0.38248295 0.64461565 1.6901402
0.64361709 0.6900624 1.5910987
0.61133438 0.71129256 1.5530164
0.25291267 0.63347805 1.6970999
0.66907841 0.71438771 1.5871923
0.68444657 0.64724284 1.7244104
0.63968635 0.66568512 1.6322836
0.74003142 0.41218415 1.692003
0.37332714 0.60442811 1.7340847
0.68911123 0.64300102 1.6686884
0.67182505 0.6281991 1.7095344
0.76232207 0.58556181 1.7610345
0.63348103 0.68432897 1.6012642
0.57335383 0.72875667 1.511957
0.54540342 0.67645437 1.6271942
0.48270425 0.6931141 1.5647866
0.63277709 0.71333325 1.5799855
0.60769993 0.72854841 1.5298281
0.72288543 0.68533611 1.6102059
0.81288379 0.26086906 1.8404907
0.76029307 0.1854022 1.9502386
0.67691475 0.71356755 1.5764292
0.68549508 0.66302305 1.631219
0.61938518 0.72695255 1.5443988
0.60067207 0.67911935 1.6217813
0.85810429 0.017416799 1.8479327
0.20886865 0.59382975 1.7511747
0.043286819 0.61971545 1.6967847
0.076013587 0.57347906 1.6222552
0.8908419 0.32066947 1.7069844
0.67489278 0.71465492 1.57617
0.85808533 0.023629056 1.8501908
1.0700299 0.28552046 1.7677695
0.72999728 0.45254889 1.6921293
0.40508205 0.70639342 1.5246925
0.40572008 0.70711231 1.5181054
0.96188015 0.32662883 1.7390804
0.49717489 0.61951709 1.7352343
1.003289 0.24500512 1.8098921
0.080869474 0.61170602 1.6735839
0.063951775 0.61443448 1.7127882
-0.1369347 0.62128329 1.6488194
0.75606358 0.52738225 1.7188082
0.68668926 0.66293722 1.6287874
0.68268454 0.71157247 1.5682169
0.84941256 0.26784673 1.7925386
0.49514896 0.62134737 1.7784653
0.86983633 0.16543126 1.9089532
1.0751207 0.27526876 1.7443293
0.68139005 0.63838863 1.7174051
0.66691929 0.62596369 1.7172735
0.76506263 0.4582175 1.6931971
1.0207185 0.27358148 1.7602506
0.72933161 0.67143792 1.620649
0.9370563 0.36429399 1.6612548
0.71709573 0.69364238 1.5877832
0.97909695 0.33593845 1.7307194
0.64620721 0.77461898 1.4953258
0.69039673 0.16342124 1.6383361
0.90035701 0.037946284 1.844792
0.90075469 0.037866663 1.849376
0.88443542 0.2808488 1.7834085
0.7056756 0.68302602 1.6037149
0.7140426 0.69547224 1.59127
0.73366642 0.67122751 1.6239046
0.80402613 0.41921136 1.6512045
0.67860049 0.69570488 1.57743
0.81693822 -0.014934135 1.7736037
0.74964952 0.70733333 1.6024091
0.59836847 0.74840665 1.6065603
0.88573807 0.28440693 1.77965
0.73224717 0.67768979 1.6024406
0.87572306 0.031393316 1.8275359
0.66012043 0.70771074 1.5715301
0.72015244 0.69223303 1.5862964
1.025828 0.32809886 1.7216563
0.75011998 0.54830992 1.7206601
0.95139354 0.26112404 1.8061929
0.64128917 0.66693461 1.6247606
0.92429161 0.36931634 1.6789901
0.52228552 0.61139369 1.7618537
0.65414244 0.72570378 1.5724181
0.90128398 0.29185829 1.7475568
0.66455096 0.68013501 1.5985389
0.6339581 0.70167762 1.5719055
0.6578123 0.68201566 1.6065676
0.67234278 0.6781649 1.6123691
0.7620706 0.57070577 1.7268424
0.92399973 0.21955466 1.820296
0.89792484 0.31430921 1.7007031
0.70740825 0.48632321 1.8129389
0.92973852 0.36949384 1.671677
0.60849386 0.72968161 1.5301168
0.89487189 0.016082946 1.8393863
0.86128217 0.024892718 1.8500348
0.70523334 0.66564512 1.6079098
0.67794979 0.69602698 1.5785308
0.6656695 0.71359634 1.5842324
0.71366996 0.66109449 1.6468043
0.89984614 0.23922105 1.8231924
0.68036932 0.66303664 1.6350139
0.83763731 0.2672703 1.8071394
0.8859421 0.011606199 1.8557011
0.78352571 0.51665145 1.726426
0.65746367 0.65226579 1.6227232
0.87582761 0.0052682101 1.8582464
0.58463717 0.6649853 1.6456971
0.60286415 0.65550828 1.6437271
1.0299667 0.21326388 1.8624535
0.63969338 0.65672946 1.6087966
1.0234947 0.23729204 1.8351558
1.0004323 0.24452679 1.8169194
0.56970912 0.6670745 1.5951158
1.0680102 0.27623695 1.7555726
0.68994522 0.64937681 1.6767977
0.5750702 0.66717112 1.6077064
0.56871438 0.66994309 1.613833
0.6165936 0.64864719 1.6308609
0.58300799 0.6583432 1.6153355
0.5604856 0.66220063 1.6027188
0.57530493 0.66338348 1.6136887
0.5797261 0.66111386 1.6130133
0.96504456 0.28318205 1.7666544
0.56215018 0.65952986 1.5979917
0.68147391 0.6474874 1.7274679
1.0435098 0.28353399 1.7716379
0.86498618 0.15754925 1.9143268
0.87074548 0.15396219 1.9091291
0.8314628 0.14627756 1.9562435
0.67602116 0.63715464 1.7072027
0.69312793 0.68393314 1.5893192
1.0654916 0.30480716 1.7630553
0.84431863 -0.014904917 1.8727316
1.0592459 0.28598064 1.7823232
0.76718742 0.57455814 1.7813818
0.77336413 0.55682266 1.7739838
1.0452784 0.30260134 1.7464395
0.70602208 0.66502589 1.6324891
0.69344461 0.67323005 1.6195153
0.82636994 0.25295156 1.8531688
0.66823739 0.68537617 1.5907981
0.66237992 0.6887635 1.5955842
0.89854527 0.60292459 1.8028311
0.61938369 0.71802676 1.5452455
0.70993972 0.54505777 1.7523184
0.70004535 0.66634351 1.6122423
0.65116733 0.66519409 1.6160766
0.58674377 0.70086592 1.545122
0.66745311 0.65792614 1.661236
0.88633776 0.18286048 1.9128029
0.73260552 0.65207255 1.7144994
0.60562032 0.68688184 1.5753081
0.61596978 0.67980182 1.5770645
0.59621084 0.69349176 1.5750921
0.66866666 0.65443498 1.6407148
0.59183002 0.69502974 1.579761
0.60601002 0.68207067 1.6128227
0.54322487 0.71498036 1.5500586
0.70423567 0.58614796 1.759709
0.61804092 0.67007798 1.6257758
0.56360686 0.69483393 1.5634494
0.56496471 0.69362122 1.5627558
0.61732453 0.66532654 1.6027818
0.56592137 0.69310832 1.5629011
0.6049633 0.67133206 1.6124709
0.70103717 0.64555788 1.6911031
0.64144939 0.65376592 1.6248711
0.59169471 0.66415155 1.6085238
0.56370956 0.68327403 1.5922768
0.49733055 0.71016026 1.527398
0.85918301 0.015910638 1.8461568
0.63007575 0.70410264 1.5787758
1.0018151 0.24581249 1.8103433
0.63343334 0.68843204 1.6037103
0.73574519 0.55624896 1.7369223
0.64262891 0.71125734 1.5488977
0.90013385 0.32442567 1.6977055
0.64110863 0.67862397 1.5923729
0.8195163 0.26440689 1.8262376
1.0020415 0.27232403 1.7820011
0.84416276 0.2559213 1.8337342
0.66656625 0.68421346 1.5916814
0.68416953 0.68743491 1.5998825
0.69911951 0.64601535 1.6610321
0.6018886 0.73636299 1.5500394
0.70847726 0.66204578 1.6653342
0.56452298 0.68346918 1.582311
0.78033692 0.23228596 1.9047272
0.55320239 0.67975312 1.559509
0.57340217 0.6668933 1.534694
0.51463574 0.69713777 1.5632833
0.57048637 0.6748181 1.595274
0.84552813 -0.013693207 1.8629916
0.56438345 0.66853005 1.5993333
0.49597779 0.71066272 1.5301956
0.71733528 0.62931037 1.6954272
0.34461766 0.16878979 1.4970456
0.48115844 0.7120102 1.5617621
0.56578344 0.66594547 1.6294547
0.48526472 0.70886809 1.6372821
0.49597454 0.68873245 1.5705854
0.79016507 0.5796392 1.8173807
0.30612493 0.1745031 1.4808425
0.53087884 0.67200166 1.6010222
0.52341306 0.67512631 1.607738
0.72626311 0.41460869 1.7184217
0.30155897 0.17458023 1.4793334
0.29885703 0.17816021 1.4803734
0.56904006 0.64836049 1.5770564
0.81709588 0.19379798 1.9380972
0.72528392 0.44829714 1.7553513
0.83371508 0.19292431 1.9232939
0.50616115 0.67610508 1.5427083
0.48346654 0.67772239 1.5482587
0.47376648 0.68763345 1.5604284
0.42292842 0.70776826 1.5306791
0.4416939 0.69333941 1.5505207
0.47381353 0.68031037 1.6019089
0.759547 0.19688489 1.943185
0.39300299 0.70441484 1.5164009
0.83628649 0.53082776 1.826947
0.43072414 0.6935187 1.5318587
0.95597291 0.27673578 1.7782919
0.43306679 0.69046122 1.5272833
0.74686462 0.19083112 1.9604031
0.87807149 0.1447589 2.001353
0.72882795 0.568268 1.8740463
0.71887201 0.5594998 1.8616716
0.66281432 0.70635003 1.5660504
0.64369631 0.71486449 1.5753604
0.67617106 0.69415808 1.5864253
0.74877256 0.41539407 1.6752421
1.0685856 0.32139206 1.6970744
0.62403929 0.71379536 1.5579761
0.65421581 0.7020852 1.5430568
0.64162242 0.71035188 1.5716226
1.0058054 0.19338526 1.8843312
0.73776209 0.68990517 1.6253
0.7408213 0.69558632 1.6005203
0.77127951 0.55300432 1.7302235
0.66324657 0.7195105 1.5652324
0.90926528 0.22263299 1.8361851
0.73074692 0.67983049 1.6061169
0.71378356 0.67893404 1.5967135
0.7726348 0.5531854 1.7315913
0.91268474 0.28433889 1.7960219
0.93977207 0.21127877 1.8454629
0.91608381 0.19520284 1.8544397
0.53376716 0.73752999 1.4897859
0.52368009 0.68817127 1.5805357
0.55095166 0.57090378 1.850751
0.53332871 0.57906306 1.8698388
0.58720815 0.55124122 1.8164818
0.40481132 0.64111155 1.6830962
0.10636082 0.57571113 1.7530949
0.44222137 0.56329352 1.7930298
0.4411892 0.56323886 1.7893696
0.76354045 0.43390608 1.69091
0.25484928 0.53378361 1.6763027
0.44344735 0.56192797 1.7834333
0.44232011 0.56172884 1.7779579
0.34552687 0.60162741 1.7669935
0.35030502 0.6241163 1.6663938
0.17540951 0.57202893 1.6600078
0.13612837 0.5996477 1.6963129
0.11240125 0.59392202 1.6864035
0.15401699 0.57358485 1.6260297
0.10433044 0.5291335 1.5855223
0.30650175 0.58951151 1.7280532
0.29944724 0.59514433 1.7330607
-0.079746768 0.15493877 1.5524349
-0.082069516 0.15451485 1.5537735
0.49904859 0.46393883 2.0473263
0.13495277 0.64183825 1.686524
0.55966508 0.4760749 2.031929
0.021262474 0.63525277 1.7134527
-0.25989196 0.36865363 1.5742687
-0.14059567 0.61508662 1.6885244
0.74860752 0.55581766 1.8175969
0.75914514 0.18823366 1.94873
0.76009053 0.5486421 1.8334541
1.0465314 0.3029606 1.7370964
0.43880251 0.50861478 1.6992483
0.50650007 0.61235136 1.7784128
0.9901911 0.33912724 1.7273872
0.64372641 0.65999305 1.6359253
0.99191362 0.31899291 1.7013266
0.21910915 0.54762739 1.7174121
0.55980706 0.58609968 1.8032867
0.74673837 0.52537745 1.7139876
1.016639 0.31363225 1.8110597
1.0291327 0.30780688 1.7358928
1.029428 0.32512692 1.7132953
0.66279835 0.67353284 1.6008663
0.63436162 0.69984281 1.5698075
0.87636173 0.60667902 1.8196429
0.89232653 0.16033545 1.8620906
0.66236055 0.67513978 1.6026349
0.87350225 0.15650535 1.886413
0.63543475 0.68734813 1.6032381
0.65955371 0.67005342 1.6295531
0.57328194 0.72336388 1.4937754
0.5560261 0.73271328 1.5016825
0.5194636 0.74510795 1.4800364
0.74276698 0.41345802 1.7057337
0.55887789 0.72165394 1.5280892
0.55997843 0.71915424 1.5289835
0.61584109 0.68732053 1.6788064
0.5617677 0.71926349 1.5262768
0.91897827 0.17298244 1.9080803
0.62565154 0.67917043 1.6046193
0.52222532 0.70756072 1.6250798
0.72883052 0.65939534 1.6315876
0.63165843 0.67424947 1.5968779
0.509642 0.61883461 1.752135
0.42185548 0.64767295 1.6796682
0.50245225 0.62435871 1.7614653
0.41221881 0.61824107 1.7309667
0.39771464 0.64536774 1.6724266
0.69217557 0.65433961 1.6983531
0.69261986 0.68632811 1.5899793
0.60922384 0.65060061 1.6277834
0.77624977 0.58482599 1.773463
0.68102169 0.6382823 1.7166409
0.36677182 0.58709955 1.7399369
0.36281106 0.60210288 1.7383522
0.66864616 0.66503167 1.6216533
0.78978902 0.57876629 1.8170388
0.82802492 0.27585959 1.778409
1.0541016 0.25431022 1.7887408
0.48245189 0.62653381 1.7119908
