# .PCD v0.7 - Point Cloud Data file format
VERSION 0.7
FIELDS x y z
SIZE 4 4 4
TYPE F F F
COUNT 1 1 1
WIDTH 1446
HEIGHT 1
VIEWPOINT 0 0 0 1 0 0 0
POINTS 1446
DATA ascii
-1.4218743 -0.70877165 3.0689554
-1.431677 -0.7872721 3.167254
-1.5552239 0.053334851 2.2927957
-1.3716919 -0.72624534 3.0475392
-1.3148534 -0.65998167 2.9740667
-1.5592246 -0.3700411 2.9894676
-1.1550316 -0.0429952 2.3449149
-1.3908037 0.66590989 2.4555693
-1.3799219 -0.81098169 3.2147758
-1.5984565 -0.62928861 3.031178
-1.5513595 0.59245104 2.6516504
-1.4071132 0.69126189 2.5122983
-1.2131028 0.63695174 2.1807137
-0.98391551 0.32149807 1.8431628
-0.96749586 0.33145022 1.8420789
-0.57019907 -0.64683926 3.5720499
-1.1696628 0.88298255 2.0443282
-1.5728487 -0.41549075 3.3877351
-1.5350041 -0.63641745 3.4354997
-1.5816107 -0.50922489 3.291784
0.068788104 -0.54314953 3.3887177
-1.4585571 0.81307566 2.1786947
-1.4494337 0.81977016 2.1780126
-0.54485792 -0.67317569 3.5565743
-1.0057517 0.28168598 1.8299661
-1.1578914 0.89939278 2.0355041
-1.2481492 -0.037715543 2.2764981
-1.6029295 -0.52231014 3.3184426
-1.5720879 -0.48122251 3.362262
-1.297362 -0.16902673 3.7591789
-1.4204445 -0.1927435 3.6826437
-1.3447603 -0.80781454 3.1951761
-1.4336219 -0.77662295 3.1452203
-0.17703491 -0.58169687 3.30845
0.067052811 -0.5455032 3.3708804
-1.5993675 -0.49438936 3.2640316
-1.0994124 -0.51866072 3.5655503
-1.5731046 -0.5294174 3.2041342
-0.79099953 -0.59323984 3.4507616
-1.5639437 -0.4372648 3.4068568
-0.83148271 -0.55153435 3.3617485
-1.4981158 -0.14748381 2.7214723
-1.5494708 -0.35295787 3.2119954
-1.5586555 -0.8039369 2.7473228
-1.2068248 0.037682883 2.2517257
-0.49624711 -0.58761656 3.4495552
-1.4440835 0.50048929 2.0880508
-0.42154542 -0.54805279 3.2838967
-1.4874691 0.84846783 2.1879029
-0.41520569 -0.53411567 3.292866
-0.45448294 -0.55690581 3.2871268
-1.280158 0.71944958 2.3021972
-1.561244 -0.5075562 3.3472059
-1.1586291 0.89770895 2.0341394
-1.1649621 0.95312023 1.9983764
-1.5585554 -0.81123686 2.7572634
-1.6056038 -0.0087328777 3.2577183
-1.5614295 -0.2006254 3.0602968
-1.2460585 -0.73858148 3.1562974
-1.1219085 -0.070975475 2.327595
-1.4438131 0.80934948 2.1872854
-1.1054564 -0.70626253 3.7227564
-1.0624863 0.45059368 1.8384155
-1.1874384 0.92870152 1.9792995
-0.41511205 -0.49844006 3.2267046
-0.10135369 -0.36041459 3.0316007
0.16573949 -0.46099287 2.972225
-0.54723459 -0.6679284 3.5513139
-0.44766936 -0.51284325 3.3320322
-0.89259392 -0.38351306 3.9471254
-0.70129764 -0.51989233 3.2085357
-1.3170053 -0.7974028 3.1308944
-1.4737304 -0.80090052 3.1721692
-0.13309659 -0.42611498 3.1070948
-1.1145902 -0.6247049 3.7052901
-1.5658921 -0.0043477472 3.139226
-1.0899299 -0.14660071 3.7101007
-1.5862051 -0.6075139 3.2148952
-0.5207116 -0.58406818 3.3744121
-1.5625393 -0.4286243 3.4183877
-0.14138588 -0.47740853 3.1752501
0.074415572 -0.43900827 3.1653066
-1.5619857 -0.5757305 3.2533422
-1.5835743 -0.39321357 3.3464012
-0.44030961 -0.56948119 3.3097694
-1.4794769 0.44872931 2.1338606
0.40196529 -0.59371209 3.6796606
-1.2715456 0.7181049 2.2930655
-0.49748898 -0.57191491 3.3861587
-0.30092236 -0.59879273 3.3537893
-0.19333796 -0.61012357 3.3715775
-0.92872143 -0.56702131 3.3870723
-0.82272458 -0.59500355 3.4384749
-1.1964717 -0.77393788 3.2903075
-0.84366244 -0.57968909 3.4003778
-1.2113755 -0.18732002 3.7029717
-1.3327903 -0.85014886 2.9055655
-0.95293564 -0.56368023 3.3710878
-1.0832512 -0.21956147 3.772079
-1.520054 -0.81198019 3.3302593
-1.5643375 -0.78634655 3.2265129
-1.5949793 -0.41385147 3.274668
-1.4139684 -0.81282377 3.1909566
-1.569351 -0.60153943 3.1329169
-0.75495076 -0.55397773 3.3611732
-1.4780363 0.00041610771 2.2977154
0.38125229 -0.60916948 3.6016898
0.21104369 -0.43038836 3.1077361
-1.4895159 -0.72189808 3.0783155
-0.56637895 -0.67988706 3.5530584
-0.60582036 -0.66430277 3.5840249
-1.329353 -0.84769446 2.902941
-1.3581895 -0.79210347 3.179148
-1.5611033 -0.61603904 3.2781591
-1.740841 0.23280719 3.2290502
-1.7107291 0.11634436 3.2869048
-1.6827624 0.10130248 3.3023236
-1.4961706 0.078883626 1.8382105
-1.482909 -0.7913115 3.1797485
-1.313038 -0.79865164 3.20228
-1.4700987 0.14543578 2.0406313
-1.5783902 -0.65095025 3.2170727
-0.13657893 -0.4266912 3.1060269
0.25135237 -0.37975129 2.847599
-1.04238 -0.70385641 3.2234938
0.21464877 -0.27970475 2.9176047
0.26090008 -0.28958496 2.8586695
-1.1737001 -0.56999463 3.4638958
-1.1623276 -0.59753895 3.5064523
-0.78521466 -0.57300258 3.3708777
-1.7049367 0.066988617 3.2869229
-0.81898963 -0.47061357 3.2461796
-1.3880992 -0.80011702 3.182173
-0.34279132 -0.60312825 3.3486116
-1.5752972 -0.51672113 3.2908895
-1.1631765 -0.51778203 3.4364018
-1.5524273 -0.59040356 3.2440455
-1.2306082 -0.77986139 3.254154
-1.7001272 0.077170618 3.299413
-0.38826445 -0.6082238 3.4301739
-0.96678132 -0.64310777 3.5020192
-0.92839879 -0.56625438 3.3877652
-1.2857347 -0.7460711 3.1439695
-0.56078517 -0.63857752 3.5698972
-1.4519213 -0.79445362 3.2276464
-1.3417076 -0.7941553 3.2113187
-1.4281985 -0.74048322 3.0782311
-1.5383977 0.10616647 3.009901
-1.3762015 -0.80017167 3.1586633
-1.425876 -0.77384514 3.1228859
-0.2942788 -0.57362705 3.4828062
-1.2789648 -0.67941731 2.9928515
-1.2958086 -0.82112658 3.2862451
-1.2074901 -0.72601277 3.1091506
-1.2088214 -0.69904917 3.0811629
-1.2878724 -0.73898876 3.0012925
-1.2557957 -0.7032212 3.0728621
-1.4125178 -0.80472553 3.1809101
-0.84989965 -0.59074533 3.4718001
-0.82404429 -0.59669805 3.4669144
-1.2562687 -0.91079766 2.8910277
-1.3579946 -0.80905181 3.2681093
-1.3467849 -0.85945249 2.9291852
-0.98243392 -0.56279081 3.2988579
-1.4805086 -0.78845227 3.2128215
-1.315155 -0.85328072 2.9182763
-1.3427585 -0.83659756 2.9000621
-1.1893275 -0.78728718 3.2201288
-1.0521736 -0.58075523 3.4879553
-1.4596227 -0.79936302 3.2473774
-1.233672 -0.75119781 3.1518519
-1.3356385 -0.84187484 2.9307208
-1.2614167 -0.71559823 3.0821328
-1.4833046 -0.81187493 3.2542367
-1.5445281 -0.80417651 3.2549326
-1.0282271 -0.70978618 3.2351844
-1.4831792 -0.81693059 3.2614522
-1.2314607 -0.74335521 3.1461089
-1.3730054 -0.82171583 3.2484994
-1.5428387 -0.81750751 3.3294845
-1.0401592 -0.69824213 3.2208097
-1.0047829 -0.6754272 3.2113674
-1.017225 -0.67319047 3.2492244
-1.760515 0.083326668 3.2509437
-1.7843782 0.116155 3.2455003
-1.6535401 0.088018067 3.2938869
-1.4624462 -0.80613059 3.2001092
-1.4516854 -0.80043858 3.2323217
-1.3962708 -0.8241353 3.2360582
-0.037250832 -0.46442381 2.7457943
-1.3757409 -0.82580811 2.8923762
-1.7065707 0.16424853 3.3414626
-1.4069417 -0.76391327 3.1349726
-1.4194627 -0.7907179 3.183645
-1.4210241 -0.77291298 3.1585684
-0.41209048 -0.49136305 3.2377508
-1.444707 -0.81425738 3.2121398
-1.3217257 -0.7810294 3.1800704
-0.069585636 -0.28316087 2.8694558
-1.3866094 -0.80729276 3.2051291
-1.0339943 -0.61676073 3.3086021
-0.89734584 -0.58408624 3.416079
-1.1859375 -0.65522438 3.0162134
-1.3725686 -0.73250204 2.9656131
-1.3768117 -0.74079895 2.9861584
-1.4867262 -0.71121639 3.068507
-1.5450226 -0.64195555 2.9332747
-0.93136102 -0.59677351 3.4474068
-1.0249288 -0.6012826 3.3210506
-0.85701543 -0.57132781 3.3986423
-1.093468 -0.53427726 3.3244462
-0.5700134 -0.67232078 3.555388
-1.0324254 -0.58697736 3.3415878
-1.1957281 -0.66371459 3.0273118
-0.57870001 -0.54127175 3.4554458
-0.92923534 -0.57960528 3.4204314
-1.1733131 -0.55898869 3.4233348
-1.4041022 -0.77977675 3.1172066
-0.84998411 -0.58887178 3.3965664
-0.78006482 -0.57240582 3.3652983
-0.78631604 -0.57398599 3.4146125
-0.76910305 -0.57496637 3.4635589
-0.76805097 -0.57079887 3.3913307
-0.67823601 -0.57369256 3.4002111
-0.70592219 -0.55384493 3.3623431
-0.68778193 -0.55154485 3.3540056
-0.68183464 -0.59943563 3.4559531
-0.68128484 -0.54645473 3.3852639
-0.6992768 -0.47270548 3.2393193
-0.33926997 -0.59658796 3.4882839
-0.33791825 -0.58991885 3.4997361
-0.34294328 -0.59884441 3.500957
-0.54680973 -0.59043574 3.4161129
-0.076661043 -0.6081655 3.5902686
-0.40615898 -0.56988013 3.2903082
-0.55128425 -0.63880306 3.5904875
-0.23620944 -0.61531472 2.7110612
-0.36057496 -0.61678326 3.3911676
-0.39598048 -0.60322964 3.4193428
-0.36960289 -0.61244839 3.3748412
-0.31766015 -0.59445161 3.3408537
-0.43582851 -0.40017903 3.0743089
-0.28235444 -0.55091172 3.2603793
-0.54546362 -0.57398289 3.3957071
-0.22396226 -0.44382152 3.129266
-0.56266475 -0.67375797 3.5471499
0.19784929 -0.42949486 3.1108813
0.28392118 -0.39042684 2.9614944
0.18583813 -0.40881252 3.0854788
0.2599552 -0.33196238 2.9844406
-0.34300804 -0.59716821 3.5006573
-0.65367085 -0.5917381 3.4579365
-0.18304254 -0.57707012 3.4482639
-0.25636077 -0.63818514 3.4316401
-0.58956772 -0.58159918 3.3871632
-0.39847672 -0.56019998 3.2859082
-0.70538312 -0.55885023 3.3975179
-0.49993345 -0.5371421 3.3451228
-0.50847328 -0.54563957 3.3456669
-0.411881 -0.53545713 3.2806158
-0.42857167 -0.52214092 3.3038716
-0.41096345 -0.49148226 3.2361569
-0.22978958 -0.39763221 2.9766726
-0.12888362 -0.52941722 2.7492173
-0.13382193 -0.37178835 2.9600928
-0.1106966 -0.43285641 2.7805233
-0.035542428 -0.3195169 2.9161789
0.36703917 -0.39674267 3.0996411
-0.14226098 -0.57031554 3.4618287
-0.16968143 -0.58944124 3.4400144
0.14351726 -0.43993926 3.1136899
-0.5657469 -0.66205502 3.5526726
-0.17918919 -0.61158174 3.4233289
-0.30999318 -0.58933991 3.4929233
0.41135141 -0.46987635 3.2530892
0.34106466 -0.44204143 2.9785285
0.27362013 -0.31898099 2.959842
0.29517934 -0.38137785 3.0408003
0.56135762 -0.4470596 3.214021
-0.46418837 -0.46981934 3.0520673
0.56952298 -0.43774563 3.2102029
-0.30909431 -0.61617351 3.386039
0.32136059 0.0030637202 3.8348219
0.51126343 -0.35758933 3.0104666
0.53400683 0.097625911 3.7997484
0.48726931 0.051630415 3.7867768
-0.13487759 -0.63192916 3.588053
0.84096014 -0.39600009 2.994046
-0.2760036 -0.57530761 3.4738083
-0.52745521 -0.5918135 3.4487772
-0.45021927 -0.50172341 3.3255017
0.47223526 -0.46316683 3.8218484
0.025598226 -0.5003112 3.3146653
0.017063387 -0.50303113 3.3070419
-0.31010994 -0.59928906 3.3499422
-0.11922377 -0.63542563 3.5877666
0.36152056 -0.50770563 3.6187518
0.44112384 -0.56181681 3.5608852
-0.39518493 -0.57814449 3.3010824
0.74135447 -0.58512843 3.528384
0.60359353 0.11796708 3.6678481
-0.64336908 -0.56500691 3.3771803
0.33261535 -0.59892482 3.6917708
-0.3532455 -0.64283985 3.4068556
-0.23940054 -0.59631783 3.3440728
-0.49645668 -0.58113635 3.4270651
-0.16931745 -0.60890043 3.4351363
0.71193409 -0.51086956 3.5198348
-0.019465879 -0.33680621 2.9476743
0.60100508 0.049057331 3.7117431
-0.53719324 -0.63909274 3.5851505
0.42074642 -0.59711808 3.75647
-0.1322026 -0.41429028 3.1223989
-0.18028311 -0.37442416 3.0672007
0.33185744 -0.44848564 3.6397817
0.28242323 -0.018683644 3.7621491
0.52420771 -0.43667838 2.9344628
0.80777752 -0.28637728 2.8063948
-0.12071578 -0.6201424 3.5997906
-0.058707315 -0.60754883 2.686636
-0.42794827 -0.566679 3.3029389
0.13598545 -0.46178389 2.9753487
-0.50720555 -0.66042167 3.5474615
0.32617453 -0.51834071 3.6688066
0.89217722 -0.4889468 3.2327106
0.48252276 0.05139434 3.793083
0.91934127 -0.31223667 2.9051273
0.81736553 -0.24289955 2.783869
-0.41656524 -0.41807395 3.0466781
0.1764978 -0.46148616 3.2025816
-0.46496513 -0.48607758 3.0590861
-0.28934795 -0.56381947 3.2843864
-0.056584328 -0.32537535 2.9168527
-0.34268713 -0.59026122 3.4977462
0.28634068 -0.38968906 3.0449333
-0.28185064 -0.5295046 3.234849
-0.28180629 -0.55450314 3.2637393
-0.22891532 -0.57566726 3.2827089
-0.12909202 -0.61836779 3.5497749
0.062109835 -0.53496724 3.3594015
-0.28077391 -0.53858757 3.2385862
0.42693114 -0.50010979 3.5016224
0.081868447 -0.5049991 3.3279338
-0.31969836 -0.54175788 3.2470171
0.41919741 -0.50357503 3.5082664
-0.057009295 -0.59531909 2.6859615
0.14803459 -0.42381203 3.1125968
0.27354422 -0.42107752 3.087863
0.31041199 -0.41952562 3.0822017
0.30732957 -0.45522952 2.9967675
0.27569073 -0.43412715 3.1150997
0.80643255 -0.25673038 2.8408248
0.028977551 -0.55467683 3.3496668
0.13400319 -0.44963798 3.1576598
0.17264529 -0.44448853 3.1520798
-0.42390898 -0.55937642 3.2814684
-0.39958081 -0.48315468 3.1871703
-0.48051849 -0.50376439 3.0766549
-0.48039255 -0.62416327 3.5603299
0.25056881 -0.32599363 2.9606128
0.21186048 -0.29966983 2.9343817
-0.018202966 -0.29961208 2.8957548
-0.35894251 -0.65823525 3.4715817
-0.5449391 -0.57382488 3.3951886
-0.093895249 -0.56456035 2.714381
-0.44196144 -0.398673 3.0398984
-0.52977681 -0.58718872 3.4483428
0.28928116 -0.36366406 3.0463691
0.086474799 -0.39943588 3.1387203
-0.20278111 -0.47826442 2.7725399
-0.55515903 -0.5703693 3.3844008
-0.45165926 -0.52213961 3.3048091
-0.66953385 -0.43639109 3.1410968
0.18444754 -0.4157846 3.1399405
-0.31629199 -0.59650284 3.3430562
-0.1323704 -0.42788026 3.0939109
-0.31720948 -0.53533536 2.7657104
-0.31997535 -0.54703784 3.2483988
-0.74159646 -0.45413253 3.2117772
-0.23184863 -0.60573596 3.3603621
-0.16495062 -0.59254026 3.4324234
-0.34581837 -0.62144691 3.3118689
-0.39645463 -0.58264691 3.3129466
-0.36213994 -0.55909574 3.2893493
-0.27049342 -0.54793662 3.279247
-0.35407758 -0.55964971 3.2721763
-0.27992037 -0.54280484 3.2533612
-0.35998702 -0.56375527 3.2909334
-0.44768706 -0.51962054 3.3060732
0.35766026 -0.43862262 3.1700709
-0.14906615 -0.5749464 2.7316201
-0.21098843 -0.36830258 3.0791698
0.40775591 -0.42802227 3.095933
-0.22243284 -0.58115703 3.3968425
0.58464086 0.074514799 3.6945274
0.71919554 -0.40549842 2.6670041
0.80861431 -0.26688629 2.8673027
0.74675906 -0.24058113 2.8123612
-0.50954366 -0.55196971 3.3592713
-0.13250017 -0.40727052 3.1229017
-0.22625978 -0.39303985 3.081625
0.20703276 -0.46285179 3.2079344
0.30294734 -0.46359485 3.2043345
0.32646739 -0.45593446 3.1959476
0.13276275 -0.43581912 3.1310034
-0.17924629 -0.61909527 3.4021206
0.37440121 -0.44272354 3.1552238
-0.32234985 -0.53890949 3.2489531
-0.28921345 -0.58486938 3.2880559
-0.3199679 -0.54969376 3.2498562
-0.088147029 -0.51185417 3.3185878
0.70670211 -0.41723537 2.6806085
-0.14551954 -0.39402911 3.0129304
-0.2042331 -0.38123456 2.967695
-0.43140095 -0.46991476 3.0349324
0.18288878 -0.38524625 3.0716486
0.51415646 -0.42478091 3.1004415
-0.23395288 -0.51878297 3.23757
0.30116493 -0.46016401 3.186053
0.1062027 -0.38383308 3.1074808
-0.15271007 -0.583974 3.4929307
0.50993127 -0.40412802 3.0886643
-0.14748648 -0.3617717 2.9766679
-0.25107646 -0.34099221 2.9388261
-0.23894022 -0.33238485 2.932905
-0.60147232 -0.37455443 3.0732942
-0.028388247 -0.38822439 3.0190051
-0.049189646 -0.35310137 2.9631784
-0.093390256 -0.34393093 2.9528906
-0.33101606 -0.40161461 2.8480303
-0.19113886 -0.31665468 2.9073086
-0.1669841 -0.32141143 2.8964105
-0.055383686 -0.36202255 2.805388
-0.010111619 -0.46192271 3.2227759
-0.49192521 -0.52407509 3.3221855
-0.20536269 -0.49456486 3.2545841
-0.018070228 -0.28170437 2.9082694
-0.010674505 -0.27007231 2.8988674
-0.040069625 -0.26246896 2.8624315
-0.015757637 -0.35075057 2.965744
0.27976176 -0.3199918 2.9673471
-0.0072359005 -0.33614701 2.959522
-0.013745529 -0.25919521 2.8680131
0.020813191 -0.38219348 3.0334835
0.030528849 -0.30508247 2.9361644
-0.71601111 -0.50908452 3.3150735
0.52555966 -0.59776312 3.5018983
-0.097685568 -0.39832321 3.0556369
-0.34152889 -0.49079055 2.7990308
-0.55893785 -0.37452385 3.0612173
-0.15811375 -0.36898389 2.8206863
-0.0076467181 -0.36570552 2.9786248
-0.11856702 -0.51091188 3.3184292
-0.021142038 -0.40872613 3.0409796
0.32519832 -0.31892252 3.0050142
0.0075834431 -0.48916501 3.3156803
0.67458838 -0.82676822 3.7258644
0.75536567 -1.0242724 3.6353068
0.62087584 -0.85328758 3.6095321
0.10517471 -0.39665905 3.1001322
0.36939356 -0.40838325 2.9756753
0.20304941 -0.37851918 3.0687029
0.60379559 -0.92086309 3.4979701
0.8007102 -0.29199058 2.8138537
0.52497554 -0.59124255 3.6872878
0.51785767 -0.74829346 3.8120456
0.47847691 -0.63911867 3.7520928
0.50821841 -0.44085264 3.1126089
0.389705 -0.31167564 2.9977629
0.59010369 -0.90509266 3.4997175
0.6706996 -0.97876161 3.5384488
0.66477615 -0.67687702 3.548322
0.58919662 -0.55955458 3.553834
0.75370353 -0.57955563 3.5088656
0.47924143 -0.69863766 3.8015714
0.60619438 -0.61291593 3.4937682
0.73894221 -0.99459434 3.6154788
0.73364496 -0.94237745 3.7430282
0.67673194 -0.99300081 3.6118383
0.76687056 -0.35525587 3.0217135
0.80492854 -0.97378379 3.6182902
0.63991714 -0.92960119 3.5441275
0.64303768 -0.92798853 3.5530472
0.62076676 -0.85061014 3.613483
0.60038799 -0.8630721 3.5820251
0.53919876 -0.54848284 3.5582507
0.48313618 -0.6751309 3.8574984
0.4811244 -0.70441103 3.8166437
0.48001197 -0.69763285 3.8186448
0.51666653 -0.76219273 3.8037169
0.5223493 -0.75864482 3.8155859
0.81230748 -0.7019527 3.6076677
-0.21954355 -0.61135364 3.5978966
-0.1709445 -0.60481817 3.4281349
0.73405617 -0.54023761 3.4836783
0.67352319 -0.66932988 3.5486028
0.51419008 -0.71487236 3.7791839
0.65015817 -0.6236074 3.510272
0.65729791 -0.97350878 3.6526465
0.48649642 -0.59731287 3.6730144
0.51781756 -0.76213175 3.8049407
0.92168969 -0.49047673 3.24823
0.88222414 -0.46520886 3.1988177
0.6531167 -0.81193018 3.7428639
0.62883574 -0.90538675 3.476474
0.66585797 -0.82519501 3.732975
0.65256888 -0.81429899 3.5800457
0.53863156 -0.57322997 3.6170993
0.6225093 -0.86438626 3.5888102
0.65503168 -0.92769027 3.5374742
0.72215682 -0.81199765 3.7981491
0.50934803 -0.68494242 3.768425
0.65353382 -0.94185132 3.5504975
0.48161906 -0.63301742 3.752486
0.49089211 -0.63051265 3.7524095
0.48325902 -0.64252394 3.7502582
0.82058233 -0.22129878 2.7894912
0.60503155 -0.80725586 3.7681463
0.66481727 -0.91995621 3.5137603
0.61261278 -0.91371906 3.5940206
0.65002918 -0.95463043 3.6304145
0.69699311 -0.98714668 3.6745331
0.67406744 -0.91322345 3.5110312
0.70753604 -0.80641413 3.7467053
0.50263441 -0.74044788 3.8302813
0.57421774 -0.51847768 3.5323412
0.66904229 -0.91383195 3.5107291
0.76092249 -0.59843016 3.5051041
0.60016066 -0.80463237 3.7834682
0.59567702 -0.89009023 3.492013
0.66522479 -0.8313815 3.7258914
0.60934377 -0.90803587 3.4800112
0.66130704 -0.88957316 3.4711678
0.62201613 -0.90743089 3.5773845
0.65045661 -0.79726493 3.6024492
0.50389987 -0.64655119 3.7300291
0.72175962 -0.99591875 3.6002707
0.47910899 -0.60816687 3.6571286
0.69296783 -0.80395406 3.7500763
0.62552977 -0.52655053 3.5246484
0.69199461 -0.52213293 3.5080304
0.73528266 -0.96458399 3.5178585
0.76166087 -0.94308591 3.4914277
0.50251478 -0.71486932 3.776751
0.62679791 -0.82208198 3.6613152
0.45141581 -0.61481208 3.697201
0.4083063 -0.57564366 3.6074772
0.40678397 -0.58094585 3.6067021
0.65272516 -0.79733324 3.7139602
0.74769825 -0.99788058 3.6180918
0.77066708 -1.0199151 3.6348102
0.47448468 -0.52826786 3.5496757
0.85405558 -0.50241274 3.245348
0.6677708 -0.78533423 3.6021023
0.54191971 -0.54512221 3.5605712
0.55341011 -0.51909536 3.5034704
0.68874264 -0.59718508 3.4796078
0.53979659 -0.71050131 3.742666
0.68186957 -0.90098822 3.4875312
0.85668594 -0.46198726 3.2524824
0.37369314 -0.58510798 3.6998105
0.4437584 -0.63966841 3.8001852
0.37656763 -0.60125506 3.7366512
0.36847448 -0.57303494 3.7422702
0.46452349 -0.56995094 3.5107813
0.62485451 -0.52498835 3.5246603
0.67076075 -0.61119497 3.5222557
0.57940739 -0.80690849 3.8270006
0.71732724 -0.21343066 2.7647741
0.37651247 -0.5481714 3.7313881
0.77734715 -0.42945027 2.7633038
0.77877909 -0.33785865 3.0094512
0.84157401 -0.44889048 2.7898402
0.48040712 -0.69595248 3.8315339
0.73326617 -0.27745271 2.8343742
0.64323205 -0.79865968 3.7098272
-0.050442785 -0.044793699 3.6799853
-0.10075906 -0.50706971 3.2967291
0.27546653 -0.34301418 2.898787
0.2651664 -0.33168188 2.9978716
-0.09558744 -0.46537423 3.2014434
0.13944952 -0.69004935 2.8003607
0.51570237 -0.65942693 2.7640035
-0.10013099 -0.34085369 2.911859
0.60288829 -0.62441909 2.5335233
0.58401501 -0.52894396 2.5949936
0.46787441 -0.54273552 3.5543976
-0.54003334 -0.61210871 3.4825859
0.83027476 -0.53006828 2.5467529
0.82766914 -0.49138147 2.5669105
0.82820916 -0.48837942 2.5682926
-0.41061243 -0.63114536 3.4775481
0.58874625 -0.60197526 2.5561423
0.66597241 -0.50315893 2.5926116
0.57779056 -0.50135118 2.6083832
-0.17451014 -0.64985937 3.6086369
-0.12612039 -0.65634012 3.5855892
-0.14238238 -0.64171016 3.5836866
-0.18618667 -0.6198085 3.4272149
0.42609996 -0.606197 3.6949885
0.78674263 -0.99455541 3.5932648
0.78544909 -0.55258417 2.5392063
0.84159678 -0.48212346 2.5710247
0.24216121 -0.33085427 2.9483531
0.83027792 -0.74397111 3.592557
0.8812601 -0.46365795 3.2011802
0.10859817 -0.4881354 3.0031567
0.83839703 -0.75173116 3.5721915
-0.53043854 -0.63644028 3.580971
-0.59076583 -0.59560567 3.5575838
-0.40618056 -0.59546715 3.4434857
-0.64657068 -0.079245456 3.9564044
-0.61665463 -0.081289314 3.9393828
-0.0637995 -0.54350638 3.217253
-0.80020499 -0.4727641 3.1491704
-0.79823315 -0.4727608 3.1484385
-0.80037141 -0.47950673 3.1557631
-0.30414981 -0.61299258 3.5033598
-0.092846125 -0.52286744 3.3317654
-0.70345497 -0.39140433 3.8205678
-0.82758671 -0.40839744 3.8020992
0.50836474 -0.23387404 2.8057554
-0.011682238 -0.38681823 3.0266936
0.075763725 -0.37862229 2.9653306
0.85127628 -0.47575873 3.271112
-0.071819052 -0.59217477 3.5750234
0.81219566 -0.88962835 3.4750855
-0.13824409 -0.36000058 2.9485705
0.83647883 -0.66478974 3.6086643
0.83368063 -0.68109894 3.5971937
0.83026314 -0.73009688 3.5707996
0.29131898 -0.43746966 3.1793661
0.071336776 -0.52118611 3.3684092
-0.89155561 -0.61214328 3.4752178
-1.0337414 -0.55180216 3.2109082
-1.1129479 -0.59488112 3.3949168
0.21641281 -0.28835049 2.921097
0.81771255 -0.93794054 3.6904762
0.18737647 -0.35941976 3.0505924
-0.34676579 -0.59333676 3.5016074
-0.1157112 -0.51964724 3.3109407
-1.2425363 -0.54952437 3.3954997
-0.44030353 -0.3381989 2.9663701
-1.3586825 -0.21003465 3.8047879
-0.17322241 -0.62337637 3.4172516
-0.54634911 -0.64948326 3.581111
0.84960496 -0.38073197 2.9935236
0.92361242 -0.29679969 2.9279802
0.8343581 -0.44935393 2.7461183
0.53304207 -0.34178004 3.0011957
-1.0870308 -0.097685933 4.0435767
0.51781541 -0.37495568 3.0657895
0.29242277 -0.45125264 3.1861179
0.51081228 -0.39483857 3.0509875
0.41191986 -0.40322772 3.1522315
0.10215095 -0.54079908 2.9531295
-0.94660825 -0.53962213 4.0016718
-0.97365552 -0.53152591 4.0034757
0.26398364 -0.32770583 3.0068092
0.068494663 -0.42344633 3.1149728
0.0043836562 -0.34220913 3.0232251
-0.5684256 -0.67067802 3.5490451
0.0040850029 -0.49734426 3.3183424
-0.1240226 -0.480501 3.197834
-0.15955347 -0.41466841 3.0868907
-0.97080207 -0.50543284 4.0224133
-0.99399316 -0.62508327 3.9122739
-0.77879184 -0.43974 3.8052502
0.2702924 -0.34354439 2.9768674
0.80617476 -0.59998983 3.4958339
0.077436842 -0.43218455 3.1318626
0.021698156 -0.35784426 3.0404677
0.005647189 -0.394804 3.0221922
0.80143863 -0.39299074 2.9654717
0.8019315 -0.39092061 2.964962
0.72125953 -0.21197417 2.8021886
0.9565044 -0.27525258 2.9744954
0.89381671 -0.40023273 2.6021628
0.51824093 -0.44498768 2.9370606
0.78528178 -0.5553444 2.5481694
0.89552909 -0.27908114 2.9035792
0.44540501 -0.34181944 2.8651581
0.35187811 -0.45823839 3.1776772
0.32398972 -0.41509756 2.9503853
0.48030576 -0.38615346 3.0319901
0.51350158 -0.24509792 2.8114839
0.22062881 -0.43319881 3.110131
0.84198713 -0.21373025 2.8890045
-0.094823733 -0.44332606 3.2172148
-0.33584344 -0.59465015 3.4996898
-0.56775254 -0.67561042 3.5537705
0.92114419 -0.20436354 2.8497689
0.83857065 0.0021362405 2.3446686
0.87739462 -0.13910037 2.5852959
0.90819603 0.18063027 2.8429434
0.86442405 -0.15822491 2.553863
0.83676165 -0.39973003 3.0286541
0.63745552 -0.5548473 2.569104
0.39868417 -0.44643956 3.2460406
0.92954826 0.21919979 2.9899254
0.95682466 -0.2797578 2.9958267
0.22284271 -0.45109254 3.1837432
0.71501839 -0.41599002 2.6835496
0.55651563 -0.070293993 2.45522
0.41991985 -0.20291099 4.0798769
0.054415017 -0.54466522 3.3821981
0.99587172 -0.3695088 3.0899835
-0.16960402 -0.61472487 3.4064009
-0.06998048 -0.52079797 3.3255591
0.89189935 -0.39878029 2.6028693
0.8732729 -0.35399243 3.0559032
0.83783108 -0.50797963 2.5928099
-0.96562696 -0.43407929 3.2306638
-0.99405825 -0.57910603 3.4154129
0.92087317 -0.29478803 2.9255245
0.82747769 -0.51134759 2.560936
0.89714432 -0.39352274 3.0345731
-0.13031511 -0.43562499 3.0962112
-0.98223871 -0.57444507 3.468878
-1.0232809 -0.60377574 3.2655077
0.90648562 -0.28968444 2.9179437
0.91905898 -0.47072566 3.2352433
0.87771612 -0.30604023 2.9473908
0.89182389 -0.20129238 2.5730684
0.90451217 -0.18963003 2.7219577
0.9206655 -0.19454907 2.733561
0.93427694 -0.19167182 2.7331357
0.92836708 -0.17773081 2.7306838
0.80151165 -0.38802874 2.9825897
0.51382506 -0.43544611 3.1526988
0.47697523 -0.42806563 3.1650362
0.5456118 -0.35397366 3.0528033
0.73123038 -0.40373129 2.6865883
0.91087109 -0.23816372 2.604012
-0.79508871 -0.45307928 3.2486486
-0.7843948 -0.46953866 3.2408774
-1.0304527 -0.63859266 3.5090117
-0.44105461 -0.48274076 3.0167162
0.53140926 0.09001302 2.1389275
-0.10970673 -0.46814263 3.204818
-0.066830471 -0.43711025 3.1913211
-0.22087783 -0.50616038 3.2198963
-0.42671946 -0.41165078 3.0590849
0.92068893 0.071908839 2.8621264
0.75832844 -0.19650634 2.4898884
0.88049942 -0.27144003 2.8941996
0.32128572 -0.3902334 2.8034713
0.54343903 -0.44663793 3.1486523
0.87916356 -0.3923296 2.8095636
0.83673269 0.036303446 2.3795595
0.61327112 -0.58931345 2.5675399
0.66606826 -0.54260361 2.5587807
0.74117804 -0.50202864 2.5843337
0.87657887 -0.33645347 2.9324336
0.12183303 -0.45504403 3.1542144
0.85768896 -0.44468889 2.7337966
-1.568617 -0.50060248 3.5022385
0.67010432 -0.30254528 2.378365
0.9140476 -0.29908988 2.6008394
0.95817333 -0.27103776 3.0022748
-1.0712364 -0.604532 3.4798505
0.56158459 -0.42424279 2.929287
0.36302257 -0.45479584 3.1897881
0.29558852 -0.37685919 2.8068998
-0.098731101 -0.48375183 3.2243822
0.87733155 -0.3403568 2.8532937
0.83624995 -0.31928045 2.8613851
0.5146296 0.0032753637 2.1855295
0.30530328 -0.38229626 2.8043849
0.84840709 0.10102119 2.4195585
0.87448519 -0.17439413 2.5364797
0.095518358 -0.40724835 3.0125778
-0.23594479 -0.5214082 3.2452042
-0.10342767 -0.46437296 3.2025952
0.86294723 -0.44257927 2.7352748
0.76807892 0.79779947 2.3196521
0.7726481 0.78160727 2.3250356
0.80371016 0.67799026 2.3659101
0.87994754 -0.3856546 3.010107
-0.63542998 -0.5338251 3.318989
0.91356194 -0.42529428 2.8161232
0.90012109 -0.16697885 2.7367563
0.33970022 -0.28057346 2.8703244
-0.24270275 -0.5993278 3.4358015
0.38660634 0.81396759 2.2429259
0.58826333 -0.42880553 2.9205348
0.45792431 -0.39791349 2.3865418
0.86983305 -0.28406167 2.5265563
0.89467883 -0.15277353 2.6338778
0.48596305 0.014053428 2.1212046
-0.087706082 -0.55084395 3.284827
0.29557005 0.0048170588 2.1728315
0.8567853 -0.32401836 2.7926714
0.99814111 -0.36430901 3.0402434
0.35716698 0.85726595 2.2458351
-0.89757746 -0.4665131 3.2385318
0.25437224 0.071909286 2.1844628
0.84186983 -0.2707814 2.7927792
-0.048268706 0.1128134 2.2027311
0.23848917 0.68801999 2.2901466
0.011583735 0.87331957 2.084682
-0.36851823 0.13555254 2.1066675
0.99721128 -0.43901697 2.9806373
0.90508705 0.36621729 2.9315577
0.92271721 -0.21208784 2.8195741
0.69487011 -0.2271433 2.4064083
-0.22139071 -0.59800744 3.4358654
0.91007179 -0.18335564 2.7358923
0.89294457 -0.15663598 2.6501222
0.86114025 -0.29838082 2.968107
0.25957793 0.78166997 2.3018365
0.99579424 -0.43716642 3.3876429
0.70667803 -0.31253853 2.4449525
0.68753231 -0.66425353 3.5494366
0.95324719 0.1651714 3.0420127
0.8496058 -0.49270964 3.2573404
1.0246642 -0.4202525 3.2089555
0.63951236 -0.5956865 3.4761705
-0.87939745 -0.47640237 3.2386842
-1.0158046 -0.60528952 3.2677672
-1.0189391 -0.54835409 3.2840028
-0.5852623 -0.44533184 3.0314825
0.14149298 -0.43655089 3.2354972
0.37010804 0.053753082 2.264266
0.331936 -0.3487362 2.8248172
0.31636423 -0.33678123 3.0370493
0.89451611 -0.30271503 2.9509881
0.95825565 -0.25896835 2.9694893
0.069928192 -0.53182286 3.4053638
0.49597654 0.051076055 2.1122248
0.53454489 0.012499996 2.1128652
0.87871885 -0.35707164 2.9541469
0.63881958 -0.53348666 2.5854726
0.52508777 -0.42507407 3.1582458
1.0154133 0.079958253 3.7092779
1.0325255 -0.49786451 3.3648174
0.99454421 0.08061026 3.7136509
0.61971182 -0.43233243 2.4436193
0.66593271 -0.074064001 3.829901
0.007496573 0.059442125 2.1868587
0.72774625 -0.31743139 2.4490039
0.91135466 -0.17125247 2.7313354
0.63278496 -0.42369962 2.4492188
0.27990484 0.09122812 2.1595688
0.3299312 0.78656262 2.2639971
-0.1367927 0.10529269 2.0840704
-0.69004732 -0.64145589 4.1827374
0.77277803 -0.32467568 2.9755268
0.54761761 -0.13915639 2.4095483
0.60764897 -0.047902454 3.8843431
0.43575233 -0.023496363 2.3663445
1.1060418 0.22862813 3.0431099
0.39262319 0.041678648 2.2611303
0.39845964 -0.010523022 2.3140061
1.050887 -0.5411278 3.4126894
0.85393339 -0.84043354 3.6403642
0.70598453 -0.68984777 3.5399065
1.0350519 -0.54789656 3.4480009
-0.1307546 -0.078092583 2.5104451
0.33996785 0.60938537 2.5504653
0.91184753 -0.29622436 2.5986342
-0.10810433 -0.10954397 2.484473
0.65547705 -0.50677055 2.3300645
0.5066011 -0.039808147 3.8641269
0.34684092 0.67309046 2.5135086
0.29162931 0.66823226 2.5169945
0.3380425 -0.0055962028 3.8255219
-0.37384915 0.0096303998 2.3141949
-0.96464753 0.087661676 2.2684114
-1.1038702 0.030143756 2.1909127
0.54995793 -0.10115895 2.4134824
0.82686609 -0.74747723 3.7085531
0.77967387 -0.72893918 3.5996573
0.83301544 -0.6878745 3.6420908
-0.15790743 0.10018626 2.1899185
0.70060766 -0.22791475 4.1629491
0.034262467 0.63992363 2.542675
-0.34146312 -0.63376427 2.6103773
0.84576809 -0.21737564 2.5886464
0.65493166 -0.75586963 3.5654073
0.461218 -0.016915027 2.3637209
0.36202446 0.00024896525 2.3780408
0.6617704 -0.50667357 2.3327386
-0.010922589 0.013809766 2.1967225
0.52747244 -0.01530846 2.1718438
0.628326 0.093229219 2.1864786
0.70710123 0.059774373 2.2439525
0.66075975 -0.15257418 2.416389
0.6367656 0.088023797 2.1810944
0.53762299 -0.098242335 2.4186597
0.76711768 -0.14418696 3.7961521
-0.2524215 -0.43009603 2.4611177
0.04629695 -0.080688216 2.3763483
-0.8856101 0.031590037 2.3601902
-1.1129857 -0.084005311 2.3246737
-1.1393164 0.0086360024 2.3464093
0.84867918 -0.32582772 2.7927082
0.67574263 0.030975431 2.2596555
0.67089397 -0.14678895 2.4212382
0.53807586 -0.065605462 2.464155
0.66102022 0.061854802 2.2627366
-0.17913881 0.045612808 2.3566401
0.103099 0.69247609 2.3095145
0.15135969 0.65533817 2.4494321
0.60208589 -0.1540629 3.904768
0.96307737 -0.26906848 2.9561021
0.34218419 0.68232548 2.5404294
-0.6520173 -0.057303458 2.4621832
-0.83256507 -0.20549165 2.4581058
-0.80046439 -0.037867118 2.4908245
1.1037683 0.3483223 3.2912316
-0.12124525 0.053683512 2.1338699
0.57920069 -0.27211946 2.3722751
0.57380062 -0.45407316 2.2968433
-0.35673067 -0.027058488 2.3462629
0.96080202 -0.038993098 3.6792028
0.60700625 -0.25923502 2.4248269
0.83912325 -0.84992212 3.4718616
-0.57732213 -0.67216051 4.0049887
0.84003836 -0.17570192 2.5486274
0.537597 -0.23210031 3.8416433
-0.87710559 -0.0713384 2.4767272
-0.97122723 -0.10309753 2.3225725
0.91264302 -0.39568126 3.0229301
0.49338135 0.012116472 2.1265261
0.91561133 0.39560848 3.0668788
1.0388145 0.18159717 2.9911251
0.89076555 -0.57889134 3.4541609
0.68715495 -0.75811118 3.5659409
0.85250658 -0.230159 2.5234499
0.74702293 -0.10122326 2.4976282
0.53126085 -0.30612314 2.3895168
-0.11820807 -0.32805744 2.4303098
-0.0045120185 0.59631562 2.6686671
0.61488205 0.098601028 3.6862702
0.14515507 0.52179879 2.5877826
0.52836853 -0.1500861 2.4208291
0.60787237 -0.16507314 3.9060857
1.1256357 0.20108557 3.2247329
0.79691452 -0.16465552 2.542028
0.90657997 -0.26019725 2.8737526
0.63666779 -0.43247095 2.3623178
0.19247028 0.15868472 2.0124669
-0.12313684 -0.15525508 2.5227594
-0.095608339 0.046144016 2.1872706
1.1086644 0.36038941 3.2557325
0.74682665 -0.19168667 2.4763
-0.21695587 -0.047770489 2.4108698
-0.26595604 -0.43984872 2.4641743
-0.25195992 -0.38830099 2.4472291
1.0083754 -0.45260316 3.4301684
0.4039847 -0.024993416 2.3485491
-0.33086804 -0.61939901 2.6132996
-0.44815493 -0.098012447 2.4854558
0.57101279 -0.071142867 2.4004757
-0.084210627 -0.22501476 2.5417762
-0.8273856 -0.36880842 2.4084527
0.38837907 0.25858906 2.1526992
0.1082757 0.51656771 2.0492165
0.12077777 0.48998606 2.0750966
0.84518695 -0.32271332 2.7970479
0.57616115 0.10492629 3.7459421
0.48680568 -0.4141629 2.4459522
0.88184327 -0.3972998 2.8042691
0.49966645 -0.11833577 2.4472632
0.64078927 0.088254593 2.1728895
-0.16742754 -0.10883814 2.5448935
-0.42631304 -0.58621001 2.4079757
-0.94636375 -0.3709749 2.4461319
0.63505733 -0.50116575 2.480134
0.34234929 0.78159022 2.2630503
-0.13895975 -0.23879939 2.4735241
0.094157211 0.63812459 2.381727
-1.0010686 -0.36710671 2.4440799
-0.91884571 0.057463557 2.3156028
-1.1496814 -0.6030972 2.3423011
0.31086594 0.059516661 2.023212
1.0019084 -0.397533 3.1888816
0.14937563 0.21901205 1.8447312
-0.22308569 -0.4077681 2.6605434
-0.10494788 -0.26199111 2.6298254
0.81404042 -0.7148034 3.6704314
-0.64229476 -0.064193353 2.4524794
-1.0176353 -0.63167912 2.6621656
0.89160645 -0.12352342 2.6733334
0.27868065 0.088080406 2.1596353
-0.33125353 -0.62779301 2.6047561
0.76997745 -0.15850551 2.5536444
-0.0032284812 0.75299597 2.3364954
-0.18444572 0.78375435 2.3753018
0.91694301 -0.23285916 2.6895673
0.047296617 -0.19438355 2.6883352
-0.44964278 -0.58350348 2.4875042
0.021773361 -0.35543093 2.5904019
-0.16071779 -0.066161849 2.4583011
-0.20474829 -0.40363127 2.6483569
-0.79695839 0.03383201 2.5712514
0.46003148 -0.31070051 2.4612262
0.63710451 -0.27581587 2.3798146
0.86640692 -0.46121967 3.226265
0.6090799 -0.27113089 2.3893046
-0.38374284 0.011883984 2.3163018
-0.5218693 -0.67541784 2.5046511
-0.045533936 -0.22862929 2.6046498
0.61004496 -0.4025405 2.3475981
-0.43472365 -0.09015277 2.5005882
0.62373585 -0.44302014 2.3396013
-0.42588392 -0.61745155 2.5568752
0.58450347 -0.29810271 2.5006092
0.53466243 -0.36407909 2.358572
0.57944465 -0.29037723 2.3729386
0.2894558 0.059972249 2.0462167
0.029404052 0.0013633445 2.297478
0.51850861 -0.33160734 2.4046829
0.35153392 0.67978615 2.5542276
1.1596788 0.10091907 3.1155806
0.92004341 0.41542003 3.0326977
-0.025408652 -0.064974248 2.3810318
0.027891997 0.0066092568 2.2078001
0.55629385 -0.224428 2.3963463
0.49334615 -0.20788716 2.4682322
0.83332479 -0.57649839 2.9817934
0.85480952 -0.40356901 2.4675043
0.51815128 -0.24476305 2.4089072
0.28348282 0.17217107 2.0368171
0.65596557 -0.51548576 2.3466892
0.74788237 0.070744716 2.1213021
0.47744673 -0.31223929 2.4152269
0.43552759 -0.10034508 2.4281483
0.49564064 -0.11343975 2.4448698
0.26827419 -0.34439147 2.5537543
0.57105374 -0.4576098 2.3196199
0.22545113 -0.20213021 2.6104009
0.02578504 -0.33128104 2.5948782
0.9239015 -0.3415305 3.0210874
0.50562882 -0.12028503 2.4228568
0.2942057 -0.20483576 2.6096599
0.63838321 -0.42477864 2.396831
0.52910912 0.092838496 2.1516991
0.65227079 -0.47326022 2.3190911
0.042175323 -0.21745916 2.6233375
0.66436118 -0.49735111 2.3021767
0.60113984 -0.09524902 2.4442916
0.33967996 0.014476134 2.2436528
0.0060926531 -0.010187196 2.320488
0.25336266 -0.29633951 2.5522382
0.50639951 -0.24907863 2.5119338
0.27832064 0.17045864 1.8901256
0.52760267 -0.24742027 2.4157004
0.30825943 0.08210925 2.1996098
0.27375752 0.16260754 2.0267024
0.50567657 -0.45702675 2.3146992
-0.087788887 -0.41109455 2.6326373
-0.24655499 -0.40656489 2.4688652
0.049982306 -0.21952738 2.6984477
0.30482256 0.17850108 2.0488808
0.57109582 -0.48010767 2.2969656
0.26594839 0.38400078 2.0596395
0.54019821 0.099101305 2.1679997
0.35067958 -0.00015940078 2.2389996
0.67551631 -0.29673985 2.4121454
0.38769323 -0.46931067 2.4272926
0.59330928 -0.24650742 2.3620446
0.68258208 0.055159077 2.2178683
-0.08325506 -0.19501035 2.5519483
0.024630254 -0.28801236 2.6046081
0.49457103 -0.38151738 2.3779745
0.60470039 -0.21927778 2.4359581
0.33253664 -0.20204119 2.5816824
0.35689023 -0.23559247 2.5532761
0.71713513 -0.30751738 2.4551547
0.53911936 -0.16784105 2.4140565
0.21746033 0.28000638 2.2561853
0.4524512 -0.087671883 2.4724557
0.55830574 0.07198254 2.1853478
0.38215789 -0.03359117 2.2751427
0.62450826 -0.44455349 2.339678
0.65456098 0.053267039 2.191251
0.51465142 -0.031477742 2.388227
0.39706072 0.030656597 2.2458973
0.47184545 -0.10819999 2.4602206
0.49646661 -0.41991568 2.3506708
0.29049942 0.026407972 2.2941358
0.52041191 -0.03268148 2.3927271
0.47307894 -0.10710394 2.4521654
0.49460346 -0.3962183 2.3497016
0.30802125 -0.0148527 2.28548
0.55433321 -0.24101779 2.3952394
-0.15441969 -0.25922227 2.5572209
0.49136946 -0.27374125 2.428292
0.53700829 -0.20929421 2.4161253
0.51623362 -0.19436456 2.4241612
0.51942861 -0.17440495 2.430891
0.40780467 -0.39556789 2.4623616
0.40564337 -0.40838167 2.4753885
0.4878563 -0.069186978 2.4513876
0.4409107 -0.20510343 2.5356488
0.83099818 -0.24453311 2.5091588
0.23692504 -0.34906459 2.5445611
0.31114092 0.10759912 2.1347482
0.58389741 -0.29124975 2.3919349
0.54502565 -0.22483844 2.3810329
-0.15842222 -0.097720012 2.4993925
0.46281487 -0.30574748 2.3991914
0.052042905 -0.24449506 2.6291535
0.72937959 -0.254628 2.4602821
0.50907701 -0.20185697 2.456548
0.52853888 -0.3995266 2.3629177
1.0132344 -0.532951 3.3487296
0.46974686 -0.37331879 2.411103
0.48761559 -0.010742087 2.1280944
0.70907843 -0.26659489 2.4216392
0.49504462 -0.23035252 2.4193022
0.51235706 -0.48009539 2.3153758
0.4840973 -0.4639118 2.334902
0.48104385 -0.42797875 2.360707
0.51697356 -0.47194961 2.3108974
0.54968405 -0.23997802 2.3921933
0.25164977 -0.34765953 2.5510805
0.34971988 -0.00041942517 2.2417016
0.86073267 0.62882715 2.7186732
0.49850416 -0.22691855 2.4280417
0.68277287 -0.29694408 2.4079738
0.36846808 -0.042829357 2.3069165
0.24582255 -0.35782188 2.5464768
0.35103679 -0.24002692 2.5599701
0.57402068 -0.22671039 2.3784981
0.27732071 -0.16258129 2.6365144
1.682381 0.51097912 2.8477256
0.48863423 0.07810685 2.1781514
0.49693418 -0.37841675 2.3822434
0.56376302 -0.20205818 2.376277
0.6248166 -0.44378906 2.3397732
0.4391903 -0.44484726 2.4125094
0.51554722 -0.076026842 2.4216046
0.40773255 -0.40331221 2.4580634
0.37441891 -0.039208036 2.2859025
0.41145077 -0.24507268 2.5631227
0.70637298 0.068467103 2.2049541
0.22534767 -0.20271201 2.6046739
0.21707906 -0.32767597 2.5432389
0.52404273 -0.19883461 2.4192441
0.40075827 -0.38393739 2.4830484
0.55687076 -0.41592067 2.3471532
0.4993991 -0.19481185 2.4361935
0.62849927 -0.23902883 2.393918
0.6016379 -0.27308658 2.3768332
0.60261452 -0.2563684 2.3742604
0.50960827 -0.30620423 2.4112387
0.65219641 -0.2837452 2.3934968
0.64901656 -0.24042262 2.3829279
0.41785559 -0.24248296 2.5676818
-0.11103688 -0.0043808124 2.2573228
0.39404744 -0.26964048 2.6687264
-0.010120228 -0.068944655 2.3509281
0.41263381 0.036712386 2.2399895
0.35790431 -0.43939674 2.4831958
0.49586371 -0.27013698 2.4120033
0.48902273 -0.25562337 2.4140534
0.49735847 -0.11382896 2.4949908
0.2290742 -0.33659726 2.5536189
0.50257558 -0.28619194 2.4285166
-1.0942011 -0.11822339 2.259166
0.2653937 0.088434435 2.1359806
0.452786 -0.1359411 2.5024881
0.68964273 0.063869238 2.2087967
0.27037588 -0.33497345 2.5424614
0.69051379 -0.11765195 2.449297
0.47490838 -0.17671166 2.4779081
-0.0067767338 0.034706771 2.1897609
0.81752932 -0.2365824 2.5305789
-0.031042689 -0.024728658 2.2638097
-0.08817409 0.011039959 2.2160335
-0.19967103 0.045360558 2.2047689
-0.051685795 -0.0119831 2.2434177
0.013770219 -0.030285085 2.2964718
0.019506238 -0.0098109432 2.2452798
-0.17378381 -0.21242373 2.5282764
-0.15690157 -0.089930415 2.4617851
-0.43937573 -0.38077423 2.3428087
0.52209836 -0.1580815 2.4368548
0.47813824 -0.10143116 2.4488213
0.54028004 -0.1478948 2.4213228
0.50690788 -0.16379437 2.4550455
0.48455146 -0.28251711 2.4488287
0.67692542 -0.29318762 2.404254
0.34165111 0.023699639 2.2619438
0.39389768 -0.3992871 2.4868371
0.63621169 -0.24874401 2.382174
0.52176183 -0.19216911 2.4602277
0.63122356 -0.21173824 2.3843443
0.45834991 -0.1186182 2.4637704
0.47271004 -0.10888751 2.4418912
0.44479361 -0.20127781 2.5193913
-0.01542492 0.022501988 2.1841588
-0.14489466 0.040133964 2.1708426
-0.042107146 -0.051497187 2.3306835
-0.19532427 0.0046683908 2.3207259
0.57191545 0.024526516 2.1461718
0.47644407 -0.27124748 2.4215851
-0.52460188 -0.0014171266 2.3279109
-0.13837169 0.033446267 2.1930687
0.50556833 -0.17877336 2.4366126
0.3634254 -0.15371752 2.5927083
0.39736235 -0.23270057 2.5855889
0.40090895 -0.17194729 2.5953417
0.40090895 -0.17194729 2.5953417
-0.094989546 0.043101184 2.1764205
0.048145376 0.016496444 2.177434
-0.38415402 0.0097749326 2.3093424
-0.23607703 -0.15322034 2.6203194
-0.11296659 0.050847687 2.1669087
-0.36530274 -0.015720267 2.3440452
-0.43832532 -0.26842299 2.3951252
-0.047532316 -0.015814368 2.2525666
-0.010839825 -0.026016204 2.258666
0.22863521 -0.20449568 2.5982034
-0.087980874 0.038757607 2.171104
0.069626153 -0.22690161 2.635216
-0.43964845 -0.020169679 2.3721073
-0.13468324 0.0020868569 2.2538071
-0.52997309 -0.036483239 2.385324
-0.21536621 -0.048476994 2.422363
0.25006795 -0.3447524 2.5455408
-0.20158634 0.051761191 2.219588
-0.15403792 0.038907357 2.1808829
0.45700061 -0.14670119 2.5393147
-0.082903184 0.081932999 2.1670284
-0.080457397 0.040100057 2.185529
-0.56882489 -0.034929167 2.4087222
-0.0018629204 -0.062339775 2.3279686
-0.38027295 0.0099271927 2.3186114
-0.081241429 -0.20494509 2.5024338
-0.094983108 -0.020657748 2.2317305
-0.58553553 -0.042970013 2.4181521
0.11651732 0.082130738 2.1598775
-0.57226986 -0.033298887 2.4106011
-0.58742058 0.0020050628 2.3321776
-0.16248024 0.025089713 2.2199929
-0.38756818 -0.0056885821 2.3331449
-0.17337281 -0.023466609 2.3394647
0.4745411 -0.24561785 2.4262078
0.027744254 -0.33011559 2.5765755
0.035637729 -0.30755523 2.5816367
0.38017732 -0.39198369 2.5060842
-0.52192664 -0.12220199 2.4839408
-0.47535977 -0.64425999 2.3984957
-0.14608954 -0.30143324 2.4573214
-0.52702796 -0.028040821 2.3698792
-0.52550715 -0.40520862 2.3436854
0.22881168 -0.36859518 2.5939906
-1.1480614 -0.61924613 2.3595128
-1.2243383 -0.56164742 2.3680904
-1.1781549 -0.60162115 2.3364027
-1.1745975 -0.57963818 2.3139741
0.44724765 -0.33977038 2.4054568
-0.63154769 0.084705368 2.168154
-0.57562071 0.010253057 2.3218224
0.45614061 -0.1715368 2.4931951
-1.1496071 -0.59451622 2.3478789
-0.86757976 -0.37827304 2.3940549
-0.15506196 -0.19350925 2.5486901
-1.0090168 -0.089537114 2.414536
-0.6218341 0.019106796 2.3311944
-1.1446657 -0.69656277 2.2849228
-0.85321397 -0.37907243 2.4067893
-1.1058589 -0.6524114 2.3888927
-0.76669008 0.050686967 2.249511
-0.92991883 -0.69037336 2.3460717
-1.151544 -0.11980458 2.2445972
-0.14177109 -0.079854935 2.4618189
-0.62670732 0.086278148 2.1598942
-0.70592386 0.031537887 2.2714901
-0.69559741 0.054854415 2.2241683
-0.92855138 -0.72061574 2.4120512
-0.94677508 -0.62721425 2.387259
-1.029663 -0.092218839 2.3955202
-1.0790308 -0.62843341 2.4897764
-1.051062 -0.65428609 2.59466
-0.58374596 -0.040032327 2.368345
-1.1655114 -0.60790199 2.3586912
-0.50455153 -0.61322618 2.4420414
-1.3869101 -0.54693884 2.4797959
-0.53068429 -0.0061522019 2.3510768
-1.1217864 -0.69189131 2.3406084
-0.94681656 -0.62890315 2.440506
-0.83414429 -0.066066742 2.4452438
-0.65406638 -0.076061711 2.3827908
-0.93989915 -0.64666468 2.3886817
-0.92874116 -0.62496454 2.383219
-0.13984974 -0.36273694 2.5243356
-0.27798498 -0.38310024 2.3527491
0.067166314 -0.34531328 2.6405246
-1.3729919 -0.53152233 2.4291291
-1.0111558 -0.70085078 2.5261219
-1.0229737 -0.6640799 2.5426822
-1.0444 -0.59540516 2.5692337
-1.591054 -0.62089151 2.9228978
-1.1105701 -0.58935916 2.4881253
-1.1070796 -0.59061265 2.4785204
-0.84824902 -0.36670446 2.3829129
-1.2643186 0.45175841 1.8742763
-1.1081169 -0.039029162 2.1695952
-0.0041666888 -0.35118973 2.5284271
-0.33273351 -0.10810109 2.5237732
-0.26132384 -0.24610165 2.4872398
-0.94858837 -0.71164709 2.4007726
0.27977604 0.47545436 2.1186039
0.27977604 0.47545436 2.1186039
-0.99733204 -0.91731036 2.616046
-1.0247852 -0.87335628 2.5240514
-0.98040211 -0.86258209 2.5593421
-0.95803624 -0.65992087 2.5839651
-1.0428783 -0.6603539 2.6502008
0.075828061 0.59192884 2.2138841
-0.064535096 0.012432361 2.1952953
-0.48890153 -0.80889738 2.5184491
0.02232551 0.43160373 2.0539258
-0.94992977 -0.71031868 2.3752971
-0.48427957 -0.72904813 2.355191
-0.63666475 0.085097104 2.1740296
0.59259558 -0.42620003 2.3426523
0.75932235 -0.13295721 2.4869726
0.75932235 -0.13295721 2.4869726
0.26098976 -0.16874593 2.6494603
0.26098976 -0.16874593 2.6494603
0.89014739 -0.5346213 2.4203019
0.88732916 -0.48858485 2.4346814
0.87245673 -0.45114413 2.4542441
-0.65713161 -0.026458202 2.3870935
-0.12810037 -0.37308329 2.553741
0.19455718 -0.35013443 2.5198629
0.13382004 0.68236923 2.3201394
-1.2455529 0.49085855 1.8476499
0.45239621 -0.067348123 2.3754835
0.45239621 -0.067348123 2.3754835
0.20705053 -0.26131687 2.8559656
-1.1996763 -0.030616978 2.3285921
-0.67367476 0.062076464 2.2199883
-1.5218389 -0.24939047 2.7118185
-1.1874204 -0.026740257 2.3441064
1.0063958 -0.56573611 2.5190139
-1.0229584 -0.86945295 2.5222936
-1.7220836 0.23774111 3.0958846
-1.7220836 0.23774111 3.0958846
-0.70759207 -0.023969244 2.3486319
-1.7195202 0.18856746 3.0716214
-1.6905186 0.21639118 3.0875368
-1.7097076 0.23766835 3.0904195
-0.69892639 -0.066077441 2.3262634
-1.5434002 0.27380592 3.1464
-1.5434002 0.27380592 3.1464
-0.24068241 -0.0058760899 2.2121601
-0.24072765 -0.04155577 2.415308
-1.2116475 -0.033774484 2.3084044
-0.86168069 -0.61136115 2.4142926
0.022896891 0.90279567 2.1270094
-0.33954057 0.14460595 2.1155932
-0.61097372 0.021110935 2.3072171
-1.3913715 -0.16974118 2.6346726
-0.20207866 0.030938579 2.1816444
-0.69817042 0.051933818 2.2328277
-0.4279224 0.14699607 2.1362274
-0.48774481 -0.60924047 2.426717
-0.1701728 -0.0039863102 2.2812443
-0.49609879 -0.021122219 2.3567388
-0.45559561 -0.70929015 2.4692175
-0.50977677 -0.69362879 2.4015484
-0.30390108 -0.02404603 2.3663065
-0.084490135 0.22195131 1.9432138
-1.152685 -0.60858774 2.3726201
-0.63594335 0.033011682 2.2946334
-0.13486135 0.034960054 2.2014647
-0.32648021 -0.51277208 2.5033746
0.50063711 -0.20182422 2.4218807
0.50423682 -0.19507284 2.4245071
0.40549815 -0.39195246 2.4577641
0.2076302 -0.20382215 2.6773167
0.2076302 -0.20382215 2.6773167
0.065357663 -0.18477234 2.6197577
0.41564906 -0.18201959 2.6180794
0.51084298 -0.30606329 2.3902471
0.73287082 -0.11778665 2.4977791
0.82632059 -0.41535553 2.432245
0.89127094 -0.26280564 2.5661087
0.53284204 -0.42428279 2.3274915
0.58908218 -0.12516595 2.4251454
-0.023683999 -0.012222105 2.2557487
-1.0654414 -0.66405785 2.7505546
-0.89723706 -0.75614172 2.3511996
6.8208499 -1.599815 7.2343206
-1.4428961 0.23868951 2.1285789
-0.93052781 -0.769036 2.3987353
-0.8895905 -0.69519585 2.3722951
0.20213558 -0.30058199 2.551723
-1.7955089 0.077785276 3.1801298
-0.56571549 0.033957057 2.2890368
0.058500495 0.48566553 2.0606399
-1.6077602 -0.63199389 2.9593349
-1.5978532 -0.62969857 2.9255421
-0.86666822 -0.56109232 2.4962311
0.12963998 0.47015578 2.0065393
0.99746364 -0.27402675 2.6492479
0.99746364 -0.27402675 2.6492479
0.40760288 -0.29403654 2.492641
0.1232392 0.5054031 2.2062118
0.16465418 0.56102985 2.1596282
0.22247142 0.5316745 2.3202944
0.22247142 0.5316745 2.3202944
-1.1908503 -0.54626811 2.4435997
-0.33836105 0.0010363172 2.3226521
0.073627219 0.49575728 2.0656831
0.073627219 0.49575728 2.0656831
0.27646306 0.57288569 2.2490461
-1.7153963 0.18591709 3.0021961
-1.2120682 -0.081377268 2.3253949
-0.70833898 0.053616375 2.3190963
-0.47441041 -0.68445289 2.3854253
0.50485176 -0.41859809 2.3433907
0.19543014 0.6706115 2.6843059
-1.6354878 0.0045029302 3.1429513
-1.6354878 0.0045029302 3.1429513
-1.3588006 -0.59798783 2.5944176
-1.5806963 -2.4335818 8.4473515
-1.0586673 -0.34442872 2.4341648
-1.3771187 -0.59513944 2.3624144
5.6757288 -0.32874665 4.3573213
4.3116937 -0.22344232 2.743289
4.4839406 0.054625336 2.97894
4.5320191 0.11751808 3.0654981
0.47151545 -0.017900003 2.1270025
4.0091138 -0.21699618 2.5731182
4.6838493 -0.37714621 2.8664556
3.9704013 -0.09522786 2.6348479
4.0466008 -0.26102683 2.3789933
3.7805567 0.20908688 2.6251442
3.3066542 0.18822604 2.5906346
4.1270194 0.16416594 2.8196764
3.4885039 0.13396817 2.7034283
4.3496661 -0.50920987 2.6012371
4.0679317 -0.27357975 2.5526612
4.1193485 -0.27507463 2.5241218
4.4187136 -0.31588599 2.5776715
4.0898151 -0.1654231 2.3174555
4.7987523 -0.41652 2.6977046
3.9993222 -0.17416735 2.5825689
