# .PCD v0.7 - Point Cloud Data file format
VERSION 0.7
FIELDS x y z
SIZE 4 4 4
TYPE F F F
COUNT 1 1 1
WIDTH 440
HEIGHT 1
VIEWPOINT 0 0 0 1 0 0 0
POINTS 440
DATA ascii
1.9190278 0.78276986 2.0773633
2.1768148 0.27591082 2.6615582
1.6545825 0.55260319 2.2557805
2.0429306 0.24564363 2.8278048
1.6504536 0.44590792 2.4445279
1.6874775 0.31727576 2.6041586
2.1382983 0.83411431 2.1536803
1.899387 0.14188033 2.9941494
2.0571511 0.81159729 2.1900458
2.0818036 0.23214458 2.7145541
1.8226717 0.50225341 2.40044
2.1149886 0.26826045 2.7396662
2.092803 0.22379711 2.7043271
2.0459483 0.28112218 2.6179209
2.0632522 0.81926543 2.1975198
2.1706526 0.12710553 3.002156
2.1808109 0.32837716 2.6965311
2.0367403 0.23204848 2.8185513
2.0786722 0.23399122 2.7051167
2.1982367 0.26575455 2.820739
2.1313457 0.16136351 2.9308088
1.6017751 0.3227759 2.5950241
1.6425194 0.42932305 2.432302
1.3970242 0.23975955 2.5969987
2.0996561 0.23504768 2.7025616
1.5927691 0.2380548 2.7242644
2.3396845 0.21208206 2.8338611
2.236671 0.10493083 3.0415416
2.2064657 0.075887866 3.0695252
2.2378483 0.10491024 3.0414255
2.1773462 0.11919868 3.0131836
2.1673019 0.18142836 2.904072
2.1731575 0.11758618 3.0158317
2.2041354 0.22240514 2.8445148
2.1040766 0.75420707 2.1316655
2.1591005 0.12265163 3.0023923
2.143223 0.15761551 2.9449899
2.144527 0.13893549 2.9695537
2.1485953 0.13799433 2.944952
2.1100376 0.12161492 3.050386
2.1783721 0.31650153 2.676517
2.3293977 0.21050061 2.8273287
2.2151022 0.17881913 2.9214222
2.2027292 0.22350805 2.8466997
2.1799874 0.14716271 2.9995358
2.1823738 0.16376424 2.9340365
2.3392196 0.21105459 2.8097715
2.3414605 0.23891269 2.8481026
2.0941844 0.79726028 2.176919
2.249681 0.17492016 2.9311662
1.8107327 0.18423048 2.9274924
1.5642688 0.24580297 2.7230718
1.5755252 0.24558105 2.7199476
2.1708777 0.3303543 2.6889582
2.0747516 0.23160392 2.6790109
2.2047489 0.44657081 2.5122402
2.208442 0.46924368 2.4896274
2.208715 0.45274964 2.4883955
2.1983316 0.45953524 2.4855492
2.198164 0.45809302 2.485167
2.1993699 0.26557484 2.8216901
1.9883696 0.22907777 2.7177634
2.0621765 0.3791025 2.5452883
1.940345 0.20645338 2.7977183
1.9101167 0.22137988 2.7918963
2.0475256 0.26724103 2.6611149
2.3341699 0.2141948 2.8108597
2.0504272 0.10106575 3.0424368
2.1766317 0.34209597 2.6915042
2.1843314 0.33690521 2.6904564
2.1835182 0.33448207 2.6904993
2.2054739 0.25546569 2.6478143
1.7118838 0.20058621 2.9271243
2.3411777 0.27229565 2.8154669
2.1695428 0.18011692 2.9026506
2.1467161 0.82899189 2.1171925
2.0536251 0.91973418 2.1713738
1.956233 0.2751365 2.6380556
1.8108066 0.10161307 2.85903
2.3371742 0.23434475 2.8514571
2.2217648 0.20605655 2.8792889
2.1896172 0.27070186 2.6677434
1.8689927 0.24412891 2.7440934
2.1871204 0.27426156 2.6684504
1.6635935 0.23172157 2.7510123
1.4368393 -0.058412533 2.4646533
2.1664188 0.11442883 2.9976025
2.1129949 0.74081498 2.133801
2.1778662 0.11742895 3.0103142
2.1896155 0.30272245 2.6758835
2.0197682 0.20296253 2.7618895
2.1923451 0.2475706 2.8186271
2.1937668 0.24646491 2.8193035
2.1592259 0.23102978 2.827338
2.1925862 0.63824457 2.6022074
2.1533124 0.22586221 2.831563
2.1551402 0.19711179 2.8737288
2.295537 0.38299334 2.6454315
2.1204517 0.25280681 2.690922
1.5108705 -0.084789738 2.6047401
2.13711 0.25988856 2.7326317
1.443321 -0.020454701 2.4679224
2.109936 0.26486945 2.745033
2.079386 0.23343205 2.7236435
1.7304536 0.33976063 2.6390531
1.8804041 0.23655871 2.7427309
2.0126839 0.20091218 2.7875943
2.0415206 0.25666022 2.6755238
2.1916122 0.26910511 2.6685252
2.0423167 0.25638407 2.6745491
2.121249 0.76309162 2.1191711
2.0451329 0.28579205 2.6256351
2.1080086 0.78448552 2.1594353
2.0062015 0.22700687 2.7234938
2.192466 0.26944911 2.6675878
1.9879348 0.23172279 2.7168117
1.8238119 0.18438329 2.9331384
2.1860902 0.30617762 2.6748779
1.9406023 0.21247163 2.802227
1.9588319 0.28261414 2.620743
1.7292489 0.20384011 2.7864079
2.1781549 0.12006258 3.0140281
2.2069757 0.1368086 2.9793055
1.9658334 0.20907706 2.7642856
2.179739 0.31107163 2.6778047
2.187176 0.30854595 2.6787174
1.8231492 0.099192478 2.8485551
2.0617676 0.7042408 2.1161971
2.14412 0.14042328 2.9511685
1.8839811 0.07883133 3.0101321
1.8448782 0.34974235 2.5758741
1.8190559 0.27648771 2.7043142
1.8040971 0.35078731 2.592932
1.8599567 0.24529943 2.7452288
1.8895615 0.26789805 2.652884
1.7105726 0.31180999 2.6005847
1.7668902 0.39913195 2.5203264
1.6965144 0.3170583 2.5981331
2.2341444 0.12803902 3.0120299
1.7983458 0.13001373 2.8364944
1.6305389 0.30518889 2.6452262
2.3311365 0.20972526 2.8271298
2.1435533 0.19787537 2.9104297
1.6101594 0.31828624 2.5968926
1.6554506 0.4430694 2.4419701
1.6019009 0.47142106 2.3495243
1.4517274 0.13637029 2.6265311
1.5138152 0.34239045 2.577786
2.1638458 0.32600632 2.6719792
1.4324843 0.45083261 2.3034241
1.5756022 0.4651162 2.3715684
2.1435962 0.15840977 2.9456105
1.5161047 -0.11669684 2.5312216
2.1889019 0.15671536 2.9500248
2.2592154 0.15602195 2.975786
2.0342345 0.2442546 2.8347859
2.1172583 0.31578726 2.5910892
2.0491741 0.24962075 2.7053919
2.1159136 0.30768943 2.5979745
2.1203997 0.31183526 2.5899909
2.0134974 0.2175824 2.7887394
2.0090308 0.21046628 2.7611926
2.036061 0.2034909 2.7392044
2.0357497 0.24557157 2.8384337
1.9395785 0.25592539 2.6724391
2.1032875 0.18593428 2.8814614
2.1818914 0.26132551 2.8983417
2.0580885 0.42603916 2.5533967
2.1690381 0.18043946 2.903137
1.9024458 0.37888518 2.5153055
2.1451356 0.20712279 2.8602138
2.1160922 0.16983171 2.9146636
2.1107845 0.19655508 2.8757355
2.1082408 0.19521271 2.8757036
2.1169207 0.2188343 2.8417449
2.1052516 0.19110128 2.8807671
2.0810919 0.21360619 2.8567376
1.9977013 0.21789645 2.786418
2.0161157 0.23264818 2.8073947
2.0334132 0.10987242 3.0464013
1.8374665 0.12748645 3.02068
1.6746027 0.29827723 2.6301229
1.6016452 0.26656538 2.6770601
1.5649952 0.27043247 2.6566312
1.5202616 0.33216897 2.5809925
1.4262934 0.1079993 2.5496531
1.4097924 0.12719303 2.5248504
1.4852276 0.27424365 2.6605446
1.4270794 0.20760556 2.6299498
1.4158291 0.21126814 2.638289
1.3972453 0.24284802 2.6061711
1.4044192 0.22758082 2.5868082
1.5895568 0.21756698 2.6849709
1.4442022 0.33921155 2.5910239
1.4420061 0.33644503 2.5962594
1.9933946 0.84481764 2.2316558
2.0698638 0.42334118 2.542834
1.3346653 0.49149361 2.4118273
1.4285823 0.22307466 2.638581
1.9789206 0.84997547 2.2220976
1.4995695 0.082676157 2.2532907
1.406478 0.23921308 2.6088898
1.6297051 0.39610633 2.5056026
1.7022702 0.47866681 2.362179
1.9739031 0.8615849 2.2228153
1.7003869 0.49331528 2.3411899
1.6440574 0.43610212 2.4236193
1.6880717 0.49541214 2.3489227
2.1942484 0.17425893 2.9178848
2.0459106 0.28464663 2.6280172
1.3706633 0.45396015 2.3749039
1.6282126 0.4478907 2.3930197
1.6275983 0.44102517 2.388056
2.3312106 0.21938437 2.8362763
1.5353863 0.58703262 2.2823639
1.5839076 0.48318729 2.334327
1.9915494 0.56629449 1.7550868
1.6324519 0.54542345 2.2690315
1.9105955 0.72621131 2.0481811
2.1612885 0.3513858 2.6690354
1.6592494 0.62678736 2.1531963
1.4450387 0.29973063 2.6488738
1.663976 0.62475604 2.1493444
2.1977775 0.45623001 2.5035751
1.4382899 0.45744789 2.2269545
2.1813517 0.31162193 2.678457
1.4012004 0.49324203 2.3527811
1.4890667 0.50801384 2.2982492
1.5673457 0.68887573 2.0404336
1.9307399 1.22168 2.4723115
1.5600603 0.69431216 2.0386498
2.0607839 0.26084507 2.6622365
1.9475107 1.2385598 2.4855537
1.9786516 1.3431947 2.2816722
1.9780902 1.3511417 2.2788215
2.0071957 0.20975715 2.7648368
1.5162783 0.65891135 2.0676208
1.4261291 -0.01167644 2.465781
1.3703773 0.54106754 2.2424624
2.0955162 0.21306708 2.8460529
1.4614887 0.81039745 1.7720213
1.8810673 1.3534516 2.2731206
1.4602807 0.81469744 1.7682182
1.379552 0.60585648 2.1351182
1.8021705 1.3797287 2.3658116
1.8722708 1.350763 2.2738678
1.8290576 1.3197544 2.3779941
1.8702992 1.3449609 2.2772062
1.8007616 1.3623989 2.3755186
1.8137246 1.321474 2.387362
2.050041 0.26748431 2.6586463
2.0694728 0.41994813 2.5571032
1.5235834 0.82695687 1.7286426
2.1990988 0.45832491 2.4997327
2.0511076 0.26635247 2.6574504
1.278877 0.7381348 1.9313784
1.2717763 0.72213048 1.84304
1.2635788 0.77900827 1.7950928
1.9173375 1.2604377 2.2177379
1.260675 0.73330051 1.948112
1.255195 0.81759 1.8078468
1.2893616 0.76014245 1.809436
1.2662809 0.77813268 1.792768
1.2653381 0.81368524 1.8142996
1.2356029 0.75675589 1.8981771
1.9047773 1.2593572 2.1769156
1.0814401 0.66923094 1.8810364
1.0744855 0.62258232 1.8625847
1.0746911 0.71911436 1.9496356
2.1939957 0.17668475 2.9191811
1.1456512 0.73044199 1.8817786
1.1228707 0.75374919 1.8752509
1.4316667 0.055684973 2.5303113
2.2217157 0.20664865 2.8795948
1.8692083 0.28326303 2.6470897
1.8197982 0.17570205 2.8556452
1.8741647 0.24215528 2.7408006
2.03157 0.24896027 2.8365228
2.0191 0.28247333 2.6373992
2.2254658 0.44925457 2.5631013
1.91175 0.37526059 2.5238774
2.245667 0.21257627 2.9173636
1.8995739 0.45700356 2.4038634
1.7031369 0.22744195 2.7494023
1.8351651 0.091279097 2.864562
1.8599014 0.46248674 2.4473467
2.0107529 0.69353426 2.1368713
1.8578684 0.45231655 2.4528959
1.4739633 0.028049717 2.5999775
2.1060832 0.79123729 2.1690266
1.8563988 0.39819682 2.5753844
1.5870236 0.26622745 2.6975307
1.8832617 0.75486571 2.0313468
1.5626303 0.23421024 2.7511923
1.5750452 0.22553326 2.754411
1.9967843 0.78805017 2.1633773
2.0033379 0.78421628 2.1623483
1.7421241 0.48658177 2.4010315
1.7368618 0.47985154 2.3949687
2.1207626 0.31102675 2.589659
1.9566739 0.25430703 2.6671207
2.2168598 0.15024844 2.9625211
2.185195 0.307134 2.7117887
1.8757294 0.823852 2.01353
1.6468143 0.53606975 2.2672668
1.5782073 0.41045716 2.4625337
1.8298969 0.85830957 1.8089106
1.9116749 1.1643993 2.4958341
2.0820122 1.3062493 2.3257425
2.121546 1.3588346 2.2744834
2.0474825 1.3676033 2.310885
1.9304044 1.2222952 2.4742446
1.9363263 1.2180423 2.4663701
1.9554996 1.3457761 2.3691356
2.0297325 1.3459152 2.2295668
1.9991448 1.3072555 2.2981727
2.0279379 1.3751251 2.2213185
1.9087152 1.1666422 2.5101359
2.0443571 1.3285272 2.2358396
1.9136996 1.1598569 2.5041249
1.6395235 0.96356845 1.629886
1.7977898 1.3799311 2.3677874
1.589425 0.97418535 1.5807031
1.6021851 0.97397816 1.5636293
1.9676754 1.3627765 2.1709352
1.7495095 1.3077395 2.2846088
1.7279009 1.3301065 2.2845125
1.1907635 0.77269542 1.7958097
1.2695936 0.7339974 1.9415205
1.6613959 1.3490725 2.3222632
1.32924 0.4457655 1.9255445
1.1187823 0.57316005 1.8123175
2.1004612 0.795636 2.1706946
1.0467831 0.67569089 1.8788582
1.2128849 0.68324572 1.9163913
1.5581175 0.27387562 2.6541991
1.998331 0.22102599 2.7532854
2.1047418 1.3956507 2.151453
1.9567677 1.2266207 2.4857075
1.7303247 1.3268965 2.284328
1.6192557 1.3186893 2.2739713
2.1268783 0.84200716 2.1579466
1.5114002 -0.04323297 2.6252038
2.0098238 0.63522381 2.1043212
1.9896911 0.82989687 2.1898534
1.9117146 1.1639379 2.5060627
1.9752218 1.3503408 2.1682379
1.9646027 1.3763242 2.1489873
1.1233902 0.5689432 1.8183879
1.6269382 1.3128276 2.2762995
1.6001137 1.3521059 2.2631555
1.6261038 1.3127857 2.2737465
1.9171346 0.087670252 3.0621743
1.8210216 0.36552805 2.6043694
1.8359271 1.3210629 2.3816617
1.1143425 0.65016663 1.9008044
1.9201865 0.50413728 2.3840981
1.9664495 0.72883743 2.0440958
1.886516 0.77861333 2.0464108
2.3197744 0.27985856 2.8063006
1.5455428 0.30281755 2.6244836
1.4836006 0.43838772 2.2466457
1.5465105 0.33966306 2.3704984
1.976626 1.2028362 2.4924457
1.7028979 1.4025893 2.3059962
1.4393463 0.3349607 2.6040478
1.512876 -0.040569156 2.6229529
1.853505 0.45347124 2.450824
1.5195831 -0.041617114 2.6309967
2.0869467 0.31659406 2.5761373
1.5817961 0.24543887 2.7186494
1.5811779 0.22254656 2.7566984
1.6215401 0.34222716 2.5685234
2.2233109 0.16876078 2.9355609
2.0088034 0.73234409 1.7536256
1.5388973 0.81188762 1.7561899
1.2665974 0.77824253 1.7911788
-0.25842178 2.5100107 -0.3419072
-0.39592639 2.425355 -0.39350179
-0.31988609 2.5135326 -0.4698413
-0.71563351 2.4078317 -0.44653979
-0.72906917 2.6091049 -0.49303567
-0.64887536 2.4439445 -0.33252734
-0.57511634 2.4344265 -0.41266221
-0.72100562 2.4953706 -0.37651637
-0.95929593 2.5004973 -0.37645561
-1.3670565 2.228025 0.15745044
-0.95625108 2.4077542 -0.45346895
-1.2953175 2.3189242 -0.10034532
-1.2975826 2.1589434 0.24318533
1.5265747 0.82715082 1.7335925
1.4971596 0.87064832 1.7380309
1.6110038 0.96177858 1.5796582
-0.24186008 2.4928639 -0.32562047
-0.21567447 2.5311313 -0.40855372
1.9102433 1.4030741 2.0515323
1.9475054 1.4068115 2.1533246
-0.9253723 2.6004422 -0.64218205
1.3805279 0.54530597 2.2417331
1.4214016 0.81255484 1.7651466
1.2871999 0.55449116 2.1800964
1.6948978 0.31701949 2.6017101
-0.22910638 2.1561036 -0.54155999
1.3807836 0.63520271 2.0841465
2.0791407 0.23519945 2.7192073
-1.0424261 2.3757844 -0.25987855
1.3938582 0.47053832 2.2951119
2.1948576 0.20292933 2.8747509
2.0474808 0.10675792 3.045547
-1.3099893 2.3383772 -0.15612058
1.4501402 0.22114818 2.5925534
1.8944905 0.77989447 2.0732214
-1.2736669 2.206553 -0.14617065
1.9911021 0.83475113 2.2256212
2.0495086 0.10467868 3.0568275
-1.3260188 2.2217882 -0.17876661
1.5801156 0.37654036 2.5277257
-0.92469472 2.5115898 -0.41091061
-1.2937541 2.3542721 -0.30031979
-1.1857238 2.6616867 -0.23762022
1.56943 0.36690158 2.5310416
2.1435578 0.25056317 2.7346981
1.2548662 0.78853589 1.8615474
-1.3205416 1.9167596 -0.046345863
-1.1979381 2.4178798 -0.47901157
-0.88344347 2.390152 -0.45894951
-0.27388412 2.4845364 -0.34650809
-0.21359648 2.4005299 -0.35622233
-0.72066855 2.4641225 -0.34062731
-0.72745371 2.4119968 -0.4577809
-0.24010009 2.3448248 -0.31452909
-1.3498893 2.1033096 0.017840136
-1.3046314 2.190603 0.10239526
-1.1932727 2.4218106 -0.47929707
-0.2117317 2.3040926 -0.25767258
-0.21475077 2.4354498 -0.47791079
-1.3532429 2.0864725 0.07966128
-0.3356069 2.4567223 -0.31156814
-1.3472962 1.9084514 -0.017158074
-0.38297904 2.8217878 -0.32317269
