# .PCD v0.7 - Point Cloud Data file format
VERSION 0.7
FIELDS x y z
SIZE 4 4 4
TYPE F F F
COUNT 1 1 1
WIDTH 506
HEIGHT 1
VIEWPOINT 0 0 0 1 0 0 0
POINTS 506
DATA ascii
1.0210745 1.1112652 1.7512112
1.541728 0.65044075 2.218668
0.86138278 0.73851448 2.0706975
0.9501124 1.1346477 1.70075
1.18668 0.81221443 2.001035
1.3916823 0.53657317 2.3593657
1.3312643 0.4420467 2.435061
1.6458795 0.44322491 2.5031922
1.4987203 0.56332326 2.3331335
0.96528089 0.70824039 2.1447542
1.0049216 0.7102254 2.1287711
1.7314585 0.61191535 2.1976359
1.5854096 0.54946548 2.303998
1.3761749 0.71572173 2.1015019
1.6488671 0.60152715 2.2767546
0.9266457 0.60986567 2.2902362
1.5539672 0.37198615 2.573281
1.3839642 0.37919378 2.5215113
1.5501623 0.60933149 2.2022171
1.1810057 1.0895808 1.7879916
1.699154 0.46088538 2.4336092
1.5086098 0.70685905 2.162693
1.4916756 0.54938138 2.3250852
1.4870926 0.56602716 2.2053714
1.6349186 0.61287081 2.2733881
1.2754301 0.40341154 2.4206753
1.6311666 0.49129325 2.3860471
1.6328807 0.49266762 2.3797634
1.2891929 0.40586501 2.4264464
0.99623859 0.56932127 2.2859042
0.95598525 0.69121635 2.1342068
0.93910444 0.64187956 2.2383623
0.67000365 0.72217035 2.1694493
1.5051488 0.57118988 2.1956098
1.2780495 0.43402699 2.4770255
1.0495695 0.4768354 2.3979936
1.77737 0.58627051 2.2279961
1.7646627 0.50735867 2.3744359
1.7215292 0.479588 2.4011753
1.2149854 1.1150633 1.7314165
1.7650115 0.58729768 2.2083919
1.6479244 0.48901927 2.3944273
1.6612127 0.46948597 2.4143245
1.647801 0.48525888 2.3952937
1.6203065 0.49230421 2.3760669
1.7657574 0.58316392 2.2254479
1.7015082 0.52482653 2.3495023
1.6552664 0.57076085 2.2904649
1.7036196 0.4824678 2.4303613
1.7725704 0.69167709 2.1653244
1.2163277 1.1526721 1.7822405
1.4805166 0.37508762 2.5614133
1.3333833 0.45318148 2.5009353
0.92434442 0.26332194 2.3015008
1.0310315 0.48120454 2.4011381
1.5504892 0.67890137 2.1694674
1.4301276 0.71791899 2.1213105
1.3889246 0.63111335 2.1332591
1.3996824 0.50728875 2.3371935
1.7803417 0.61185437 2.2453115
1.3918847 0.50803447 2.3410566
1.3700231 0.373245 2.5940576
1.767843 0.50613976 2.3725643
1.5549003 0.69134617 2.1712358
1.5117342 0.58791429 2.190346
1.4400111 0.59618336 2.1752903
0.99720705 0.35533771 2.4390752
1.6448033 0.53969395 2.3110492
1.3436784 0.58718342 2.1924787
1.3752509 0.53053629 2.2944567
1.3204284 0.37632883 2.4271884
1.5197424 0.57020688 2.2583723
1.7705282 0.60567123 2.2533829
1.5688125 0.62525874 2.1356094
1.2259959 1.1034992 1.7285041
1.7102978 0.45227876 2.4373467
1.5669489 0.65615284 2.1471708
1.4593495 0.52105749 2.2751112
1.4395711 0.58265758 2.1915975
1.4768205 0.58358711 2.1883109
1.6040547 0.56461626 2.2944994
1.6101917 0.56439155 2.2848878
1.7766856 0.63778418 2.2352121
1.6259807 0.53425735 2.3292191
1.2456913 0.68441015 2.1538496
1.3122827 0.5425154 2.2502079
1.6595361 0.46631566 2.4753823
1.5095607 0.59225053 2.1868002
1.5468581 0.60082656 2.2131047
0.85641164 0.21054073 2.1820068
1.511664 0.59131187 2.1766553
1.5024967 0.57601213 2.2047937
1.5259155 0.59981817 2.2349546
1.4947898 0.56450361 2.2221792
1.127773 0.6076988 2.2825768
1.2349026 0.71126759 2.1354694
1.4699935 0.53448921 2.2569666
1.4385393 0.58298212 2.1941922
1.4389431 0.58292067 2.1929703
1.4186257 0.61520815 2.1504254
1.2855561 0.44316697 2.4752696
1.5327256 0.53272641 2.3388448
1.5715501 0.62457979 2.1342852
1.3654013 0.49738476 2.3557878
1.5628182 0.65893173 2.1479411
1.2514828 0.69696617 2.1499102
1.3491843 0.56363016 2.2228472
1.2332057 1.1058571 1.7305927
1.4100165 0.51669163 2.2974558
1.2298603 0.70654327 2.1393402
1.4053363 0.40257576 2.5660615
1.2070864 0.64294016 2.184334
1.1760613 0.63521808 2.2148786
1.2894258 0.56657326 2.2292111
1.0994476 0.57884598 2.2506158
1.1889123 0.55169034 2.3058739
1.0848719 0.58147418 2.2540553
1.7607477 0.47323322 2.4200697
1.0052931 0.56639701 2.2840576
0.96932334 0.70655823 2.1402378
0.8995766 0.35632405 2.3454249
0.71230984 0.68024397 2.0931113
0.86651444 0.71726334 2.1065638
0.93649435 0.58273083 2.2732508
1.4104471 0.72847933 2.1037424
1.4669602 0.66033649 2.0963662
1.6526752 0.50490278 2.3494163
1.4700259 0.6571241 2.093725
1.1472675 1.3546718 1.7363561
1.4481215 0.52641988 2.2792656
1.2328286 1.2156949 1.7531189
1.5832118 0.51301849 2.3535743
1.6498092 0.60078228 2.3504665
1.5862812 0.52519077 2.346925
1.5841507 0.5233953 2.3476396
1.5756987 0.55022573 2.3160927
1.5828483 0.52194464 2.3511548
1.5839521 0.5184961 2.3528776
1.5493878 0.53741735 2.34216
1.5582201 0.52935815 2.3379488
1.4461005 0.53004402 2.3075972
1.5944766 0.37952656 2.577183
1.4026192 0.52192664 2.3518095
1.3429215 0.45106477 2.4053419
1.4770586 0.37586766 2.561033
1.4015378 0.39704522 2.5703771
1.0354162 0.51157594 2.3581896
1.0355705 0.50928861 2.3547418
1.0200304 0.4819262 2.4018295
0.99380654 0.50736201 2.3494899
0.96949178 0.52652276 2.3355765
0.8518132 0.32831016 2.2798817
0.92178738 0.49575526 2.3822196
0.8673892 0.42126653 2.3664038
0.82577586 0.45158169 2.3595586
0.84819716 0.55582601 2.340831
0.84858161 0.55238485 2.3461127
1.025528 0.50106454 2.329179
1.7727385 0.58303404 2.2193937
1.3284576 0.55971134 2.2154469
0.83423924 0.9062838 1.8982283
0.7889989 0.79495853 1.9766701
1.3997704 0.72169316 2.0882642
0.86962813 0.43619451 2.3757949
1.0254598 1.1695131 1.6481961
0.83579379 0.44960484 2.3583014
1.4940784 0.8353641 2.0150533
1.4751358 0.82297313 1.9870769
0.96481806 0.77035481 2.0372317
1.4204073 0.61409009 2.1522052
0.92420465 0.71096021 2.1022875
0.68217731 0.66731572 2.1818011
0.92530173 0.70905918 2.1053505
1.7694105 0.59167767 2.2341907
0.86761886 0.81288373 2.0014427
1.0110961 1.0559863 1.7201267
1.5310105 0.69889194 2.1571326
0.7163834 0.80859482 2.0371003
0.98253745 0.68819958 2.1090715
1.4861012 0.8184762 2.0042155
0.70028728 0.68972021 2.0157468
0.66671401 0.78393263 2.0702181
0.70020914 0.9548502 1.8314605
0.70245713 0.95435244 1.8276862
1.1126951 1.5199698 2.1675401
0.60860932 0.8739422 1.9150808
1.2614908 0.58168685 2.2444913
1.4505111 0.59152842 2.1755164
1.0634016 1.6674182 1.9879018
1.4479221 0.52515888 2.2832053
0.61878508 0.76057243 2.0703866
1.5586404 0.54026139 2.327033
1.4713544 0.82451701 1.9847376
0.48396954 1.0699921 1.6365216
0.48077622 1.0742055 1.6339793
0.93090302 1.6569028 2.1350946
0.95850796 1.6007055 2.1435423
1.4383241 0.59621596 2.1768882
1.4390236 0.59538037 2.1752567
1.3988774 0.38362667 2.5818059
0.31657848 1.0003626 1.7249405
0.99886829 1.5706778 1.941793
0.35385609 0.9772706 1.8159202
0.34842876 0.98589611 1.7265757
0.3183094 1.0001557 1.7217104
0.32007307 1.0335304 1.746439
0.33314925 0.96707577 1.8275154
0.31020299 0.96953374 1.8396186
1.2239782 1.1588696 1.7303748
1.4835548 0.82361901 2.003417
1.4906725 0.70741141 2.1529098
1.4229537 0.77827287 2.0572512
0.21119604 0.89662415 1.9281207
1.6817039 0.51887161 2.3547366
0.24882118 0.92523313 1.8413215
1.4942073 1.1171305 2.208952
1.3836645 0.71642011 2.0852587
1.4934632 1.0669013 2.1734445
0.67461026 0.6730122 2.1829295
1.458603 0.52981168 2.2669055
1.4911023 0.56389952 2.3456912
1.3997616 0.6063199 2.1702311
1.1653249 1.3448881 1.7270678
1.1889037 0.82415241 2.0026345
1.1759855 0.76873422 2.0191286
1.1552175 0.76398772 2.0742731
1.2306479 0.58245963 2.2677958
1.1570064 0.75330257 2.0788543
1.47566 0.82574117 1.9887351
1.1268425 0.75959605 2.0937448
1.0496272 0.46162829 2.4405823
1.2251635 1.1494957 1.7699124
1.7631434 0.59119332 2.2309678
1.0327294 0.46574509 2.4332309
1.0466182 0.45939943 2.4306588
1.1236374 1.1260104 1.8035161
1.0264759 0.76807284 2.0767467
1.4703572 0.65642035 2.0931859
1.4960815 0.84109181 2.0198469
1.7229415 0.49469432 2.3832831
1.0779651 1.0676671 1.768598
0.88151973 0.8065424 1.9934776
1.4929633 0.83834666 2.0169458
1.5735857 0.62787509 2.2011557
0.81057978 1.2105379 1.6249309
1.1129067 1.4588099 2.1889238
1.451478 0.79821926 2.0226517
1.775025 0.62227982 2.2395053
1.0931163 1.665747 1.9254079
1.116128 1.5178188 2.1595819
1.6942047 0.57906896 2.2983923
1.1185693 1.4542445 2.1952927
1.0115713 1.6833162 1.8933282
0.86333245 1.5812427 2.0698316
0.84011066 1.5990772 2.0803149
1.4256183 0.57332444 2.1848514
0.38399228 0.94861013 1.8525347
0.79059446 1.6028066 2.1414864
1.4153624 0.72326487 2.1334641
1.4915915 0.56236082 2.3439415
1.476355 0.97664243 2.1084671
1.2954378 0.61129576 2.1655195
1.2339904 1.1429379 1.7668151
1.0269614 0.16526976 2.3371832
1.6780596 0.48317331 2.3958168
1.7238443 0.47823736 2.3959572
1.2332301 0.68728423 2.1136324
1.2210907 1.1169838 1.7329408
1.2199686 1.1172152 1.7318839
1.4968239 0.83255827 2.0107577
1.4937038 1.0417426 2.1560655
1.6796864 0.58491349 2.3190267
0.16577576 0.85302347 1.8672121
1.2144368 1.1164135 1.7018311
1.6142386 0.57452369 2.2866659
1.4025002 0.70787895 2.0739706
1.5423378 0.58537418 2.2678819
1.0186911 1.1077754 1.7233751
1.1114327 0.46918872 2.4107709
1.4766763 0.60644203 2.3395841
0.85476869 0.59208542 2.1152418
0.91769195 0.78310192 2.034302
0.81841958 1.2053944 1.6215148
0.8579393 0.59205848 2.108288
1.4337497 0.53521663 2.277123
1.6511445 0.51892012 2.353853
1.5152899 0.69251996 2.1121116
0.87545919 0.73135626 2.0703578
0.96241528 0.67515153 2.1474779
1.5046837 0.57559693 2.2034392
0.88043237 0.58238876 2.2864485
0.71152186 0.69730991 2.1662152
1.3804469 0.73521686 2.1142585
0.84274983 1.5964012 2.0788701
1.4694444 0.60880023 2.1578074
1.1817086 1.0617533 1.7322778
1.3116715 0.4558863 2.4328401
1.2023593 1.1767459 1.6892145
1.7140561 0.46167237 2.4370961
1.3007756 0.46841881 2.4051285
1.3064222 0.68698549 2.1065853
1.5272349 0.60566419 2.2744958
1.1805217 0.6548419 2.2478127
1.6107365 0.54311103 2.3204055
1.4069777 0.75319481 2.093725
1.1257904 0.74255425 2.1133385
1.1620389 0.77724862 2.005796
1.0472528 1.129021 1.6521617
1.0894976 0.56433088 2.3552725
1.1004256 0.57812411 2.2483857
1.1390625 1.1600876 1.8620821
0.54227901 0.74789214 1.9241025
1.7031496 0.64797175 2.2152178
1.0193657 1.6727194 1.8865591
0.61614788 0.8384999 1.9292829
1.515789 0.59664309 2.2946866
0.85158944 1.8057209 1.7949786
0.61008453 0.83746022 1.9323498
1.4455335 0.85757285 1.9787383
1.7016895 0.52394861 2.3448994
0.18346377 0.82047516 1.7784654
0.18642308 0.82399166 1.7740269
0.22947763 0.76653713 1.7703484
1.7223352 0.61389762 2.2048409
1.585241 0.54902059 2.3136854
1.700683 0.52477717 2.348124
1.525249 0.8201136 2.0369318
0.21690692 0.8521058 1.9077817
1.4796807 0.84198588 1.998751
0.21220556 0.85652453 1.9067247
1.5018282 1.0576583 2.1641045
1.3707347 0.54146206 2.2581413
1.3625185 0.55894387 2.2129366
1.4292684 0.51800478 2.3185363
1.3132949 0.59023231 2.1896772
1.4269481 0.50092471 2.3220472
1.4960541 0.37062368 2.5751438
1.1971958 1.0735956 1.7222927
1.1355633 0.78395486 2.0312634
1.1918913 1.3379773 1.7699134
1.490472 0.55107564 2.3281922
1.4549713 0.79204363 2.0234423
1.4072733 0.73793817 2.1105044
1.6078222 0.50043285 2.3683345
1.3877188 0.73051506 2.1095119
1.0739986 1.0751812 1.8233049
1.005881 0.47978604 2.3821409
1.2936109 1.1716051 2.4453244
1.2859071 1.1715631 2.4471679
0.81271434 0.59700704 2.1751847
0.84501064 0.58947474 2.1539049
1.3852488 0.72346491 2.0983598
1.5188333 0.69547611 2.1411681
1.4987075 1.1068431 2.2005911
1.2471693 1.1861049 1.7365479
1.3242016 0.52925962 2.3099952
1.2524266 0.69742566 2.1515641
1.2214018 1.1430407 1.7936475
1.1839744 1.1410822 1.803977
1.1854212 1.1526837 1.8124512
1.2659376 0.47535929 2.4047899
1.2927644 0.44144228 2.4689829
1.2704903 0.51067752 2.3032587
1.087747 0.12927184 2.3050306
1.1897521 1.3687516 1.742936
1.2439982 0.51813239 2.316267
0.97672188 1.6048495 2.1302495
0.60646331 0.86936194 1.905356
0.86368561 1.4815744 2.0497048
0.81487614 1.5134256 2.0740719
0.20561235 1.0375688 1.741125
0.77901161 1.5379573 2.0778511
0.52784836 0.62993038 1.8194991
0.20017283 0.75244415 1.806929
0.44278288 0.62683886 1.8325816
0.48634672 0.53173333 1.7883919
0.21235269 0.95814043 1.8000822
0.16502514 0.77536637 1.8401958
0.30523875 0.94004399 1.8404646
1.3792726 0.51857728 2.3619905
1.1801584 0.82001734 1.999386
1.3437191 0.6317029 2.1432312
1.3815608 0.73474783 2.1146743
1.3482916 0.61949575 2.1469758
1.4612069 0.58843398 2.1855929
0.83414322 0.4471305 2.345726
1.1924564 1.1670202 1.816314
1.5775009 0.5322724 2.3392308
0.24399443 0.84511983 1.9846169
1.428089 0.35689205 2.5550423
1.2310584 1.0716841 1.7119521
0.99985665 1.0739267 1.7989154
1.0334438 0.16734429 2.3342345
1.2678813 0.43983328 2.5243359
1.1732329 0.76130456 2.021132
0.98037267 1.1028895 1.7337313
1.0848138 0.30563015 2.4841416
1.1090517 0.55858058 2.3367927
1.0106173 1.1169497 1.8369328
0.98625642 0.74749738 2.0668783
1.0619125 0.32499388 2.4685419
1.0661713 0.33864433 2.504952
0.83308738 0.2226972 2.1940889
1.1994878 0.40834263 2.4998407
0.884067 0.72945553 2.0787463
0.84603363 0.59491795 2.1209419
0.95897716 0.53734469 2.3308189
1.0530473 1.4486182 1.8448449
0.81141591 0.75058639 2.0457182
1.0144789 1.5300081 1.9054555
0.69369221 0.89010847 1.9197055
0.78179604 0.76338011 2.0269384
0.94427609 0.62787813 2.205673
0.83158714 0.45417872 2.3394611
0.85879868 0.58886486 2.1002178
0.95093215 0.6443972 2.2346313
0.8374064 0.76294541 2.0263739
1.0705903 0.4561637 2.3252232
0.71668178 0.7188105 2.1391666
0.95328885 1.6330122 1.9578649
0.84299904 1.57741 2.1011052
0.82838529 1.5750016 2.1292675
0.81170529 1.7790185 1.7809019
0.98817682 1.5420368 1.8962266
0.16313823 0.75906408 1.8051023
0.20227197 0.70392543 1.8124301
1.0008196 1.50089 1.8630894
0.12571512 0.78314197 1.8576576
0.3205303 0.72771084 1.7660993
0.10927894 0.58038056 1.7929232
0.18997592 0.80691451 1.8364429
0.22755104 0.88963521 1.9345459
1.1871269 0.63416618 2.1926968
1.4142796 0.72808927 2.1486564
1.0494372 0.19773802 2.3715332
1.1377252 0.56400293 2.3399889
1.0585573 0.52503788 2.3376782
1.1940264 0.78813487 2.0267789
0.89693725 1.6021574 2.0536745
0.93067724 0.57799554 2.2832592
0.84930426 0.54995942 2.3540833
0.94408333 0.5832364 2.2803423
0.80901498 0.84496075 1.9477928
1.5017728 0.37023681 2.5664928
1.031533 0.16590434 2.3323109
0.99061674 0.19446768 2.3027861
1.6031222 0.38041216 2.5778179
1.6393586 0.49555022 2.3827965
0.91989273 0.22654969 2.2526057
0.87013865 0.55005354 2.3379574
0.23488688 0.77461815 1.8115097
0.52079928 0.77245325 1.9162081
1.6554945 0.53248674 2.3303595
1.1100845 0.60653621 2.2830722
1.0639427 0.33693641 2.5000284
0.69405675 0.69695646 2.2103403
1.0251968 0.20718308 2.3612509
1.0013602 0.59371686 2.2567508
0.87005752 0.64236271 2.2643359
0.82625443 0.58994865 2.1816058
1.353883 0.39388174 2.5695453
1.0935408 0.5398733 2.3272161
1.0417557 0.3648845 2.4830446
0.48750514 1.1373686 1.6318185
0.38349828 0.91087794 1.7974212
0.55774105 1.0788515 1.6337938
1.2059071 1.1517818 1.703835
0.91977614 1.1201349 1.7105258
1.2001169 1.1795901 1.689139
1.0019678 1.0594143 1.720431
0.67250478 0.91420984 1.8710794
0.31798479 1.0004185 1.7201408
1.7027272 0.65062493 2.2173073
0.91304624 0.39966366 2.393141
-2.9557233 1.4758484 1.3890116
-2.9560232 1.5736319 1.3865519
-3.6656585 1.6584166 1.7524279
-5.0993199 1.5924077 2.2597904
0.83373863 0.90527183 1.896235
0.52644628 1.101042 1.5797302
0.4782449 1.0875124 1.6397346
1.0846202 1.3810159 1.7805387
0.62713706 0.76669252 2.0666027
0.33848748 0.95996177 1.8220139
0.986323 1.5923665 1.947121
0.47590071 0.90246141 1.9228729
1.542706 0.37092549 2.5757844
1.492628 0.5664553 2.2183869
1.6060058 0.41501427 2.5153856
0.87233794 0.44114858 2.3252466
1.3455776 0.54875243 2.2520704
1.6124157 0.41268429 2.5248284
0.93586427 0.61027718 2.2438972
0.49368387 1.1105231 1.5786626
1.2944229 1.174282 2.4511626
-2.8203611 1.5782332 1.3616914
-3.3437624 1.6816448 1.6699108
1.7081193 0.65385711 2.2095814
1.0177487 1.5581603 1.8343176
-3.5628674 1.6271936 1.6386982
0.61650211 0.83570617 1.9299413
0.9938345 1.5324233 1.8912853
0.21308126 0.93739569 1.8100492
0.22739843 0.77601308 1.7902893
-2.8662896 1.8839781 1.4098579
-3.0891597 2.1053441 1.6462498
