# .PCD v0.7 - Point Cloud Data file format
VERSION 0.7
FIELDS x y z
SIZE 4 4 4
TYPE F F F
COUNT 1 1 1
WIDTH 578
HEIGHT 1
VIEWPOINT 0 0 0 1 0 0 0
POINTS 578
DATA ascii
0.40510601 0.89161873 1.9460208
0.42961913 0.88582945 1.9470351
0.41866761 0.88773251 1.9520252
1.2134 0.8674736 2.0020573
1.2540472 0.94724613 1.9704729
1.2924519 0.90604401 1.9062488
0.6416201 1.3996665 1.564227
1.1805929 0.82341683 2.037411
0.92802447 0.9934327 1.8709735
1.1065139 0.68226862 2.2796772
0.91359651 0.95076036 1.8795453
0.64257288 0.74897164 2.0815587
0.60377055 1.3527118 1.633343
1.0723718 0.82184094 1.9651126
0.94205558 0.64959103 2.2470596
0.62047315 0.98782873 1.8813779
0.90404278 0.7990579 2.0099289
-0.068021446 0.99772519 1.9231744
1.1021494 0.86719769 1.9747185
1.0778054 0.8173297 1.949448
0.97753632 0.85484797 1.9108987
0.61051786 1.3620734 1.6376691
1.3291004 0.75634021 2.1424325
1.1136589 0.94463176 1.9140658
1.2128458 0.89323127 1.9987583
0.92494601 0.63262832 2.2085166
0.5161761 0.86102664 1.990154
0.4617863 0.49973392 2.1468933
0.24057913 0.84723085 2.0787072
0.014961853 0.85555249 2.028218
1.2042159 0.75927031 2.255002
0.69010246 0.66912651 2.2293708
1.2745605 0.86962998 2.0744159
1.3417779 0.77771062 2.1065857
1.2873508 0.75848997 2.1306953
1.2879549 0.75524592 2.1768248
1.2908453 0.79361439 2.0852602
0.89698267 0.63567406 2.200423
1.2532748 0.66037661 2.3001642
1.0855217 0.62801957 2.3157487
0.62984425 1.3509207 1.6006888
1.1545603 0.63963997 2.3080051
0.98825091 0.69242442 2.2770309
0.5844503 0.43675762 2.1557333
0.67202443 0.6705814 2.2359815
0.98289305 1.083187 1.7493881
0.96925974 0.96180296 1.8889136
0.97540969 1.0706559 1.7496643
1.2143101 0.89344519 1.9989341
0.94527745 0.86983627 1.9074247
0.72721767 0.39470556 2.2015426
1.0062767 0.84298939 1.9439785
1.053817 0.62104523 2.3607576
1.1037656 0.95616525 1.914276
0.6662308 0.54170549 2.2782097
1.2515495 0.79610759 2.0773461
1.2589829 0.80437165 2.0683429
1.1128558 0.89293373 1.8878134
0.93006521 1.1016326 1.7547398
0.46423694 0.61400717 2.2208173
0.95238596 0.97028255 1.857639
0.76238471 0.68655795 2.2137802
1.3024468 0.78020084 2.1185558
0.63696277 1.3028675 1.5455592
1.2117374 0.87597269 1.9967527
1.0129462 0.83108133 1.9547046
1.1944993 0.8411305 2.0247521
1.3392276 0.9394235 1.9349626
0.80181408 0.90029788 1.955076
1.1609515 1.0325705 1.8203301
0.71917987 0.36867723 2.1613474
1.0774736 0.8346799 1.9558001
1.1020461 0.86244738 1.9812952
1.0770001 0.83382636 1.9520522
1.0750693 0.8224352 1.9741951
1.3412645 0.91212314 1.9359964
1.0327233 0.8601262 1.9176571
0.78367102 0.924766 1.9393378
1.0125521 0.83126837 1.9561735
1.019037 0.79263908 2.0112066
0.99964797 0.79106277 2.0159118
0.95445973 0.7546593 2.0967364
1.0025142 0.78847331 2.0147829
1.0016143 0.69690669 2.2749588
0.93415642 0.79865873 2.0021315
0.90991265 0.82807803 1.9589598
0.97877264 0.6146239 2.1905787
0.78025258 0.91938132 1.9440333
0.77663916 0.85385567 1.9918011
0.75348449 0.84192878 2.0275331
0.69479614 0.77488846 2.0763788
0.70743966 0.80209678 2.1047406
1.1261711 0.88710743 1.8618222
0.57771575 0.43654007 2.1612151
0.6800549 0.55965447 2.2940004
0.52780718 0.87838954 1.9937454
0.31317478 0.79694593 2.0361679
0.55392355 0.52552038 2.2045336
0.51849067 0.73965168 2.1649406
0.94525188 0.96323746 1.8936496
0.17705619 0.86639726 2.0926728
0.37339014 0.85385466 1.9632778
0.14163683 0.89239669 2.0067124
1.1102881 0.95174426 1.9101264
0.63043183 1.4151884 1.5696802
0.91120702 0.9947198 1.8741838
1.1844712 0.82904553 2.0426912
1.1932963 0.80040544 2.0791464
1.1916482 0.79831088 2.0802281
1.173316 0.82286912 2.0511189
1.1932092 0.79354233 2.0853567
1.2498093 0.69634485 2.2482758
1.1510131 0.63985842 2.3082883
1.0761842 0.64905477 2.3318515
0.59294116 0.70438546 2.1836143
0.53260338 0.52076876 2.1931465
0.51635754 0.58497274 2.2318809
0.51829475 0.5843755 2.2317665
0.5053817 0.71029329 2.2085052
0.97735101 0.9012177 1.8621334
0.78271371 0.91940534 1.9444748
1.0647267 0.76606268 2.0597155
0.8782227 0.76905763 2.0608666
0.32002974 1.0497007 1.7835368
0.38233456 0.88742244 1.9772964
0.27539769 0.88570237 1.9972749
0.93305683 0.96011895 1.8621858
0.51792014 0.60024339 2.2408483
0.9928357 1.0858042 1.7738419
0.26336917 0.79522306 2.0879588
1.0348985 0.85329705 1.928157
0.38645005 0.96470755 1.8776404
0.15784766 0.81445646 2.0437815
0.3236742 1.0478557 1.7739196
0.24636935 0.81702816 1.9217076
0.26435959 0.84188527 2.0599115
0.17147575 1.0750651 1.7394726
0.96924138 0.61318368 2.2225654
0.16167322 1.0780245 1.7468013
0.16726798 0.98754138 1.8263758
0.10952917 0.9825626 1.8420247
1.0320238 0.85983706 1.918869
0.15288395 1.0308617 1.7881271
1.1603967 0.81055355 2.0649531
1.2915094 0.79310971 2.0803359
0.96685737 1.0709381 1.7482059
0.09675201 0.93755895 1.9073268
1.0068445 0.84399116 1.9406387
0.92392486 0.99271291 1.8703535
0.12154827 0.94776636 1.856836
0.98410481 1.0700094 1.7609429
-0.13112736 1.0264679 1.810843
-0.18864188 1.0294735 1.8086601
-0.20514102 1.0280516 1.8246096
0.62659448 1.3572551 1.5483792
-0.29759496 0.84972465 1.8410287
-0.2769472 0.94263011 1.9295645
1.2882749 0.80934036 2.0688655
0.91771406 0.95231938 1.8621949
0.78885424 0.94908768 1.9396948
1.2404649 0.85508418 2.0123606
1.0420816 1.0710894 1.7987659
0.69572425 0.97000909 1.8367351
0.70400351 0.9609049 1.901758
1.0116538 0.8385902 1.9457527
0.5873484 0.42980126 2.1530213
0.97158492 1.0729009 1.7513387
0.66345829 0.95467186 1.9191353
0.99656039 0.61092639 2.1968501
0.73389751 0.67556107 2.266012
0.39574763 1.2399081 1.5819312
0.55605197 0.93873572 1.9179139
1.1438167 0.81071919 2.1056683
0.39944378 0.96048331 1.8671424
0.25915241 0.93187934 1.9456049
0.28106707 0.84059232 2.0474191
0.95882809 1.0425667 1.788884
0.56193388 1.6460698 2.0367515
0.27348688 1.7239697 1.954003
1.336261 0.88485843 1.9279201
1.2610823 0.87547594 1.9919767
-0.13175096 1.0197245 1.823504
0.97110677 0.84604001 1.9366622
1.010639 0.90943366 1.85404
0.78176594 0.90040642 1.9179407
0.62957972 1.3155253 1.5501581
0.99513948 1.0833843 1.7690775
1.0857766 0.84983009 1.9086589
0.61974329 1.3754419 1.5350282
1.3433142 0.91209728 1.9368269
0.50542402 1.207226 1.6411172
0.97227889 1.0560344 1.769214
0.62035644 1.3433341 1.6226667
1.0861918 0.80788118 2.0562093
0.96591794 1.0915152 1.7803986
1.0104728 0.96337354 1.9101574
0.52709019 0.4840458 2.1679957
0.61442447 0.69054645 2.194628
0.43018258 0.74685144 1.9894145
0.52743113 0.84643078 2.0018086
0.29306424 0.85558838 2.0443919
0.48857579 0.74458408 2.1526611
1.035949 1.0725374 1.7834134
0.28416389 0.82916081 2.0674777
0.25281996 1.7358679 1.9669039
1.0314631 0.86095238 1.9162018
0.24541244 1.6548353 1.9623713
1.324852 0.93931961 1.9304397
1.0927929 0.79820818 2.0680106
0.59511715 1.3707159 1.5121976
1.3440759 0.75953025 2.1430731
1.0577315 0.82352251 1.9561359
1.2092191 0.82144368 2.0487103
0.56905937 1.1690395 1.5574757
0.66879433 0.93805385 1.938392
0.70802432 0.80073023 2.10076
1.0988889 0.82249963 2.0875309
0.70699215 0.76098657 2.1808808
0.69544208 0.77428716 2.073997
0.56866825 1.3475993 1.6936729
0.56283379 1.6444123 2.0313344
1.211616 0.8037405 2.0925651
0.067290209 0.84982508 1.8612945
0.066847146 0.84783602 1.8619421
0.069258772 0.84072983 1.8618578
1.2625824 0.93752187 1.9292173
0.12509903 0.94902688 1.8541746
1.0562738 0.83264726 1.9533441
0.1199575 0.9471041 1.858312
0.93547112 1.0993954 1.7475135
-0.22612965 0.77406126 1.8192648
-0.31973737 0.86022389 1.7869366
-0.31825349 0.86407715 1.7820609
1.182309 0.82313579 2.0469527
1.0295575 1.0760721 1.7893229
-0.26816446 0.89918661 1.9080309
0.97478354 1.0897642 1.7606003
0.92014247 0.80887032 1.980171
0.88895452 0.81864035 1.9765681
0.88582569 0.80516624 1.9914618
0.65638983 0.97890371 1.8563963
0.69727278 0.76601744 2.1006656
0.96333992 1.0370344 1.7889384
1.0032187 0.88592046 1.8829515
0.94191486 0.97776401 1.8828017
1.2220981 0.77976108 2.0958676
0.59536409 0.7625221 2.1180952
1.2819314 0.78482002 2.0901408
0.57358468 0.77727503 2.100183
1.1244965 0.89180225 1.8752348
1.3307221 0.8876425 1.9116124
0.93672246 1.1094992 1.7556462
0.39982435 0.74623233 2.0562274
0.42835557 0.74347478 2.0291905
0.92058218 0.95977437 1.8748429
0.62466252 1.4182062 1.5560001
1.1249189 0.89247221 1.8718386
0.52896518 1.2397063 1.6063786
1.0927974 0.93215925 1.9369283
0.5625453 1.5593307 1.5694225
0.85681754 0.73895627 2.1131077
0.73868859 0.72075629 2.3031712
0.76895469 0.86155748 2.0306849
0.80889511 0.88952851 1.9885231
1.2129881 0.88689065 1.9963675
0.95201945 0.80887866 1.993161
1.2769564 0.90844744 1.9393712
0.97607303 1.097085 1.7606057
0.10635696 0.97751695 1.8328252
1.3496449 0.76981169 2.202296
-0.027560566 0.71090293 1.7893751
-0.30947322 1.0011076 1.8042573
-0.25385389 0.95192748 1.920921
-0.20900741 0.99863619 1.8263153
-0.26093486 0.90963244 1.9341031
1.0929846 0.80188847 2.0592396
0.5749321 1.2330893 1.5909916
1.327224 0.93756664 1.9318075
1.1148982 0.78469801 1.8567483
0.65636164 0.96954703 1.8748548
0.77084118 0.90501779 1.9328657
0.78402203 0.87953359 1.918499
0.94091797 1.0114592 1.8314512
0.43615565 1.2753704 1.5998232
0.5379861 0.91523069 1.9311881
1.2205597 0.83127129 2.0474112
0.48600838 0.89922863 1.9432062
1.1133103 0.83963096 1.9745982
0.67185593 0.95305747 1.8740431
1.1803902 0.81423664 2.0733738
1.1159936 0.92274618 1.8835666
0.95512599 0.71614516 2.2521408
0.98352152 0.68151522 2.3121471
1.0632482 0.78146714 2.012248
1.3520323 0.91851455 1.9542325
0.51514697 1.4199768 1.6791954
0.9182682 0.97064495 1.8916817
0.93782067 0.81554854 1.9817566
1.1069427 0.95290184 1.9167409
0.26247528 0.8102563 1.9387829
1.0318884 0.84007686 1.9448149
0.31123278 0.87986857 1.9663049
1.0524749 0.82679808 1.9669274
0.90836877 0.86381209 1.9114879
1.05328 0.78568214 2.0079951
1.0283067 0.82863927 1.9358642
-0.333875 1.0258344 1.8090731
-0.22718997 0.73046362 1.8693402
1.1124506 0.95172524 1.9188221
0.93675524 1.0112408 1.836915
-0.50386947 0.67166048 1.834484
0.93591464 0.79959249 2.0003476
0.88919306 0.80859298 1.9898937
0.71051329 0.98106426 1.8549129
0.95776498 1.0474564 1.7828555
0.93757403 0.80128217 2.0056899
0.68543202 0.99357134 1.8346918
0.81975621 0.9386155 1.9459331
0.64381415 1.2719368 1.5280054
1.2598734 0.79385257 2.0868618
1.0631731 0.61014837 2.3502862
1.3401641 0.88466197 1.9183959
1.1138781 0.87246764 1.9497445
0.95047975 0.77915037 2.0507934
0.9544971 0.78217191 2.0372782
0.4355334 1.239405 1.6567792
0.95548528 0.6277765 2.2621772
1.2223415 0.82985568 2.0371938
0.64646405 0.98900396 1.8618827
0.55111724 1.361707 1.7074065
0.74678254 0.43327391 2.2399893
0.46789902 1.2673808 1.5790406
1.2519652 1.0070771 1.8438903
0.44607145 1.2406819 1.654968
0.76745468 0.50728118 2.3055127
0.67032081 0.74597728 2.1483648
0.56906098 1.2972411 1.5317632
1.3422513 0.90814006 1.9396039
0.45268252 0.93815356 1.8979425
0.54667091 0.7631014 2.1291449
0.43003678 0.88639981 1.9495763
0.42232966 0.74838144 1.9966815
0.52639246 0.72932869 2.1670237
0.33719793 0.97526163 1.8422594
0.93138808 0.87256593 1.9189233
0.31583318 0.90280336 1.9182277
0.47140479 0.6113171 2.2124865
0.28677988 0.81483489 1.9190956
0.98536062 1.0665835 1.6703923
0.38018888 0.9657526 1.855657
0.53744119 0.81592 2.0892289
0.36971503 0.9111197 1.9072459
0.31609696 0.98929238 1.8279988
0.47527787 0.86784571 1.9652222
0.15482664 1.0106401 1.7981936
0.1214546 0.97127557 1.8406222
-0.32475233 0.79689783 1.8162392
-0.27671573 0.74875885 1.8155004
-0.25801486 0.94139141 1.9215182
-0.25878388 0.93842745 1.9327338
1.3487852 0.92066735 1.9605868
0.7291947 0.39303657 2.2003593
0.61702228 1.283923 1.6049311
0.69520146 0.78755349 2.1324921
0.49186274 1.0018811 1.8536253
1.014129 0.75881416 2.109448
1.1012319 0.82140476 2.0803375
0.87912077 0.82645875 1.9868031
1.0788962 0.80128777 2.0716066
0.50818115 0.89440984 1.9437723
0.47158429 0.90441728 1.9332184
0.67992455 0.71698356 2.1689696
1.0712444 0.79391581 2.075702
0.94842333 0.90584636 1.8521905
1.1990737 0.81121123 2.043009
1.2400316 0.85489124 2.0159447
0.91987103 0.8220011 1.9754472
1.0657213 0.76749051 2.0518351
1.0730181 0.76628327 2.0352075
0.71157533 0.99215078 1.84108
0.89091587 0.80802435 1.9845445
0.69361115 0.96921539 1.8331182
0.73520213 0.9640978 1.7861426
0.8777166 0.79882628 2.0100963
0.69930798 0.94827878 1.9147981
0.59192401 1.3238188 1.667333
0.61264133 0.56434852 2.2555773
0.96610022 1.0680227 1.7958882
0.60472518 0.65914643 2.2065604
0.56574178 0.66259927 2.2444706
1.2613856 0.94418848 1.926756
0.043972429 0.84397888 2.2504454
0.5373916 0.74809712 2.1400638
-0.31081998 0.79248738 1.7632641
-0.33100334 0.79191864 1.7730116
-0.20192897 0.76826274 1.8043823
-0.25530002 0.7777307 1.8347937
-0.36111951 0.75793183 1.8456709
0.84706497 1.3343793 2.6714644
0.86763543 1.3275995 2.6380298
0.60317034 1.3193456 1.5265899
-0.22750081 0.73281586 1.8603505
-0.22546239 0.71595442 1.8734214
-0.20472892 0.95558017 1.8782307
-0.28265694 0.90275431 1.9338181
1.1250081 0.89296544 1.8761139
-0.22731796 0.89663386 1.9678301
-0.38830262 1.5908725 2.3102357
1.084264 0.84680194 1.9347157
0.98448902 0.71553129 2.2137115
0.65539056 1.3406334 1.5716045
1.1061158 0.87072909 1.9663694
1.2254783 0.81508118 2.0533018
0.70641804 0.7395317 2.152195
0.33820051 0.93373311 1.8938123
0.46376735 1.7213486 1.934455
0.42009234 0.88655281 1.944342
0.51943666 0.40708321 2.0987787
0.6026302 0.75064987 2.125154
0.92720425 0.64543515 2.2763858
1.1157768 0.91905397 1.9317062
0.52036589 0.7811904 2.1106734
0.55071241 0.82889128 2.1015351
0.54901576 0.75532693 2.1347432
0.76466078 0.51662087 2.3090098
0.58687484 0.71420306 2.1775329
0.76529837 0.54257876 2.3193631
0.57767588 0.70824134 2.2017138
0.5455476 0.71384758 2.1616356
0.60728794 0.66280413 2.2357178
0.83341449 0.61309159 2.37044
0.60286218 0.56626391 2.2567348
0.56527478 0.66174734 2.2569075
0.36949593 0.52212119 1.9590367
0.92415118 0.82085139 1.9680042
1.114179 1.0423838 1.7933018
0.96904337 0.7803309 2.0120409
0.60789412 1.3136486 1.5229474
0.63579583 0.75050449 2.281024
0.64043194 0.44480303 2.1949065
0.38165438 0.94175255 1.8782535
0.41237685 0.89897126 1.9169282
0.31453332 0.9861275 1.8362783
0.61788201 0.46324143 2.1979771
0.73021454 0.519521 2.3008177
0.17413901 0.78124923 2.2066736
0.72620779 0.69152588 2.1947761
0.82103282 0.93186557 1.9377981
1.2829236 0.78339702 2.1093671
1.2281705 0.80486798 2.0643113
1.091098 0.79626453 2.0868995
1.0129544 0.761388 2.0931079
0.9809441 0.73351288 2.1302521
0.6860199 0.95256531 1.8995178
1.3386517 0.92815751 1.915609
1.0012012 0.61129403 2.1934168
0.46602207 0.89907885 1.9847715
0.70954692 0.35803857 2.1648428
0.72547448 0.39394474 2.202383
1.2756574 0.66451532 2.3011971
0.68281305 0.99172312 1.8065349
1.1047944 0.86428034 2.0171404
1.0087352 0.79281557 1.999963
0.91928333 0.80774301 2.0018778
0.18901239 1.0108032 1.7942622
0.3380262 0.89851952 1.9192771
0.75848514 1.4821945 2.1815991
0.74211645 0.52502966 2.3003476
0.24206455 0.93993205 1.8642256
0.19963725 0.95176452 1.8409206
1.2140365 0.89344764 1.9952627
0.18659842 0.948039 1.8959923
0.55263364 0.52768344 2.2081358
1.0579671 0.82676619 1.9670303
0.12014994 0.94443369 1.8852662
0.493332 0.71201986 2.2048306
0.25226453 1.7294282 2.001116
0.16254719 0.90536982 2.087343
0.57973409 0.65081495 2.2733955
0.52256215 0.58279222 2.2367539
0.1782293 0.8614009 2.117944
0.14283518 0.94121248 1.8588372
-0.25074399 0.78999549 1.7944132
-0.21670783 0.78574008 1.795
-0.30627519 0.84251857 1.8342894
-0.22993045 0.69960284 1.8949577
-0.24483611 0.9585259 1.9030331
-0.22188823 0.73439658 1.8645331
-0.22496712 0.90778095 1.9706109
0.040660091 0.86855346 1.858482
-0.2239019 0.90627122 1.9695084
-0.25761023 0.88835031 1.9900259
-0.36356795 0.9007141 2.0409977
-0.33651403 0.89687192 1.9375902
0.85477036 0.77099854 2.0846643
0.86590225 0.82241625 2.0036345
0.49406874 1.0054812 1.8402331
0.94897693 0.85906029 1.9240683
0.98060811 0.90137231 1.8646351
0.73425233 0.84656668 1.997619
0.49001557 1.0047555 1.8464723
0.76308227 0.74899107 2.1732345
0.53526586 0.93348837 1.902774
0.47343481 0.9513166 1.8838577
0.4427582 0.95678878 1.8834443
0.87239444 0.66774863 2.2373254
0.36502087 0.98205984 1.8419358
0.24395539 1.0101504 1.7967871
0.36189675 0.92838353 1.8956791
0.24267174 1.0080479 1.8036078
0.30233544 0.95697063 1.8629541
0.57578611 0.82700509 2.0774992
1.2318716 0.86468613 2.0383303
1.2714504 0.76742488 2.1136031
-0.21004011 0.70095569 1.8859316
0.99684811 1.0827436 1.7663304
0.90529948 0.82965595 1.9593562
0.56021106 0.94580871 1.9201109
0.57173443 0.76539057 2.0963707
0.74523193 0.53520787 2.3253706
0.7403639 0.54602903 2.3184736
0.27552727 0.82690346 2.1140878
0.53574437 0.75308615 2.1348796
0.037536584 0.87243205 1.8701292
0.67630357 0.6724562 2.2315993
0.74947441 0.70962727 2.2153659
0.50028789 0.41148379 2.0876956
1.3225818 0.81163335 2.0659921
0.4648968 0.80174345 2.1335409
0.71141541 0.80297261 2.1167648
0.91274494 0.64336848 2.2997658
0.5257861 0.67860901 2.2770977
0.94106936 0.64365447 2.2403743
1.1739143 0.6382457 2.3140862
0.78648996 0.90195823 1.9213198
0.52771616 0.88747263 1.9501528
0.81298792 0.91619343 1.9471358
0.49588349 0.94279468 1.8943464
0.55211514 0.54525942 2.2030087
0.74634141 0.84239149 2.0300612
0.57934731 0.67959332 2.2284408
0.53739512 0.89036191 1.9976423
-0.27540776 0.98342317 1.8153378
0.40879527 1.2840568 1.5898664
0.32471326 0.89123142 1.9557527
-0.41339839 0.8928898 1.9602082
0.62681717 1.3575245 1.5953784
0.15689103 1.0315421 1.7872699
-0.18103369 1.0009094 1.8119193
0.075017825 0.92278481 1.9297417
-0.03874651 1.0148646 1.8553318
-0.13489431 1.0294815 1.808104
-0.24010193 0.7605955 1.8241394
0.76317346 0.52505952 2.3147581
0.062858932 0.85983783 1.9847933
1.2182006 0.64559692 2.3104196
0.65697682 0.65417767 2.2613983
1.071956 0.8239494 1.9708968
0.51032287 0.60459727 2.1907449
1.1576636 0.64002573 2.3102682
0.53387785 0.79255754 2.0940025
0.52996123 0.78003603 2.1007817
0.57773888 0.5704754 2.2478988
-0.32464081 0.86260515 1.7882111
-0.40800229 0.89094168 1.9510467
0.53681237 0.67832071 2.2524109
0.73757964 0.66490716 2.2215371
-0.30362278 0.98093033 1.8136841
-0.26789561 0.82346803 1.7898307
1.1221623 0.85077989 1.9032272
1.2279768 0.57263666 2.2603326
1.1234013 0.61579686 2.275497
1.3165264 0.72790092 2.1844029
0.47982913 0.40781805 2.1211648
0.74836636 0.69362676 2.2303007
-0.18308805 1.0003023 1.7139678
-0.30770096 0.96486962 1.819189
-5.2670827 0.60341811 3.588824
