# .PCD v0.7 - Point Cloud Data file format
VERSION 0.7
FIELDS x y z
SIZE 4 4 4
TYPE F F F
COUNT 1 1 1
WIDTH 541
HEIGHT 1
VIEWPOINT 0 0 0 1 0 0 0
POINTS 541
DATA ascii
0.36882991 0.99426448 1.9186782
0.46572813 0.98842996 1.9667244
1.1967458 0.89649594 2.0127871
1.2288824 1.0328457 1.8453737
1.2463194 0.89729249 2.0371392
1.1861352 0.93174225 2.0006945
1.1789017 0.76140553 2.2429802
1.061898 0.79535317 2.2192862
0.58941507 0.85810107 2.0410614
0.5550155 1.1018062 1.848609
0.84690177 0.9153347 1.9608691
1.0183238 0.97144133 1.8793534
1.0178006 0.93871403 1.8942938
0.87867111 0.74403524 2.1537938
1.1963311 0.89527696 2.0456791
1.196321 0.89696413 2.0392396
0.89272392 0.74892867 2.1564982
0.45745441 0.97003973 1.9577343
0.42094332 0.70684159 2.1873446
0.18582477 0.94833446 2.0563846
1.0404563 0.77435786 2.2524054
0.87541729 0.7710712 2.2501137
1.2146739 0.89605647 2.0500567
1.2154133 0.89233303 2.0507607
1.1835045 0.8943342 2.0383883
1.146762 0.90685385 2.0420551
1.2244714 0.87960541 2.0431848
1.273068 1.0107052 1.8636492
1.2323495 0.94579118 1.9881918
0.85036117 0.74673885 2.1468678
0.94345039 0.80320752 2.2214663
0.54015267 0.54289025 2.108686
1.0420882 1.0182155 1.9275459
0.94563973 0.9630754 1.8922915
1.0135674 0.73091197 2.3005931
1.0466238 1.0742531 1.8559532
0.62463516 0.64609587 2.2308085
1.2571514 1.0726008 1.8599474
1.184029 0.94563681 1.9717479
1.2036823 0.92616749 2.0057378
0.88602549 1.0915579 1.8116646
0.71544492 0.79453731 2.1667953
1.1527919 0.99683487 1.9383122
0.95294631 0.9510169 1.9024178
1.1368654 0.96279609 1.9656959
1.1406292 0.96372789 1.9549692
0.74071455 1.0159576 1.9128232
1.1524011 0.94244641 1.9880117
0.67626494 0.47739348 2.1072242
1.0171586 0.97269469 1.8723779
1.2282971 0.8147617 2.1879549
0.95248258 0.9511385 1.9051877
0.91788954 0.97937274 1.8683538
0.94280177 0.90909582 1.9629518
0.90149242 0.86961764 2.0444062
0.95663565 0.80801094 2.2190084
1.0478122 1.048599 1.8361481
0.74316621 1.0293723 1.9082683
0.71787328 0.96804231 1.9491796
0.69635743 0.9546901 1.9854281
0.64089644 0.885189 2.0346043
0.65411645 0.91186619 2.0632069
1.0613871 1.0117954 1.8068537
0.43314993 0.96917993 1.9534725
0.21975385 0.90152699 2.0545025
0.25764945 0.90068436 2.0097051
0.46105954 0.96843511 1.9556392
1.0461743 1.0747683 1.857514
1.2150851 0.89693499 2.0505195
0.87959409 1.0894454 1.8297007
0.94411844 1.0327449 1.8070458
0.94703031 1.0301536 1.8036547
1.1277742 0.95003104 1.983663
1.1385531 0.92059571 2.0189404
1.1369884 0.91844004 2.0200257
1.1170746 0.94340634 1.9923375
1.1388379 0.91356641 2.024956
1.1168575 0.92729181 2.0111909
1.0999689 0.9259271 2.0229592
1.1095121 0.91980368 2.0188529
1.2035698 0.81314117 2.1828108
0.93150723 0.80322605 2.1261201
0.61554134 0.80698544 2.1505299
0.61531878 0.8047775 2.1470344
0.54464805 0.80978036 2.1436656
0.47227871 0.68759406 2.1914914
0.46745887 0.68708771 2.2051308
0.42441201 0.81651622 2.1767802
0.42657301 0.81318218 2.1816895
0.97522503 0.95525247 1.8973715
0.73755324 1.0145001 1.9176559
0.20723537 1.0521133 1.8861437
0.32273751 0.99408972 1.9507651
0.47389951 0.70264429 2.200814
0.92098534 1.2100949 1.7296273
0.44803864 1.0369228 1.8779836
0.92019361 0.97859049 1.8696463
0.41708896 0.97544754 1.9320695
0.85935664 1.0797166 1.8243052
0.24311087 1.078766 1.9250745
0.97342336 0.97437906 1.875676
0.32150462 1.0741146 1.8532165
0.25120646 1.1590203 1.7604522
0.47001782 0.78022289 2.2156255
0.91388589 1.1920794 1.7200704
0.44585612 0.84922123 2.1066658
0.18607011 0.9225204 1.8984981
0.099261254 1.1838511 1.7265325
0.10009958 1.0939373 1.811061
0.083418876 1.1379819 1.7746145
1.1049395 0.93046421 2.006309
1.2368587 0.91523796 2.0161545
0.94605792 0.9641785 1.8889616
0.85766089 1.1130611 1.8260825
1.2799083 1.0397383 1.8900278
-0.27279681 1.1270173 1.8247236
-0.35879156 0.99269426 1.8603232
1.2328731 0.93170553 2.0052736
0.72624326 1.0648772 1.8993161
0.20193581 0.90078259 2.0663202
1.1820412 0.97799796 1.9519421
0.62769979 1.1436192 1.7841805
0.62879586 1.0867131 1.8006309
0.69646341 0.87374592 2.1232982
0.54307437 0.53606939 2.1056719
0.60005873 1.0685052 1.8837497
0.65763164 0.74698347 2.2378027
0.68922621 0.78156066 2.2197554
0.65174693 0.75743955 2.216363
0.49855813 1.058653 1.8896484
0.4930076 1.0504611 1.8862095
0.94735098 1.029524 1.8030252
0.99860924 0.90214485 1.9616927
0.33415756 1.0704374 1.8421139
0.43143657 0.92981613 2.0135112
0.19759448 1.0369145 1.9250774
0.22518255 0.9433583 2.0233922
0.8884148 1.1657935 1.7447535
1.2782062 1.0508003 1.8770486
0.89189607 1.0850981 1.8573503
0.91016006 0.96561855 1.8864187
0.96845341 0.96158165 1.8930296
0.56175023 1.466187 1.5586402
0.48559138 1.3543686 1.5683866
1.244898 0.89578307 2.0445192
0.92314732 1.2078516 1.7247124
0.88652325 0.97680974 1.8705384
0.84624916 0.99689573 1.8527281
1.0163616 0.97666115 1.8961853
0.85225248 0.98595768 1.8634239
1.051419 0.96740919 1.9193512
0.86599964 0.99715704 1.8507379
0.95735657 0.94823849 1.9123317
0.48242739 0.58867097 2.1244543
0.3751595 0.85480464 1.9496413
0.35886741 0.99510968 1.9150205
0.23676635 0.95866805 2.0203257
0.22927403 0.93145156 2.0429912
0.96938068 0.98228532 1.8640796
1.1550336 0.92611599 2.0175753
1.2061181 0.9161942 2.023231
0.72299612 1.0417702 1.8962595
0.54745108 1.5257963 1.553732
0.99788851 0.94432014 1.9019173
0.60645437 1.0514815 1.9023169
0.61093521 1.0926001 1.7910864
0.65741277 0.86870652 2.1381333
0.64146042 0.88466555 2.0321836
1.1573149 0.9239319 2.0317335
1.1993386 1.0630852 1.8703401
0.059782431 1.0538471 1.8393745
0.054843232 1.0517102 1.8436511
0.86239195 1.2232437 1.7059095
-0.37517089 1.0014015 1.8752598
-0.33559325 0.99819678 1.9070815
0.82786709 0.92157549 1.9432921
0.59009516 1.0942824 1.8220279
0.89302933 1.1603531 1.7444805
0.93939501 1.0075752 1.8326467
0.8764019 1.0981433 1.8374094
1.1683702 0.9000864 2.033962
1.0253223 0.89905792 1.9837204
0.48172054 0.90093416 2.0619581
0.52068007 0.88450253 2.063102
0.86376721 1.2331464 1.7142667
0.85512042 1.0799526 1.8297774
0.79091978 0.95536339 1.9820296
0.44811329 1.3591628 1.5844498
1.2235404 1.0339913 1.8519508
1.1533645 1.0096698 1.9379082
0.22016232 0.95932442 2.0577013
0.039686773 1.0825244 1.8195624
-0.35806224 0.99925536 1.9479343
-0.32203111 1.0045806 1.9329368
0.62880981 1.0643393 1.8722417
1.2732104 1.0112256 1.864053
0.47592098 1.026248 1.8995075
0.4247632 1.0088887 1.9130619
0.4585036 1.3740215 1.5844417
1.1251723 0.93431717 2.0140553
0.84781492 0.98043376 1.8674301
0.43372566 1.5370806 1.6627375
0.85320568 0.91133875 1.9516813
0.61931854 1.137975 1.7827554
0.9312461 0.72309566 2.149606
0.62090486 1.1060263 1.8025168
0.47789314 0.80466408 2.1750641
1.0430675 1.0756789 1.8642818
0.97131509 0.96065462 1.8920625
0.23085994 1.0015275 1.9800949
0.99299484 0.94719613 1.9129899
1.188839 0.92031687 2.0177555
0.84616405 0.98280704 1.8641768
0.96760523 0.94939446 1.8829408
-0.28744283 0.82794452 1.8619596
1.0486735 1.0745568 1.8661164
0.87836069 0.9167667 1.9500896
0.64406914 1.0975653 1.8185283
0.8870253 1.1708226 1.7389088
0.86016381 0.91458338 1.939905
0.88450634 0.92227906 1.8841667
0.74452788 1.0305574 1.9150819
0.6179871 1.1101114 1.7996414
1.2327887 0.93125045 2.0046391
0.75755763 1.0548604 1.9040692
1.2054924 0.91517019 2.0239086
1.2774282 1.0121018 1.8550795
0.74185449 1.0321805 1.9159595
0.86275661 0.9036482 1.9718028
1.1653796 0.95174783 1.9767404
0.58020079 1.1040294 1.8281705
0.90099072 0.89729774 1.9815017
0.72747952 0.61297739 2.2532353
0.67301923 0.86667895 2.1155667
0.46142617 1.0311443 1.8879671
1.1815702 0.91867107 2.0089064
0.40909711 0.98345566 1.9444667
0.38896868 1.0483513 1.8702132
0.49518773 0.86901313 2.0926697
0.36933526 0.99477398 1.9212164
0.47704306 0.8338269 2.1303434
0.27072126 1.0846357 1.8200604
0.47344574 0.90535563 2.0271354
0.37473488 0.8518514 1.9414459
0.34677354 1.0108558 1.8932077
0.30169961 1.0196224 1.8847464
0.30695361 1.0194197 1.8819382
0.24881896 1.0986227 1.8070168
0.1128288 1.0963229 1.7796942
-0.32020578 1.0367211 1.9211388
0.70216894 0.95575291 1.9613307
0.68732738 0.50088203 2.1464865
0.42517892 1.1140282 1.8262169
1.0462235 0.93970782 2.02425
0.44702855 1.0045011 1.9126419
0.72329944 0.62843812 2.2664399
0.98577154 0.9586271 1.8937556
0.63074094 0.82450956 2.1260486
0.37231541 1.0207498 1.88836
0.57083452 0.79569548 2.1494412
1.1817514 0.97769928 1.9555335
1.0106585 0.88588589 1.9956409
0.87233174 1.1479738 1.7823559
1.017324 0.88527614 1.9787184
1.0202328 0.9720611 1.8882316
0.64438146 1.1090418 1.8049791
0.83986801 0.91323948 1.960659
0.83262908 0.9247213 1.9362669
0.62655902 1.0859756 1.7970771
0.82061124 0.91457164 1.9620403
0.72951096 1.0006465 1.8851007
0.71165192 1.0059757 1.8967867
0.96069211 0.8745271 2.0538239
1.2580431 1.064973 1.8278263
0.90132213 0.87164432 2.0470092
0.93072176 0.85067886 2.0831871
0.92618978 0.84722894 2.0921021
0.63582712 1.062951 1.8778629
0.95647997 0.7246666 2.1346333
0.50497222 0.91998994 2.0210056
1.2211695 0.91086298 2.039763
0.52063531 0.76582384 2.2043335
1.1979206 1.0697908 1.8681132
0.48662657 0.85353565 2.1035147
0.246959 0.91305131 2.0858886
-0.32196584 0.88891488 1.7898562
-0.28814796 0.83053285 1.8530575
1.1939156 0.91521919 2.0373447
-0.28528297 0.81336749 1.8655657
-0.26892391 1.0531418 1.8762494
-0.34361354 0.99727929 1.9332945
1.0606705 1.0172395 1.8213371
-0.30257732 0.84827441 1.7960633
-0.29799667 0.99527258 1.9717071
0.57115322 1.4635061 1.5476726
0.41137293 1.0125656 1.9034178
0.65942377 0.91560841 2.0763366
1.0177901 0.95535278 1.9031448
0.38703144 1.0030148 1.8902146
0.39272958 1.002237 1.9098579
1.1694206 0.9366079 1.9922982
1.2224662 0.90968198 2.0182772
0.55605876 0.54208785 2.1142461
1.2163624 1.0324835 1.858368
0.55117518 0.85779703 2.0861881
0.88332659 0.75504041 2.2218566
1.0586606 1.0161035 1.8229246
0.59861189 0.57586998 2.1150751
1.0531175 1.0416216 1.877948
0.8638193 1.0647995 1.8077695
1.2003635 0.97270209 1.9600888
0.62134171 0.80749518 2.1371574
0.72464734 0.62216109 2.2570961
0.99529397 0.97306061 1.8862934
0.53816456 0.81963581 2.1380975
0.49626392 0.81888413 2.123795
1.1828351 0.97909153 1.9569563
1.0584502 1.023838 1.8283291
0.52066904 0.76462597 2.2167504
0.85263479 1.0310367 1.8162987
0.86494619 0.93865472 1.9188266
0.35727277 1.0218953 1.9211932
0.37239358 1.0220696 1.8875496
0.46871036 0.99776316 1.9806302
0.35018262 1.0078697 1.8896333
0.2476391 1.0952039 1.8152589
0.57469559 0.56888324 2.1503365
1.2809175 1.0314056 1.8680134
0.75864428 1.0483603 1.8957063
1.2295953 0.90457201 2.0452123
1.1727325 0.92615598 2.0029073
0.74815673 1.0438559 1.8966467
1.0368309 0.91420114 2.0304933
1.1818581 0.94772625 1.9843332
0.95966345 0.87761182 2.0387235
0.74945182 1.0174173 1.9010794
0.48057431 1.3351068 1.5622686
0.62187541 1.0673832 1.8632295
0.95467132 0.72464883 2.1351891
1.2104877 0.89145368 2.0553024
0.60899943 0.98088193 2.0598636
0.95285273 0.95244199 1.9008695
0.18443576 1.0753062 1.823916
0.63865507 1.0761143 1.8681607
0.7451815 1.0176042 1.9052764
0.86029601 1.074584 1.8147242
1.0003901 0.90939093 1.9716696
1.0465095 0.98434341 1.9621817
0.87137675 0.97969192 1.8713043
1.0424905 0.97860819 1.9656688
1.0444072 0.94462073 1.9913845
1.0475895 0.94562685 1.977562
1.0059807 0.90949845 1.9543287
1.2027018 0.90096515 2.0408981
0.9604817 0.91138488 1.9690007
1.0432347 0.96354538 1.9790673
0.87396789 0.93615305 1.9460319
0.95122635 0.91146183 1.9467208
1.0445002 0.93921924 2.026938
0.94598109 0.89933294 1.9711694
1.0779845 0.93011153 2.0463004
0.83134532 0.93917596 1.9223388
0.86951441 0.9141978 1.9628667
0.82866359 0.92643881 1.9424759
1.0004091 0.90930319 1.967309
1.0333844 0.91763848 2.0306642
0.86165005 0.9245382 1.9524838
0.30899271 1.0305178 1.9231298
0.55558509 0.97393483 1.9917303
0.25596237 1.088123 1.830186
0.53139651 0.50610876 2.0603828
0.69353479 0.87222832 2.1440158
0.35796955 0.9965775 1.9324646
0.40925649 1.0063572 1.8362111
0.30367988 1.0363961 1.8672619
0.23481871 1.0791053 1.8247783
0.34136742 1.0006882 1.9188724
0.54571038 0.53038859 2.1024973
0.25701854 0.84380931 2.1219463
0.38165557 0.85700041 1.991974
0.57895041 0.86305153 2.08002
0.22199078 1.0128554 1.8968899
0.91214269 1.0226877 1.8114505
0.20784681 1.0573022 1.8458823
0.19188185 1.0608183 1.8378563
0.50826651 0.94327772 2.0650294
0.49896407 0.5453133 2.0909743
0.54916549 0.85908997 2.0981359
0.23117732 1.038231 1.8619034
0.18016551 1.0448637 1.8824745
0.70162755 0.63034856 2.2495432
0.17720193 1.0468264 1.8446701
0.89274007 1.1530108 1.7437416
1.0494758 1.0480895 1.834321
0.13368288 1.0584345 1.8233498
0.8918581 1.0328577 1.8590248
1.047016 1.0504957 1.8391962
0.56417531 0.62705833 2.2383819
0.50868237 0.63170713 2.1647842
0.88970441 1.1651627 1.7461202
1.0487027 1.0217015 1.9223251
0.25504982 0.93859982 2.0013888
0.45119345 0.88203132 2.1007514
0.51673448 0.7717486 2.2051551
0.47870857 0.68540692 2.1960599
0.31675732 0.89670759 1.9599142
-0.42822254 0.85539937 1.8288114
-0.28859851 0.79635203 1.8867936
-0.31497821 0.80590063 1.8833094
-0.3080838 1.0546107 1.9026458
-0.28240776 0.83211166 1.8570639
-0.28464076 1.0024606 1.967971
-0.28359085 1.0010029 1.9667867
-0.32992041 0.98114175 2.0011358
-0.16565126 0.98742187 1.8757737
0.80111688 0.88427919 2.0366302
1.1117676 0.75438231 2.2514913
1.1178898 0.92780769 2.009259
0.80810922 0.93808687 1.9566966
0.42679325 1.1180334 1.8128554
0.8873139 0.97852981 1.8750515
0.74163646 0.92851055 2.0648575
0.44520518 1.0355721 1.878682
1.1672291 0.97204894 1.9555851
1.207595 1.0539988 1.8892385
0.65349233 0.91422766 2.0651233
0.71337998 0.85804802 2.1280077
0.47175109 1.045211 1.8717384
0.40890366 1.062304 1.8557141
0.45617786 0.99496883 1.9313061
0.37813601 1.0671703 1.8566315
0.32421896 1.0882057 1.8186908
1.0537875 1.0523028 1.8495711
0.29837668 1.0919958 1.8188583
0.70653689 0.81041265 2.1801639
0.43319583 0.98846233 1.9339602
1.0262512 0.97021955 1.8726716
0.17513463 1.1188706 1.7791911
0.17415757 1.1165588 1.7859949
1.0136234 0.94329917 1.9222769
0.99263197 0.95144027 1.8937362
1.0358202 1.0823147 1.8566376
0.52105373 0.93486321 2.0417447
0.99088711 0.9517293 1.8996496
1.1281506 0.9126094 2.0601935
1.2186004 0.88826448 2.049439
0.83942705 0.91584343 1.9417585
0.96574199 0.87717956 2.0311501
0.72514361 1.0412464 1.8921195
-0.34906754 0.85233408 1.8098904
-0.26910385 0.79834688 1.8770518
0.61990643 1.0912448 1.7985491
0.92475957 1.20732 1.7218848
0.49921066 0.79329795 2.1601777
0.84560853 0.94731134 1.9111573
0.99082667 0.94441843 1.9147561
0.62451982 1.0022855 1.9052376
0.19300415 1.0465491 1.8528709
0.61301482 0.82519221 2.1187215
0.14377292 1.0707489 1.8210615
0.51890844 0.87269115 2.0590339
0.6141575 0.80682266 2.1476986
0.50839216 0.82806921 2.142427
0.68950862 0.62340456 2.267282
0.70552129 0.6399051 2.2747018
0.45890549 0.59222168 2.1049278
0.64104462 0.7757386 2.1679749
0.70018423 0.65080965 2.2683012
0.48060063 0.91183293 2.0562391
0.88779402 0.72083813 2.1584387
0.84584475 0.70180047 2.2535932
0.26615423 1.0050687 1.9285421
0.35208678 0.9781267 1.9776376
0.36903298 0.94794434 2.0404859
0.40276453 0.93761045 2.007674
0.46002665 0.89691329 2.0801685
0.086130463 1.0845152 1.8042047
0.4838511 0.89535421 2.0508022
0.26286045 0.92942131 2.0487337
0.22250281 0.92775917 2.0898173
0.44133639 0.70002484 2.2342978
0.41983333 0.71683592 2.1822035
0.044482425 1.0420148 1.8710959
-0.02562491 0.97511035 1.8565391
0.7881043 0.96213794 1.9860985
1.0211663 0.9459874 1.883257
0.85780036 1.1399682 1.8193185
0.87945813 0.73839664 2.1902361
0.13155356 1.1148084 1.7944955
0.86093301 0.73376667 2.2378209
0.17855389 1.0468602 1.8469374
0.15748611 1.0507241 1.8437543
0.079976365 1.0831081 1.8275121
0.6586138 0.75682926 2.2143049
0.37328774 0.97385651 1.9596275
0.30928084 0.98818892 2.0000432
0.92137015 0.97799128 1.8726407
0.22945805 0.94717914 2.015007
0.54969513 0.88438046 2.080796
0.54564506 0.88195026 2.0628283
0.75653595 0.77854234 2.1817043
0.62717879 0.82601976 2.1264725
0.51275486 0.86864966 2.0757129
0.466286 0.93448979 2.0685139
0.59908676 0.7518186 2.2148628
0.6037634 1.0088655 1.9366264
1.0799272 0.91544211 2.0387516
0.45649096 1.0007269 1.9957843
0.65853995 0.91249526 2.0750895
0.48567244 0.88243955 2.0745931
0.52409399 0.85810471 2.1313531
0.54951215 0.88647449 2.0671167
0.72075421 0.8913359 2.1101489
0.43190119 1.053952 1.8650917
0.64278382 0.87788039 2.0593634
0.61789721 0.55560225 2.1748002
0.56646341 0.88806331 2.0675569
0.39430258 0.96225262 1.9864993
0.53328192 0.78351516 2.1882727
0.12501971 1.0367892 1.8588631
-0.47301802 0.98408777 1.9643996
0.11380343 0.98471123 1.9675765
-0.31157556 1.0369073 1.9198854
0.0043762447 0.95992213 1.969751
1.1753719 0.76010484 2.2446842
1.2001827 0.95629799 1.9738073
1.2147037 0.81520057 2.1738594
1.1149913 0.7533291 2.2467022
0.48048019 0.899149 2.0588789
0.47706851 0.88637245 2.0654519
0.094922058 1.1076986 1.7928221
-0.46794671 0.9824971 1.954987
0.10130651 1.0797409 1.8151877
0.49174413 0.78074205 2.2138135
1.1845721 0.68873942 2.1922457
0.78638804 0.72457457 2.3251839
1.0263692 1.0527412 1.8367708
1.0029995 1.0806179 1.8547579
1.0089537 0.88653892 2.0057173
0.094905764 1.1241837 1.7766451
1.1447314 0.98637468 1.90655
