# .PCD v0.7 - Point Cloud Data file format
VERSION 0.7
FIELDS x y z
SIZE 4 4 4
TYPE F F F
COUNT 1 1 1
WIDTH 681
HEIGHT 1
VIEWPOINT 0 0 0 1 0 0 0
POINTS 681
DATA ascii
0.22041368 1.0679737 1.8875937
1.1410216 1.1461185 1.8067504
0.91235244 1.0354359 1.9593936
1.0649476 0.99501723 1.9383703
0.71475941 1.1190761 1.7568259
0.87764347 1.0422479 1.8594141
1.1154802 0.99703813 1.9605873
1.0690906 1.0190462 1.9020469
1.0940249 1.003251 1.9515687
0.80577743 1.0572071 1.8270442
0.71905452 1.0976807 1.773563
0.69813991 1.2083766 1.7591145
0.82736236 1.0571151 1.8309503
0.99165553 1.0467066 1.9132887
1.0615017 0.85546577 2.1665595
0.94254136 0.88591713 2.148536
0.9912796 0.83851093 2.1608021
0.70382404 1.1605958 1.7784331
0.46098036 0.93601936 1.9919144
0.41037992 1.1817271 1.8056867
0.35270041 0.95711046 2.0686202
0.072537407 1.0736769 1.979262
0.91759229 1.1144663 1.7541326
0.87856573 1.0662901 1.8141218
0.87975222 1.0333111 1.8284584
1.0678102 0.85753489 2.163151
0.90611857 1.1637611 1.7963524
1.0144521 1.1141777 1.870232
0.49201718 1.1867213 1.7705106
1.0660015 0.99321902 1.9712216
1.0656571 0.99501556 1.964821
0.77239299 0.83499521 2.0921981
0.32196909 1.044938 1.9164168
0.055725317 1.0125402 2.0261905
0.75845975 0.85493636 2.1868653
0.34130111 0.8514477 2.1871052
1.0468664 1.0767804 1.8757104
1.0522602 1.0195661 1.9550482
1.0529076 0.99197704 1.9644706
1.092761 0.98069543 1.9725316
1.0468388 1.0772748 1.8784891
1.1042639 1.0152746 1.9453454
0.72974515 0.83156776 2.0843523
0.82410794 0.88979989 2.1559339
0.42493743 0.61823046 2.055702
0.90287274 1.1129901 1.8621154
1.0159132 1.1144623 1.8702989
0.80682123 1.0552967 1.8300035
0.89989996 0.81851798 2.2306235
1.1232014 1.1193225 1.7733766
0.5112558 0.72206318 2.1759953
1.1129231 1.1756343 1.7863915
1.0488757 1.0444087 1.8988364
1.0643709 1.0159881 1.940758
0.70228291 1.3173618 1.6599759
0.91292965 1.1137154 1.7553431
0.84895128 1.0523596 1.8268883
1.0009627 1.0600959 1.895131
1.004225 1.0613366 1.8842722
1.1326203 1.1698025 1.7986909
0.60137558 1.1009917 1.8602765
0.56290787 0.55731893 2.0471909
0.58078426 1.1251023 1.8472294
1.1067069 0.91137046 2.1104724
0.77754444 1.0710744 1.8075843
0.80880439 1.000044 1.8997023
0.77237165 0.95782077 1.9821017
0.67240649 0.87469536 2.0952089
0.66456276 0.97560364 1.9960207
0.51122832 0.96490699 1.9837638
0.91711032 1.1092927 1.7406086
0.29754311 1.043346 1.9131846
0.52542818 0.7400344 2.1914482
0.39416507 0.70304191 2.110949
0.32552993 1.0434901 1.9141397
0.17798235 1.0312566 1.9008532
-0.050997 1.055371 1.9646386
1.0848844 0.9954145 1.9752843
1.0063272 1.0170642 1.947459
1.0048816 1.0148394 1.9485699
0.98298597 1.0396045 1.92223
1.0071003 1.0099456 1.9533246
0.98410994 1.0231695 1.9407718
0.97735053 1.015311 1.9486008
1.1054375 0.87364608 2.1570115
0.80804133 0.89106405 2.0612035
0.55043751 0.84635246 2.1064799
0.49317518 0.88176745 2.0956686
0.42229986 0.88448095 2.0954237
0.35607159 0.75915629 2.1440206
0.3518675 0.75825554 2.1578424
0.33692691 0.88459378 2.1275573
0.30346024 0.88665414 2.1337783
0.30593923 0.88330954 2.1385276
0.76507205 0.98567748 1.9250261
0.58052707 1.1194819 1.8521676
0.57917893 1.1319467 1.8500677
0.59847599 1.0993474 1.8652122
0.69279158 0.96962547 1.9532279
0.066350162 1.1198881 1.8571521
0.18636839 1.064623 1.9156742
0.081683248 1.0562948 1.9441216
0.35760731 0.77408922 2.1535442
0.35417271 0.77533358 2.1527812
0.76713783 1.3041267 1.6731757
0.30693752 1.1128352 1.8384027
0.7799266 1.0703468 1.8087621
0.081781991 0.96148425 2.0311027
0.17830908 1.1462308 1.8197759
1.1031775 1.177345 1.7857838
0.35186154 0.85122985 2.1699512
0.76021743 1.2860531 1.6635977
0.049950324 0.9894709 1.8679849
0.10384571 1.0564179 1.9156995
-0.026818959 1.040194 1.9466094
0.9718945 1.0260284 1.9364651
1.1045408 1.0150186 1.9403652
0.73989582 1.2890005 1.6490481
0.80705845 1.0564703 1.8266798
0.80745435 1.0558281 1.8248687
1.1151047 1.0420163 1.920123
0.58475441 1.1496297 1.8483155
0.073784471 0.96538484 2.034539
1.0860467 1.069469 1.8898307
0.47880527 1.2270309 1.7389941
0.83238858 0.81293845 2.0709581
0.57093579 0.95378768 2.0697672
0.45796168 1.1493382 1.8382391
0.53911304 0.83717579 2.1714244
0.82979548 0.81238979 2.0715818
0.57088405 0.85976595 2.1647117
0.35175911 1.1277138 1.8449457
0.95876902 1.0235511 1.9783486
0.76912153 1.3100893 1.6776825
0.42555407 0.85611022 2.1212165
0.86470038 0.9949705 1.8959246
0.19058041 1.143167 1.8080748
0.76597792 1.3067707 1.6754965
0.0937538 1.009441 1.9914557
1.1353958 1.1542528 1.8021659
0.77105629 1.0567625 1.8257043
0.80976397 0.99784613 1.9049813
0.94888228 1.0100031 1.9629645
1.1144302 0.99535555 1.9679918
0.76915592 1.3020414 1.6681318
0.88266712 1.0679169 1.7887406
0.37095019 1.5475053 1.5649229
0.87716818 1.0711515 1.8311167
0.7115764 1.0755627 1.8055942
0.72438967 1.0874286 1.7925419
1.0089688 1.071069 1.8786865
1.0064217 1.0720818 1.8856562
1.0090449 1.0935692 1.8312141
0.90573078 1.0889525 1.8539943
0.87913942 1.0370449 1.851739
0.8728919 1.0506479 1.8620214
1.0867698 1.0181922 1.9298095
0.57419854 1.0472705 1.9138395
0.22418423 1.0945141 1.8772786
0.24317639 0.92719322 1.9097106
0.31384054 0.92029995 2.0749366
0.81150776 1.2927996 1.6785957
0.82867998 1.0757663 1.8011634
0.82997775 1.0742198 1.7994398
0.90548241 1.0099437 1.9443862
0.59935302 1.1435095 1.8257815
0.58212781 1.1264839 1.8449708
1.1497566 1.0313437 1.9330729
0.86001879 1.0381217 1.8370312
1.0185908 1.0402178 1.9168648
0.72303176 1.203966 1.7656423
0.46401787 1.1753726 1.7456599
0.53793651 0.94759828 2.0785899
-0.15357609 1.0351422 1.8317668
-0.13523568 1.0131167 1.8244387
1.0559547 1.1640289 1.799072
-0.082973316 1.1175354 1.8167827
-0.087650336 1.1151626 1.8212264
0.70717466 1.3157314 1.6522388
1.1147038 1.0409575 1.9157046
0.99157685 1.0405335 1.9173684
0.80546057 1.2957278 1.6851625
0.72581124 1.0150684 1.871382
0.69398159 1.0232922 1.8707761
0.4444975 1.1758296 1.7774918
0.74147916 1.2532368 1.6882834
1.0374169 0.99729949 1.9608046
0.89243072 0.99239242 1.9167265
0.35296398 0.97489089 2.0181994
0.39244822 0.95974314 2.0173671
0.24369653 0.92126203 1.9568199
0.65647513 1.0409133 1.9261276
0.83800077 0.91876709 2.0158377
0.28382728 1.4399068 1.5511906
0.94989586 1.0100623 1.960698
-0.10482873 1.1458672 1.7983874
1.1205041 1.1674399 1.7964315
0.48630577 1.1463269 1.8254344
0.56846625 1.1049889 1.8408886
0.58166713 1.0808921 1.8243157
1.1311249 1.1147637 1.788661
0.74956 0.84396958 2.1298962
0.55781657 1.081811 1.8598903
1.0292776 1.050688 1.9151198
0.28612763 1.0834447 1.8739173
0.9160459 1.0723478 1.8294588
0.99230921 1.0304164 1.9434079
0.90700322 1.1433644 1.764764
1.1480138 1.1488037 1.8158537
0.71877778 0.99950784 1.892324
0.81139606 0.81057656 2.0831821
0.47403431 1.1889232 1.756901
0.48861429 1.1861647 1.7750951
0.70848644 1.1801627 1.7910786
0.76055044 1.0170628 1.8772119
0.35717222 0.87661356 2.1295524
0.89924204 1.1715351 1.799949
-0.055162754 1.2149111 1.7584518
0.32215658 0.76437068 2.1341329
0.29789013 0.76724446 2.1386077
0.8325274 1.0537331 1.8286299
0.31392822 0.77744728 2.1344717
0.095658436 1.0685035 1.9490463
0.11506698 1.0537344 1.9101171
0.076849796 1.0124984 2.006382
0.85552001 1.0406427 1.8483548
0.70563161 1.0721993 1.8065482
0.82879156 1.0425148 1.8194671
0.99455005 1.0221691 1.9428023
0.72708148 0.99235481 1.9214503
0.74365091 1.0057937 1.8897576
0.70824331 1.0274411 1.8463651
0.49813393 1.1809608 1.7717451
0.60480851 1.1156689 1.8626413
0.47086364 1.1929581 1.7542298
0.69512671 1.1686895 1.7968408
0.61655366 1.1405767 1.8515354
1.0735595 1.013777 1.9494532
0.60212457 1.1171871 1.8636627
0.58095706 1.1264032 1.8552005
1.0313286 1.0230402 1.9265714
0.72943759 0.99179298 1.9118711
0.82802302 0.93387991 1.9028449
1.0302726 1.0498109 1.9047363
0.57284987 0.5832299 2.0890455
0.59368175 0.61986607 2.1263111
0.76824242 0.98654801 1.9198033
0.54741931 0.94608122 2.0629168
0.69773036 0.99462134 1.8874903
0.49430066 0.93165267 2.0560446
0.3209261 1.1073327 1.8476942
1.0996755 1.0307564 1.925792
1.0489075 1.0167404 1.9355571
0.36877903 0.94291002 2.0477061
0.23159239 1.0673611 1.8841742
0.23475093 0.92723054 1.925172
0.35343677 0.9064979 2.0854602
0.18171914 1.1061542 1.8389919
0.15003063 1.072632 1.8725358
0.53997016 0.82608426 2.1752315
-0.023149136 1.1848829 1.7912158
0.30839926 0.78385341 2.1295877
0.24249215 0.9243691 1.9014874
0.35362899 0.99682277 2.0112073
0.20732659 1.0831656 1.8574623
0.16679837 1.0905969 1.8480705
0.10293008 1.1691065 1.777197
-0.08884158 1.1401178 1.8046356
-0.041111168 1.0519599 1.9581368
-0.45798275 1.0829301 1.9255042
0.58213067 1.0886184 1.8431623
0.57489818 0.58048195 2.0863738
0.51566178 0.97515118 2.0401967
0.30848414 1.0798059 1.8724623
0.61189449 0.70707655 2.2070322
0.27068144 1.0882744 1.8653837
0.84710175 1.0521573 1.829664
1.0447147 1.0785315 1.8856077
0.25910437 0.93252158 1.9451555
1.0448587 1.0766524 1.8833348
0.72449064 1.0283566 1.8673215
0.87873274 0.97853798 1.9290166
0.88083732 1.06682 1.8229202
0.73824203 1.2671342 1.6887951
0.91173619 1.0330588 1.965834
0.48009339 1.1691678 1.7508514
0.68657631 1.001479 1.9041282
0.75393438 1.2810761 1.6521517
0.57198262 1.0903291 1.8453164
0.58441645 1.1079559 1.8370671
0.8317343 0.96452814 1.9890648
0.88519669 1.071197 1.8104686
1.1126657 1.1685944 1.7541251
0.77224892 0.95979559 1.9847471
0.57491314 1.1158943 1.8492285
0.80385554 0.93919688 2.0192356
0.79982907 0.93544555 2.0282705
0.83589184 0.81324112 2.067174
0.74325186 1.2840014 1.6964444
0.39334661 0.85570133 2.1453648
0.10040969 1.0003158 2.006959
0.36120272 0.92697263 2.0586174
0.36113399 0.87317932 2.1354742
0.11919387 0.97880131 2.052386
-0.091762722 1.1242659 1.813022
0.61205417 1.127955 1.8496518
0.84699708 1.067037 1.8121109
-0.41860488 0.86532813 1.8532457
-0.47986606 1.0460107 1.9268261
0.91684735 1.1144598 1.7552083
-0.43952537 1.0477018 1.9734063
0.88347942 1.0636942 1.8146622
0.90666068 1.0873793 1.8455428
0.50361931 0.96100169 1.9978528
0.27269813 1.0718867 1.871285
0.87958717 1.0497855 1.8376105
1.0362821 1.034117 1.913738
0.51767713 0.9429875 2.012845
1.0904417 1.0089526 1.9429985
0.13318318 1.1120387 1.8383104
0.22125214 1.0672038 1.8797735
0.24081607 0.92705858 1.9204782
0.53347051 0.91846424 2.1322868
0.42476609 0.93367022 2.038624
0.76564962 0.83966559 2.1580017
0.9149462 1.1132307 1.7568591
0.99186057 1.0717605 1.8781323
0.85954982 1.0657631 1.8103707
0.61303794 0.70100951 2.1975238
0.85581863 1.0670251 1.822071
0.49693912 0.84826511 2.1038535
0.61323285 0.72649497 2.209007
0.40841806 0.88672823 2.1148591
0.37282905 0.89231575 2.0778172
0.44299296 0.84153008 2.1441743
1.0459574 1.078055 1.8847355
1.1310977 1.1261803 1.7732842
0.89214772 1.145969 1.7663363
0.40299249 0.83730435 2.1686146
0.70845151 1.1214343 1.7593441
0.10781161 1.0673661 1.9313196
0.72818947 1.0277598 1.8595111
0.48350808 0.6275844 2.0905616
0.33330473 1.0726211 1.939322
0.17473686 1.1230459 1.8196888
0.1022206 1.165509 1.7854168
0.57792807 0.70240176 2.1922872
0.79378784 1.0847288 1.7892019
0.61748612 1.1342613 1.843014
-0.00088683993 1.1359352 1.8138549
0.60720068 1.1293958 1.8443186
0.59535843 1.1449547 1.8281932
0.90546304 1.0071014 1.9632374
1.0471867 1.0462079 1.9115399
0.82995152 0.96783656 1.9740822
0.56685799 1.0628111 1.8440197
0.87596482 0.99883205 2.0092952
0.60954279 1.1029425 1.8481984
0.8025763 0.93670845 2.0123315
0.47889158 1.1492939 1.8167857
0.72409594 1.2079295 1.7079227
1.1310027 1.1593645 1.7789364
0.26276639 1.0529276 1.9172475
0.81474054 1.0447623 1.838065
0.70611131 1.080453 1.8045286
0.040130544 1.1433799 1.7964011
0.59825432 1.1214892 1.8449564
0.4955779 1.1584904 1.8211555
0.83719409 0.9720785 1.9731408
1.0757277 0.78775543 2.0908744
1.1135645 0.87638086 2.1554596
0.74808317 1.0792207 1.7946504
0.84865177 1.0419129 1.8354822
0.80665874 1.0549686 1.8313061
1.0036998 1.0333698 1.9190836
1.0134113 1.0260971 1.9166248
0.71950507 1.0799546 1.779235
0.86939842 1.0035801 1.8970085
0.97877252 1.0120573 1.9351726
0.7146225 1.1652324 1.7582545
0.86667717 1.0020988 1.9059492
0.96940607 1.0159055 1.9434284
0.80022943 1.009866 1.9300621
0.46600905 1.192184 1.7263206
0.83358109 0.99881679 1.8372278
0.71495122 1.1776396 1.8195214
0.90621293 1.0727674 1.8994414
0.9128893 1.0397733 1.9104885
0.87150306 1.0026902 1.8883898
1.0719709 0.99919683 1.9662788
0.90802592 1.0575091 1.9125128
0.73846042 1.0250907 1.8862538
0.75697964 1.0276114 1.869516
0.81643516 1.0029672 1.8831723
0.91215628 1.0324177 1.9598236
0.90608603 1.0549455 1.8269727
0.9467271 1.0240934 1.9775608
0.4988746 1.2199383 1.7411351
0.73545569 1.0027132 1.9028518
0.77235943 0.98719168 1.9104244
0.86650968 1.0020868 1.9015911
0.76530397 1.0161815 1.8675823
0.81142908 0.99480379 1.9003938
0.9019177 1.010419 1.9636197
0.73364365 1.0111865 1.8746493
0.72681701 1.0129642 1.8930098
0.17026371 1.1010457 1.8893366
0.11140923 1.158452 1.7998393
0.415288 0.58201593 2.0071411
0.56896031 0.95181727 2.0905595
0.22067338 1.0685927 1.8959308
0.40985286 0.94932443 2.0551815
0.26738843 1.0817239 1.7977675
0.43062314 0.60602838 2.0490489
-0.027436448 1.1851795 1.7548904
0.45206249 0.93994844 2.0313709
0.082822211 1.0809618 1.866523
0.76793188 1.1151483 1.7517964
0.048640355 1.1289091 1.8097374
0.067833945 1.1549839 1.7745829
-0.0070751854 1.1804516 1.7620996
0.12677413 1.0976654 1.840151
1.0629098 1.1583431 1.8274901
0.057280231 1.1542952 1.7841327
0.58945876 0.70855784 2.191118
0.034731112 1.1143228 1.8169118
0.74139607 1.2459027 1.687421
0.90523362 1.1446934 1.7692325
0.40556583 0.89452749 2.1025906
-0.026422022 1.140129 1.7959864
-0.018238623 1.1180606 1.8534025
0.74941355 1.1238192 1.8003771
0.90291131 1.1469325 1.7742525
-0.018853635 1.0149592 1.8600415
0.75152922 1.3057232 1.6603652
0.91334587 1.1365302 1.7761174
0.86099648 1.0409019 1.8480121
0.73807454 1.2579044 1.6901535
0.90913796 1.1167829 1.8566819
0.90806991 1.1454741 1.7632967
0.32477862 0.95432085 2.0579062
-0.085084438 1.1113499 1.8479204
1.0296526 1.0632191 1.8681761
-0.024132704 1.0659716 2.0438395
0.043456588 1.069248 1.9018229
0.18394873 0.96695304 1.9232547
-0.064541869 1.1104932 1.8196229
-0.42044255 0.84784907 1.8742754
-0.41859773 1.0511458 1.9577801
0.67133093 0.96927685 1.9789071
1.0864054 1.1393076 1.7921938
0.99506336 0.84607434 2.1778061
0.75412637 1.1257565 1.7913092
0.98504001 1.0237526 1.9388075
0.67309892 1.0246552 1.8997639
0.74733186 1.0691026 1.8155688
0.61173081 1.0110186 2.0104759
0.77175379 1.1155714 1.7558411
1.030543 1.0705235 1.883903
1.0653139 1.1548973 1.8174268
0.54036075 1.0419241 1.9055505
0.31427863 1.0918987 1.8617004
0.52419037 0.99381763 2.014251
1.0457258 1.0609407 1.9021969
1.0804979 1.0359197 1.9222165
1.1323203 1.1268777 1.7775482
0.89744025 1.1680815 1.823249
0.27678871 1.1930957 1.782272
0.33007547 1.1220115 1.8313031
0.26607078 1.1372842 1.8183068
0.92027694 0.82344544 2.2320709
0.88651145 1.1473904 1.7528218
0.70673394 0.86065662 2.1245947
0.17906372 1.1609966 1.7854342
0.91006476 1.1487842 1.7843597
0.15314388 1.163924 1.7867792
0.19243479 1.1435022 1.8033416
0.58551544 0.8898536 2.1249592
0.45347643 0.96185893 2.0129306
0.29611701 1.0629524 1.8940511
0.88623089 1.0654472 1.807085
0.91180176 1.0981023 1.7893872
0.47224638 0.93548262 2.0430865
0.027489757 1.1873757 1.7529354
0.15719071 1.1078964 1.838002
0.91268903 1.1198056 1.7721256
0.026884466 1.1849158 1.7597305
0.091303311 1.1487408 1.7954856
0.87664771 1.0372727 1.8566755
0.0937583 1.1346182 1.8115828
0.21598773 0.93080431 1.9496132
0.90907305 1.1342306 1.7858992
0.004260933 1.1902392 1.7500705
0.89145857 1.1780577 1.7927474
0.3902626 1.0104488 1.9969556
0.85268921 1.0453324 1.835204
1.0381074 1.0850226 1.9067444
0.58820176 1.1490117 1.8393553
1.0886284 0.98688525 1.9738928
0.9012928 1.0087996 1.9682478
0.48374784 1.1870896 1.7437911
0.74509352 1.0140759 1.8881642
0.69426137 1.0273306 1.8651276
0.47243124 1.2195811 1.7298543
0.77121133 0.98535311 1.9120014
0.44852868 1.361681 1.5838361
0.68158102 1.13606 1.8252821
0.74141288 0.99205971 1.8960288
0.61364782 1.1269608 1.8485141
0.70444256 1.0037233 1.8830862
1.0864503 0.91289991 2.1037419
0.82403344 0.9692899 2.0123284
0.58410931 1.1261029 1.8407336
0.46887067 1.1507055 1.829446
-0.40146416 0.85065687 1.8637464
0.32341307 0.86579597 2.1647096
0.3114379 0.86491519 2.1843493
0.37818018 0.86621875 2.1135571
0.29322091 0.87397909 2.1889598
-0.023892747 1.0412648 1.9399396
0.30672246 1.0940512 1.8702453
0.22309923 1.1441832 1.8148547
0.49885529 0.93363357 2.0309081
0.97948974 1.0369432 1.9172579
0.8535217 1.0377647 1.8501602
0.43536571 1.128334 1.9115665
0.61711216 1.0243739 1.9959161
0.050875232 1.1144285 1.8244216
-0.00044890697 1.1375264 1.7952068
0.39088514 0.94795132 2.0131593
0.49197823 0.88376123 2.0964198
0.52071321 0.8532415 2.114943
0.58816934 0.72863376 2.2102985
0.54787904 0.82929981 2.1961825
0.76846451 0.80672735 2.0938244
0.73132557 0.78467333 2.1903172
0.2379867 1.0185004 2.002454
0.27057862 1.0098575 1.9680405
-0.059184633 1.1496615 1.7810941
0.42618299 0.83175141 2.145041
0.35888243 0.93208408 2.0538249
0.34433636 0.91279304 2.1016748
-0.16495939 1.0357254 1.8361199
0.46605268 1.1457772 1.8204923
0.70118421 1.0572828 1.8119789
1.0393786 0.84670925 2.1877058
0.64545238 0.97304565 2.0425277
0.65362102 1.0475197 1.9304389
0.72121388 1.1776716 1.7706696
0.68322939 1.0129722 1.9131758
1.1265295 1.0015547 1.9763497
0.46406856 1.1062852 1.8763478
0.29890907 1.1115941 1.8713236
0.29939979 1.0963627 1.854775
0.29070497 1.0968804 1.8626271
0.88239813 1.0408812 1.8174251
0.1726238 1.1464841 1.7952871
0.28273985 1.0828496 1.8799222
1.0806131 1.0510441 1.9082534
0.52703708 1.0431414 1.9345729
0.30000183 1.0585917 1.9567183
0.2901856 1.0455626 1.9231409
0.27067372 1.0727936 1.8730299
0.61373085 0.89232218 2.1031287
0.66512913 0.87339294 2.1130917
0.18917373 1.102865 1.8292626
0.26790783 1.0589001 1.9081395
0.48603654 0.95842034 2.0017915
0.71021205 1.230409 1.7641691
1.0829968 1.152161 1.8232336
0.15113898 1.1097322 1.8223815
1.1429681 0.99522597 1.9590331
0.54738802 0.58456808 2.0833702
0.49869117 0.93918121 2.0555363
0.76095283 0.82344967 2.1262712
0.2166616 1.0697181 1.8699073
0.61918849 0.89474761 2.0833189
0.74467129 0.81738919 2.1745112
0.50796193 0.60082233 2.0523703
0.27346483 0.92112666 1.9296401
0.70644271 1.1995319 1.768537
0.12802279 1.0990577 1.8370937
0.43394166 0.9360947 2.1006417
0.42964163 0.60591328 2.0521214
0.036178466 1.1143624 1.8191193
0.5116387 0.90196866 2.0681763
0.50852621 0.6249547 2.0934415
0.038600013 1.1145647 1.8148009
0.50228208 0.64150965 2.0999279
0.49675685 0.90113556 2.0785372
0.071768902 0.99190813 1.8869443
-0.019890843 1.1065236 1.8098791
0.46971804 0.88556194 2.1090801
0.47541848 0.88384438 2.1039503
0.59966171 0.69305778 2.1824119
0.53657657 0.82751191 2.1742764
0.50070369 0.86244524 2.1245518
0.51085693 0.85504937 2.1349556
-0.039066814 1.0188327 1.8720458
-0.085953929 1.0206729 1.9062952
0.58047092 0.89676684 2.1146398
0.27266398 1.0376598 1.966627
0.54088098 0.83413041 2.1601174
0.54292327 0.83338028 2.1762569
0.53044248 0.83893186 2.1607666
0.41103923 0.89290774 2.098181
0.39436695 0.89121193 2.1260791
0.23788461 1.045928 1.9219844
0.18156764 1.0628014 1.9071934
0.69634491 0.81715947 2.221781
0.3893517 0.88338 2.0864065
0.51347476 0.74461782 2.2147553
1.0199444 1.0838171 1.8680334
0.53015071 0.74761003 2.1799688
0.71582752 0.78125894 2.2795196
0.092181295 1.0180161 1.9997524
0.40302739 0.860008 2.1275899
0.67692339 0.79542798 2.2808704
0.33893722 0.94836104 2.0535979
0.097535133 1.0135454 1.9829676
0.91678506 0.83370531 2.2232952
0.41744733 0.9580254 2.0159769
0.5034368 0.90374231 2.0750167
0.23369436 1.0497845 1.9196253
0.61347038 0.70973355 2.1994853
0.5240891 0.84315759 2.1517663
0.69127554 0.76832145 2.3652318
0.31133571 0.76810509 2.1183376
0.40048915 0.8537038 2.1242514
0.46588895 1.0889525 1.8897882
0.94881445 1.0096287 1.9696637
0.9021523 1.17048 1.790607
0.4839015 1.2281153 1.734287
0.55303603 1.0370907 1.9549783
0.64641446 0.99758619 1.9690812
0.52971947 0.99208224 2.0239577
0.50956297 0.93240565 2.0338874
0.3810671 0.95662874 2.0175736
0.24868436 1.0438441 1.9118807
0.61509329 0.69629526 2.1911607
0.60254538 0.72224462 2.2162917
0.36452392 0.85113341 2.192703
0.87957203 1.0358472 1.84971
0.44242308 0.84182858 2.1485534
0.30619305 0.92319906 2.0819721
0.84785968 1.0730557 1.8015007
0.42134845 0.96260089 2.0201793
0.56688321 0.94910342 2.1017971
0.49722391 0.64622635 2.0952392
1.0683433 0.78450471 2.1141112
0.46425998 0.95047563 2.0328653
0.27381539 0.99281931 2.0356462
0.41797486 0.74679846 2.1597016
0.28971228 1.1295393 1.8265334
0.70729446 0.80973667 2.2266262
-0.045774739 1.1511716 1.764985
0.5020591 1.221072 1.7377509
0.15174724 1.152864 1.7931787
0.12567401 1.0985792 1.8003818
0.077790543 1.1508324 1.7872896
-0.055754647 1.2522006 1.7079469
0.31155771 1.0800943 1.8669109
0.15166976 1.1556898 1.7891461
0.59333861 0.61903757 2.1273389
0.1954025 1.0558594 1.8632108
-0.021225045 1.048032 1.9412425
1.0580932 0.85401958 2.1683886
1.092507 0.91160083 2.0969827
-0.05165121 1.1733162 1.7697792
-0.043399297 1.1452048 1.791326
-0.081888638 1.1148769 1.8171296
1.0673145 0.78391206 2.1142833
1.0961487 0.98102468 1.9894508
1.1413569 0.94683623 2.0388727
0.8280679 1.0768102 1.8054544
0.67432725 0.80422688 2.264801
0.83165497 1.0437804 1.8454819
0.87744689 0.97896051 1.9391671
0.58141106 0.88010257 2.1288424
1.0618815 1.0567807 1.9038786
0.47182125 1.1519349 1.8276625
