# .PCD v0.7 - Point Cloud Data file format
VERSION 0.7
FIELDS x y z
SIZE 4 4 4
TYPE F F F
COUNT 1 1 1
WIDTH 548
HEIGHT 1
VIEWPOINT 0 0 0 1 0 0 0
POINTS 548
DATA ascii
0.0038410826 1.093962 1.8030827
0.018442603 1.0910348 1.8067293
0.58580887 0.92800659 1.9855585
0.71319908 1.0812838 1.8289368
0.71447694 1.0812609 1.8275589
0.86635852 1.0457667 1.7954173
0.98567718 1.0411804 1.8496557
0.49992868 1.1577998 1.6399871
0.86703813 1.0698057 1.7588713
0.59782612 1.0991433 1.7033761
0.50613719 1.1366073 1.6563783
0.48061132 1.2465186 1.6434286
0.61963087 1.099766 1.705687
0.78977352 1.0949651 1.7757487
0.48925623 1.1990079 1.6623104
0.27019843 0.96730381 1.8931973
0.82362741 1.1554586 1.7287507
0.67244697 1.0776726 1.6993719
0.89019483 0.90914363 2.0194752
0.95499527 1.0313646 1.8481469
0.57733107 0.87101156 1.9692632
0.86987752 1.0441049 1.8281037
0.86900604 1.0458696 1.8217444
0.59126413 0.87678039 1.9704173
0.12253735 1.0714061 1.8280345
0.12998094 0.80348247 2.0549457
0.16798849 0.87948275 2.0967054
0.34654966 0.88639504 2.0277596
0.98405266 1.0926697 1.7750032
0.9594242 1.05502 1.8149583
0.93010974 1.0674025 1.8391626
0.8410663 1.1267045 1.734198
0.8885197 1.046029 1.8303379
0.85637128 1.0424166 1.8223331
0.89705616 1.0324632 1.8274541
0.89847118 1.0303439 1.8220433
0.91727024 1.1666189 1.6407769
0.91397071 1.0940313 1.7735958
0.90539712 1.0673146 1.7994733
0.54829055 0.87194222 1.9657257
0.021731932 0.68928856 1.6971326
0.40040854 0.61740381 1.9808367
0.72905183 0.86488932 2.0991192
0.98373747 1.0507672 1.8510625
0.37235969 1.134948 1.711941
0.91965979 1.0284063 1.8555843
0.87052077 1.0759162 1.7882138
0.52008426 1.0662894 1.7476939
0.12722531 0.81242883 2.0512621
0.8814159 1.1201861 1.745002
0.69254798 1.1883473 1.6380696
0.60834032 1.0855953 1.7152153
0.64100754 1.0957034 1.7000543
0.79728097 1.1085944 1.7569476
0.65680009 1.114053 1.6950302
0.37282071 1.1597399 1.7399782
0.92334175 0.96405435 1.9640462
0.5678035 1.1120241 1.6860319
0.60804188 1.0423331 1.7756549
0.65816987 0.93912363 2.0262733
0.54098207 1.0444793 1.7750936
0.50782281 1.0735939 1.7350965
0.38352621 1.0837313 1.7894865
0.83501619 1.084504 1.778872
0.47213039 1.013507 1.8823195
0.36352888 1.0713922 1.8274994
0.33349741 1.0249068 1.9087701
0.29717255 0.96043706 1.9624888
0.58030552 0.86783648 1.9600278
0.35548174 0.77413648 2.0875952
0.13317868 1.0895585 1.830662
-0.064988106 0.98845267 1.9014244
0.125967 1.070068 1.8255032
0.88892567 1.0469265 1.8307678
0.9872281 1.0931418 1.7809196
0.58322406 1.1677755 1.6231893
0.5858776 1.165424 1.6194313
0.98138893 1.0523968 1.8367571
0.80787325 1.0659215 1.8087699
0.78201997 1.0876123 1.7853073
0.9267236 0.92645222 2.0105789
0.74430788 0.89577293 2.0685604
0.31167358 0.91444868 1.9943448
0.18256807 0.78758878 2.0527158
0.18450426 0.78716487 2.0522752
0.17942087 0.78659427 2.0668094
0.13525325 0.80669397 2.062403
0.37120494 1.1665372 1.7429222
0.49732444 1.0083191 1.8375738
-0.13905352 1.1378121 1.7876449
-0.11796502 1.2500834 1.6637331
0.099612005 1.1385374 1.7512882
0.079562351 1.1504189 1.7405405
0.57028818 1.1113781 1.6870321
0.62401706 1.1105871 1.6867572
0.51125717 1.18411 1.6319287
-0.031059081 1.1676704 1.7421322
-0.11699397 1.2489604 1.6598936
0.1772636 0.87955594 2.0788226
0.13616838 0.94820303 1.9748249
-0.15034212 1.0069642 1.7997415
0.62468201 0.85493577 1.975346
0.59910041 1.0984473 1.702919
0.59938318 1.0978129 1.7010843
0.16847587 0.64766639 1.9375989
0.37605581 1.1843868 1.7407532
0.88139492 1.1207159 1.7454088
0.25989938 1.2579607 1.6394521
0.26653105 1.2010442 1.6545068
0.38492861 0.98888201 1.9627556
0.2523165 0.64213216 1.9562055
0.248943 1.1799368 1.7400126
0.367915 0.8584016 2.0783987
0.64770788 0.8559922 1.9456577
0.39491528 0.89520139 2.0575118
0.37137869 1.1354592 1.7939607
0.91488045 1.1737453 1.6475056
0.58616167 1.1648247 1.6187562
0.1238139 0.70306259 1.9699209
-0.098276004 1.02873 1.9196496
0.51226097 1.2976698 1.5704932
0.60945737 1.0401839 1.7808506
0.58403909 1.1671497 1.6201569
0.36950603 1.1361195 1.7179339
0.53713584 1.1073838 1.6917894
0.6688292 1.1154168 1.7021869
0.50175589 1.1143563 1.6888872
0.49192017 1.2382971 1.6485326
0.52310067 1.1227137 1.6756684
0.80163544 1.1207223 1.7470894
0.79955411 1.1421158 1.6925869
0.6734218 1.0814561 1.7226322
0.66750395 1.0948801 1.7333361
0.24647717 0.99557477 1.9235048
0.046799414 0.95037115 1.8347948
0.032614086 1.1511328 1.7542259
0.020576643 1.1176519 1.796147
0.047356568 0.95113873 1.8272115
0.1301377 0.94705862 1.9868084
0.61936724 1.1168495 1.6740578
0.37394905 1.1611576 1.7376261
0.65324885 1.0818646 1.709367
0.31740868 0.59333891 1.9338148
0.81709623 1.0893676 1.7773421
0.25853878 1.163134 1.7573631
0.33355486 1.0237446 1.9046836
0.34828424 0.98110646 1.981917
0.31905055 0.9973321 1.8788801
0.84165126 1.213966 1.6570396
0.91278946 1.0932323 1.7691286
0.49070805 1.0617418 1.7552205
0.49103627 1.0475042 1.7697237
0.23020023 1.2057886 1.6803997
0.51550907 1.228205 1.6625261
0.22840248 0.97537929 1.9371868
0.16318822 1.0027192 1.927315
0.2029791 0.98886234 1.9235965
0.30065909 0.87848485 2.0273275
0.87423968 1.0497105 1.8283411
0.05152455 0.94537276 1.8741595
0.49468032 1.2087574 1.6570482
0.39744571 1.1506321 1.7482477
0.86533356 1.1867567 1.6353798
0.37770104 1.0921466 1.8292166
0.27635473 1.1778104 1.7251637
0.13044533 1.1294395 1.76921
0.082435288 1.1085945 1.7882547
0.60010779 1.0968874 1.7014484
0.25024435 1.1807283 1.6941421
0.49817833 1.108503 1.6932683
0.25178489 1.251798 1.6388952
0.68526369 1.2163694 1.6694143
0.13926238 0.80446863 2.0462739
-0.11413046 1.0312815 1.9357747
0.64951277 1.0842726 1.7209886
0.49601021 1.1108042 1.6902773
0.5279547 1.0508246 1.7616552
0.79562575 1.070626 1.804987
0.5029974 1.0662776 1.7298256
0.28307414 1.2126453 1.6707271
0.52309287 1.0426869 1.7624702
0.39820623 1.1511412 1.7535913
0.48167267 1.2068709 1.6813014
0.89178991 0.91105497 2.0014849
0.92049903 1.168407 1.6317891
0.62959194 0.97683972 1.7774233
0.22049373 1.2147875 1.6878453
0.3612375 0.98039299 1.9576553
0.30825803 0.96422172 1.9547112
0.11441685 1.1335219 1.7595314
0.89888316 1.0825784 1.7802988
0.84945369 1.0669473 1.7937744
0.072204366 1.0817924 1.8207433
0.03943212 1.1461687 1.7506586
0.18216214 0.97136116 1.9556028
0.029354393 1.0907758 1.8024987
0.040091243 0.95094937 1.8432497
-0.085941747 1.1752622 1.7153137
0.046163667 0.94826853 1.8190626
-0.04352944 1.111601 1.7746359
0.077817075 1.0756085 1.810057
0.37505716 1.1233069 1.7358482
0.32324553 0.93541414 1.9721156
0.68059772 1.0232054 1.799771
0.67202687 1.1111817 1.6937461
0.80219233 1.1553844 1.7164388
0.2639448 1.2002069 1.6512223
0.63861382 1.007858 1.8631171
0.86592489 1.2206221 1.641645
0.50654811 1.1732165 1.6556928
0.89473283 1.2202367 1.6080474
0.61386639 0.98172575 1.8952703
0.61063832 0.97787321 1.9045792
0.8206659 1.0805176 1.7992827
0.65343344 0.85702795 1.9408137
0.2827062 0.77444673 2.0602715
0.216665 0.88529974 2.0512538
0.83955866 1.220592 1.6551287
0.17593169 0.95521933 1.9670516
0.70139623 1.1597598 1.6235406
0.67415679 1.1081183 1.6853186
0.83432674 1.0842594 1.7790557
0.39780992 0.92614758 1.9911388
0.17872995 0.61569637 1.9119728
0.35332513 0.95255041 2.0278809
0.23760423 0.96392095 1.9424412
0.58921671 0.88143152 2.036535
0.69966251 1.1584744 1.6253275
0.44453007 0.73800325 2.0872493
0.64701998 1.1105697 1.6947358
0.44473347 0.76351678 2.0986695
0.22843575 0.91670674 2.0197029
0.19006187 0.9210186 1.9853697
0.26652697 0.87274861 2.0464315
0.51424384 0.83767265 2.142143
-0.090568483 1.0868965 1.8586042
0.5238331 1.067286 1.7414716
0.026706632 1.1186391 1.7692652
0.30997294 0.66007113 1.9901352
0.0058408021 1.1029891 1.7736238
0.83951628 1.0739129 1.7889947
0.3987979 1.1648822 1.7351331
0.38530239 1.1799974 1.7199098
0.70881808 1.0527291 1.8319175
0.63562959 1.0110605 1.8483037
0.26823309 1.1805078 1.7170806
0.65170711 0.85688472 1.9415749
0.88527805 1.0410954 1.8359396
0.069311008 1.1051819 1.8323373
0.8406868 0.89456415 2.0299537
0.046808835 1.1180699 1.8074381
0.92281592 1.0622631 1.7949094
0.28400251 1.090855 1.9120857
0.42670596 1.0436962 1.8818635
0.50235581 1.1331521 1.7040515
0.0098021366 1.1053076 1.794484
0.031244781 1.1022177 1.7954582
0.063325621 1.0774667 1.833204
-0.003741821 1.1091439 1.7834387
0.32583994 0.99317133 1.9032538
-0.17041273 1.1602507 1.7289667
0.52259183 1.1573002 1.6253659
0.48203045 0.91225278 2.0030274
0.54889053 0.88991547 2.0094941
0.39888495 0.61646533 1.9818958
0.95664608 1.0317193 1.8481445
0.57105464 1.0263779 1.7935828
0.39059776 1.1464032 1.7373101
0.4849796 1.0390828 1.7959443
0.48575777 1.0421121 1.78687
0.74310392 1.0623683 1.7572997
0.47619906 1.1398339 1.7167059
0.64264107 1.0155331 1.8468301
0.89506632 0.83943653 1.9468601
0.2226457 1.1957191 1.7305334
0.53722233 1.1191671 1.6752902
0.64168096 1.085279 1.7086542
0.8026399 1.0820454 1.7806529
0.79487395 1.0783437 1.788565
0.50758183 1.1189228 1.6620139
0.49838808 1.2039315 1.6413903
0.66611874 1.04629 1.7776349
0.67472863 1.0808343 1.7200743
0.24735409 1.2226768 1.6277761
0.62819588 1.0417206 1.7115309
0.88559252 1.038663 1.8434812
0.87526965 1.0502586 1.8227319
0.62612695 1.0456986 1.7796564
0.53611976 1.065035 1.7673899
0.61433983 1.0454522 1.7586073
0.71441162 1.0782392 1.8280042
0.61277604 1.0326959 1.7832483
0.75044405 1.0710995 1.8431612
0.28029281 1.2515317 1.6401188
0.49142081 1.0524192 1.7689191
0.66563249 1.0462592 1.7733008
0.62762403 1.0462881 1.7726244
0.71006787 1.1159881 1.780611
0.62538356 1.0455517 1.7743384
0.53067434 1.0722395 1.7313696
0.52308136 1.0664407 1.7438648
0.53880012 1.0623208 1.7647092
0.70520377 1.0559309 1.8325568
0.53092188 1.0509458 1.7561798
0.525406 1.0525569 1.7749907
-0.099604815 1.1776458 1.7271523
0.019292764 1.0916876 1.8150243
-0.044681281 1.1286894 1.7573833
0.058613073 0.95321685 1.86854
0.26407516 0.97106206 1.9331995
-0.12067468 1.0994719 1.7958078
-0.14477861 1.1726831 1.7051656
-0.15457521 1.1716806 1.7154648
-0.17334026 1.1310966 1.7498382
0.22443782 0.92437118 2.0076716
-0.23667449 1.1548337 1.7334412
0.43420821 0.75384384 2.1007557
0.21907291 0.73455137 2.0208368
-0.22033979 1.0301746 1.7968534
0.65493798 1.0847089 1.7202446
0.69222647 1.1904967 1.6322304
-0.19656798 1.1010354 1.866871
0.1896147 0.7857697 2.056462
0.49468186 1.1783603 1.6271013
0.86375695 1.0901152 1.7712225
0.4778282 1.0073512 1.8647596
0.96574718 1.0793648 1.7854787
0.81913269 0.89536613 2.0394394
0.52158642 1.1593974 1.6308445
0.78580159 1.0718867 1.8017
0.56589162 1.0897394 1.6883639
0.53833866 1.1090945 1.6962142
0.55559295 1.094584 1.7159011
0.07741116 1.15323 1.7280015
0.84283906 1.0694749 1.8006198
0.49513799 1.1676967 1.6509346
0.33952507 1.07547 1.8011665
0.33295316 1.0271977 1.9107937
0.87933648 1.0871037 1.7781376
0.40324414 0.9742676 1.9651508
0.12185447 1.1484401 1.7425028
0.05660389 1.1615809 1.73423
0.025908701 1.1644087 1.7388104
-0.033308685 1.1823469 1.7078176
-0.059141859 1.1844332 1.7110598
0.2486057 1.1169999 1.8125957
-0.018095309 1.1653525 1.724707
0.4055998 0.92562681 2.016772
0.09453924 1.0885005 1.8076148
0.50506079 1.1625147 1.6331491
-0.049519066 1.1287252 1.7618855
0.69831753 1.1650194 1.6407139
0.67129278 1.081618 1.727738
0.023064651 0.95398575 1.869
0.1976456 1.0394069 1.9033659
0.6455732 1.0888273 1.7080779
0.25429615 1.2072271 1.6532025
0.89283442 1.0385194 1.8291109
0.891065 1.0606303 1.7914083
0.70497334 1.054306 1.8372194
0.56204367 1.0516156 1.7367315
0.49044058 1.0657699 1.7495639
0.57195264 1.0264642 1.7906907
0.21393719 1.3910751 1.4868436
0.39586967 1.1319537 1.7212327
0.40561157 1.1626712 1.7388455
0.50267798 1.0425618 1.7667428
0.37562579 1.1608282 1.7332551
0.60653603 1.0157872 1.8250113
0.64455545 1.0924497 1.7202642
0.25912705 1.1816313 1.7304415
0.25718889 1.2050097 1.653563
0.19887052 0.89521986 2.0206385
0.119463 0.9004426 2.1020694
0.55916595 1.1554824 1.6342483
0.5808832 1.1490822 1.6435822
0.77045691 1.0816408 1.7916148
0.80812699 1.0676541 1.810467
0.96662325 1.0960901 1.7441217
0.74356234 0.86704987 2.0816383
0.10289142 1.1354119 1.7451121
0.42799944 1.0713849 1.8700249
0.024546681 1.1667455 1.7468997
0.42323098 1.0607061 1.8856655
0.27991354 1.1151942 1.7571692
0.96593636 1.0447205 1.8284106
0.30477592 0.935027 1.9669104
0.20149791 0.97701293 1.9195229
0.31047043 0.91640472 1.9951807
0.20368002 0.93074089 2.0026507
0.42650828 0.75423056 2.107312
0.41977572 0.76484251 2.1017962
0.37528908 0.86409962 2.0906076
0.58839172 0.84840482 1.9723468
0.019926464 1.072318 1.8601913
0.046001632 1.042514 1.9200232
0.076246493 1.0348306 1.8833157
0.14407635 0.99705422 1.9478346
-0.09216015 1.0121454 1.9856067
0.49246317 1.0957676 1.69603
0.45657679 1.0104716 1.9301057
0.42841583 1.0886536 1.8661439
0.4834381 1.051208 1.7983023
0.25923306 1.1372231 1.7775996
0.094064921 1.1371371 1.7847104
0.10424306 0.80434078 1.7093147
-0.038530614 1.167663 1.7181267
0.88222063 1.1187112 1.7333258
0.94841558 1.0475841 1.8222759
0.067314416 1.0974433 1.7885116
0.43204206 0.92894536 1.9929272
0.06758707 1.0835754 1.8237389
0.29516587 0.9905389 1.9011929
0.49229494 1.2689478 1.6475681
0.51990396 0.89878666 2.0086389
0.79674399 1.108706 1.756919
-0.056757085 1.1303148 1.7467502
0.85724276 1.0692607 1.7897884
0.64512461 1.1135873 1.6868297
0.57024544 0.85853493 2.0545554
0.48986769 1.237978 1.6522222
-0.078370437 1.1189388 1.7631271
0.54020637 1.1089052 1.6957164
0.32740039 0.93515545 1.9655576
0.33520752 0.65826619 1.9911726
-0.12728295 1.0101689 1.8170463
0.28915194 0.91751879 2.0094397
0.25991422 0.92965448 1.9803122
0.94096357 1.0589106 1.810483
-0.28401729 1.0338434 1.8479044
0.39958864 0.93234032 2.006846
0.3655102 0.86858869 2.0551503
0.58250284 1.1329014 1.6515697
0.26497775 0.9018082 2.0060344
0.36875433 0.86795521 2.0710967
0.22962303 0.92291689 2.0028732
0.35417289 0.86971164 2.0774789
-0.09951517 1.037275 1.9280336
0.51123613 0.83470774 2.1656163
0.80669475 1.1425704 1.7150962
0.74484837 0.88059568 2.0905609
0.45838058 0.89919353 2.0088181
0.22785164 0.98795509 1.9203758
0.45735991 0.89708406 2.011853
0.62389416 1.1104499 1.6882104
0.2469199 0.65198767 1.9574759
0.19760968 0.9723652 1.9367179
0.21886776 0.96232229 1.9711367
0.15077743 1.0325555 1.9317185
0.14652537 1.0351053 1.9362969
0.36074674 0.91065073 2.0245357
0.034624651 1.0733863 1.8377118
0.25560313 0.6965397 1.9965019
0.31220764 0.89445454 2.0432472
0.19218472 0.93451786 1.9943469
0.22814195 0.91855025 2.0187547
0.34872338 0.6995908 2.2654495
0.44481972 0.74674273 2.0891676
0.42025137 0.74285203 2.0736473
0.36153069 0.90700001 2.0919294
0.36218497 0.8641845 2.0987787
0.42261258 0.76580983 2.0966351
0.93218237 1.0886981 1.7764852
0.23428056 0.87983477 2.0557225
0.099300988 1.0026436 1.9744437
0.29867268 0.86665756 2.0873773
0.36781216 0.77443027 2.0946932
0.38813424 0.89522523 2.0681581
0.37442899 0.88889933 2.1060102
0.27323964 0.86126596 2.0803816
0.53261626 0.80834287 2.2487147
0.20284835 0.87757212 2.0691702
0.22230105 0.88347077 2.0296743
0.14438243 0.79310679 2.0466306
0.97497129 1.0077569 1.8874719
0.26260012 1.1200002 1.7908818
0.5376184 1.1084986 1.6959617
0.982059 1.0127536 1.8658273
0.23643059 1.1772963 1.7845863
0.75241822 1.0566862 1.8351421
0.68751377 1.2153807 1.6598845
0.362207 1.0766809 1.8410035
0.97145855 1.006618 1.8807671
0.94540381 0.82974058 1.9851782
0.67344522 1.0942249 1.7066907
0.5071916 1.2162962 1.6684824
0.4868072 1.038367 1.7892485
0.26459843 1.2591959 1.6343828
0.91931301 0.91933262 2.0430665
0.051093981 0.95290905 1.8345993
0.33923316 1.0256732 1.9200693
0.57882428 0.87726188 2.0617261
0.16976078 0.98436403 1.9390283
0.19155715 0.87994188 2.1005836
0.1783534 0.97084183 1.9466727
0.22296929 0.87156171 2.0767946
0.11221357 0.90289307 2.1026776
0.78568131 1.0720209 1.8011168
0.38863161 0.97295886 1.9973119
0.25401211 0.98406953 1.9216188
0.95509738 1.0006444 1.9143273
0.084004454 1.1525302 1.7400556
0.48841527 1.0960494 1.7214006
0.25337791 1.1800421 1.7399713
0.4032191 1.0252929 1.9520936
0.27599874 0.98198533 1.9337872
0.23767826 0.9762904 1.9278939
0.9714573 0.86495745 2.0523906
0.22258684 0.98484546 1.9188956
0.61613017 0.96223688 1.9806592
0.42630526 0.65867305 2.0158451
0.36253127 0.90672618 2.0917864
0.50909191 1.0151849 1.854378
0.36933571 1.0904403 1.8496059
0.40358418 1.1534339 1.7427388
0.88773638 0.90707505 2.0348167
0.081025675 1.1546352 1.7407042
0.3239769 0.9903031 1.9055794
0.02497573 1.0909348 1.8010964
0.34477335 0.94409508 1.9832211
0.34121427 0.76273984 2.0550508
0.32623267 0.87906098 2.049439
0.534944 0.85394675 2.1157057
0.25187409 0.78121912 2.0707462
0.5273639 0.83377373 2.1566932
-0.084657304 1.0240632 1.94912
0.30078277 0.98771286 1.9277935
0.10346894 1.0722172 1.861492
0.36940062 0.86448252 2.0338266
0.23655045 0.88733399 2.0443854
-0.0011963657 1.0657259 1.8921174
-0.12098761 1.2517122 1.6621929
-0.1334514 1.094117 1.8390037
-0.22275643 1.1174822 1.7697847
-0.26969182 1.1216211 1.7809488
-0.077976339 0.99381918 1.9922193
-0.21782842 1.0634028 1.8779867
0.30731097 0.99614853 1.8932242
0.88100839 0.90533006 2.0254142
0.90819079 0.96378076 1.9516355
0.91776139 0.96309239 1.9582394
0.16171183 1.0008959 1.924365
0.8885231 0.83539349 1.970826
0.95146835 1.0004085 1.8900719
0.6800468 1.0236171 1.8099881
0.40211236 0.91575933 2.0209527
0.064887643 0.95798278 1.8640435
-0.0190729 0.97610027 1.8124459
