# .PCD v0.7 - Point Cloud Data file format
VERSION 0.7
FIELDS x y z
SIZE 4 4 4
TYPE F F F
COUNT 1 1 1
WIDTH 480
HEIGHT 1
VIEWPOINT 0 0 0 1 0 0 0
POINTS 480
DATA ascii
-0.41283453 1.2592753 1.8417209
-0.2225496 1.1812897 1.8750211
0.026037205 1.3269858 1.6445999
0.2524536 1.1713723 1.9201385
-0.25374821 1.1516567 1.8720499
0.094566286 1.1073977 1.9326724
-0.3446213 1.1545165 1.9709796
0.38063675 1.1618954 1.9063292
0.40580642 1.2964647 1.7338531
0.22880282 1.4138255 1.6455767
0.31779268 1.29987 1.7267073
0.31581157 1.3017319 1.720631
-0.27635047 1.1419144 1.9299178
-0.34986708 0.9673326 2.0436502
0.50294572 1.2015111 1.8743045
0.31373301 1.3995149 1.6972667
0.40269804 1.3215667 1.7015899
0.42073452 1.2940083 1.7336445
0.26662487 1.3816342 1.6420461
0.3038578 1.2968138 1.7228279
0.32839835 1.3579726 1.6661649
0.39994442 1.1790066 1.8951201
0.13915233 1.1571908 1.9526651
-0.22936727 0.83076358 1.9248782
-0.1652651 1.0731273 2.0019064
-0.07430613 0.81657135 1.9228789
0.027961228 1.3251913 1.6471639
0.23874664 1.0965561 2.0056603
-0.13465378 0.94380182 2.029541
0.30908284 1.3328501 1.6887597
-0.040284865 1.2838482 1.6977766
-0.35410205 0.97601497 2.040843
0.11872717 1.0803974 1.8805655
0.30859056 1.3795013 1.6466978
0.039599538 1.3143674 1.6541445
0.25413626 1.3406318 1.6918836
-0.17034225 1.3387188 1.7226962
0.25295854 1.33996 1.6858459
0.51059306 1.2006255 1.8793768
-0.1965006 1.3597248 1.7156225
0.3990595 1.2221062 1.8495706
-0.0074345274 1.3368543 1.6323383
0.15022153 1.164418 1.9473543
-0.19730595 1.3535192 1.7204775
-0.061922945 1.2213895 1.8350366
-0.18308985 1.2680315 1.7990738
-0.21112131 1.1879605 1.8549979
-0.12016962 0.96336651 2.0425811
-0.41108596 1.2591434 1.8356799
-0.25915319 0.90875125 1.989862
0.33659649 1.3047996 1.7267878
0.42084795 1.363778 1.6659003
-0.0076147462 1.396083 1.5707985
-0.0052958648 1.3941828 1.5665907
0.42776701 1.320794 1.7199056
0.25076625 1.3125108 1.7187169
0.22036336 1.3342544 1.6989834
0.25464073 1.3079062 1.7226236
0.41333649 1.1836252 1.8932285
0.37449437 1.2161224 1.8507034
0.31041116 1.1375701 1.9299231
-0.12966317 1.0740508 1.9600736
-0.19235563 1.1006511 1.9635597
-0.26123166 1.0926507 1.9784869
-0.29674107 0.95775181 2.0332181
-0.19840904 1.3661859 1.7190999
-0.043122828 1.2206625 1.7869757
-0.29531538 0.97253633 2.0429873
-0.33566383 0.97266507 2.0446022
-0.29897514 0.97326475 2.0430374
-0.3146885 1.0715748 2.0325592
-0.0047744093 1.3364692 1.6329436
-0.30829191 1.0475557 2.0643551
-0.19592769 1.3845412 1.7171572
0.30857089 1.3800112 1.6471292
-0.3330476 1.4474243 1.6370876
-0.2889545 1.3806494 1.7067
-0.22622269 0.82469809 1.9206989
-0.032133091 1.2882286 1.6945266
-0.0050490713 1.3936435 1.5658532
-0.052951705 1.4362766 1.6365831
-0.0077169733 1.3213396 1.6506269
-0.20037395 1.3366262 1.6931211
-0.072204866 1.3313856 1.6446176
0.083305299 1.3160868 1.6418259
0.25348815 1.3403453 1.6862352
-0.16553916 1.1714942 1.9494109
-0.2111301 1.1876278 1.8524798
0.34593526 1.3555948 1.6647739
0.34635252 1.356023 1.6682005
-0.067561947 1.2756637 1.7091463
0.28734407 1.2998174 1.7228192
-0.28929862 1.1533427 1.9218547
-0.31776673 1.1642195 1.912684
-0.1943928 1.0625716 1.9959383
0.32149693 1.3059342 1.726604
-0.46908426 1.1050646 1.8830605
-0.17119752 1.2902259 1.7997998
-0.20690656 1.3381256 1.7109662
-0.42715779 1.3004586 1.7772927
-0.4692708 1.2735441 1.8018749
-0.32601979 1.3678155 1.6886829
-0.34042594 1.4403811 1.6373779
0.052706696 1.3275518 1.6402917
-0.077258006 1.3271445 1.6466278
-0.028799767 1.2689487 1.7096978
-0.059693135 1.2824423 1.682526
-0.30069119 1.4040989 1.6624776
-0.16860552 1.3536912 1.725064
-0.10326961 1.4211342 1.6445599
-0.16323175 1.3803194 1.7130744
-0.17119133 1.3547649 1.726711
0.081589796 1.2068148 1.707234
-0.20700094 1.15098 1.927333
-0.44478044 1.3029673 1.7701933
0.33507302 1.3430287 1.6772547
-0.48545778 1.1102984 1.8543942
-0.37559563 1.1771531 1.8915164
-0.36187631 1.1951457 1.9168899
-0.19088387 1.3239576 1.7094105
-0.18654303 1.1235496 1.9409883
0.26636317 1.3810402 1.6499047
-0.30588764 1.4158646 1.6502321
-0.061395559 1.2652792 1.7150033
-0.32097483 1.3901745 1.6452796
-0.2004579 1.3240714 1.7137549
-0.19275966 1.3435458 1.7040161
-0.33429098 1.1262286 1.9577994
0.097446308 1.3453819 1.6163985
-0.15071286 1.1422049 1.992722
-0.27821967 1.1428649 1.9251784
-0.028689744 0.937877 2.0278485
-0.31394699 1.0933145 1.9722109
0.26752892 1.3825619 1.651114
-0.25722626 1.0415319 2.0514674
-0.037618991 1.285481 1.6911441
-0.16328479 1.3744023 1.7042226
-0.18939963 1.3819544 1.6950235
0.094108164 1.2391268 1.7781619
0.41561148 1.3615749 1.6556839
-0.50253648 1.2781636 1.826351
-0.072582819 1.3565767 1.6182547
0.038863625 1.3157997 1.6527867
-0.078410894 1.3354179 1.6449983
0.079830348 1.315235 1.6618985
-0.08988864 1.3828021 1.5804852
0.43541944 1.3425539 1.6648024
-0.06574671 1.378554 1.5810038
-0.02336943 1.118014 1.9479436
0.059593152 1.2616401 1.7284757
0.40738982 1.2970091 1.7336349
0.020936394 1.2486361 1.7339535
-0.065635428 1.2545484 1.7401618
0.18079853 1.3055983 1.6755399
-0.28920665 1.3804379 1.7100288
0.064908288 1.3277359 1.6557331
0.32468471 1.3186524 1.6983211
-0.017548006 1.2812735 1.6866968
-0.16507787 1.3816975 1.7148777
0.063423909 1.2732496 1.6455113
0.11061855 1.281691 1.6876068
0.28013599 1.462428 1.5902309
0.059743974 1.2601085 1.7181499
-0.017603448 1.260886 1.7305523
0.021890366 1.2509469 1.7292879
0.069416672 1.274634 1.7081972
-0.033687193 1.2862362 1.6733321
-0.026696503 1.2695965 1.7038708
-0.029547362 1.2699274 1.7233293
-0.064925857 1.3458642 1.6288996
-0.29124939 1.1557299 1.945336
-0.053927097 0.94191998 2.027
-0.043684795 1.3848974 1.6340977
-0.25965881 0.91041559 1.9938986
0.086241797 1.3187447 1.6524831
-0.34939235 1.0786006 2.0280924
-0.041383088 1.3877186 1.6243544
-0.0065132263 1.3144335 1.6338058
-0.034589149 1.3301772 1.6464266
-0.013147385 1.3171266 1.6627291
-0.21098672 1.2701616 1.7766359
-0.19609481 1.2178297 1.8835522
-0.11320487 1.171662 1.9247217
-0.4416045 1.3192086 1.7530475
-0.097974308 1.1219345 1.9730067
-0.45232365 1.2543623 1.8183049
-0.08241909 1.3814301 1.5914377
-0.49876761 1.1104729 1.8824124
-0.33154657 1.2144448 1.8959506
-0.046511959 1.2549218 1.7517884
-0.18976818 1.3281233 1.6835309
0.20105293 1.2999406 1.7364202
0.40693825 1.3097062 1.7159921
0.095059432 1.352983 1.6165887
0.26374361 1.3877888 1.674628
-0.19446009 1.3846438 1.7076502
-0.33094573 1.395954 1.6489512
0.022826152 1.2519548 1.7415318
0.00098210794 1.2745318 1.6802744
0.021386946 1.2489226 1.7309713
0.058715861 1.3469241 1.6234802
-0.1948458 1.3613554 1.7086329
0.31029221 1.3614838 1.6676803
-0.31208125 1.3685373 1.7233608
-0.34152228 1.0684472 2.0638494
-0.36402234 1.060786 2.0965521
-0.028292377 1.3807116 1.5845232
0.37783596 1.3248113 1.8255178
-0.032961894 1.2864094 1.7039055
-0.067258865 1.2791456 1.6997966
0.11323218 1.2634919 1.7125708
-0.07014399 1.2739824 1.71057
0.3094705 1.3329369 1.6919441
0.32886931 1.3305328 1.6956068
-0.053368758 1.2905667 1.6901753
-0.32783884 1.36789 1.6956929
-0.0029631306 1.2911505 1.7012831
-0.32337862 1.3396003 1.8093948
-0.18221244 1.3212628 1.689725
-0.11349338 1.2741137 1.8320011
0.10209014 1.3227468 1.6444705
-0.28040579 1.304119 1.743542
-0.20541826 1.1211885 1.9384345
-0.043104656 0.92399448 2.0145586
-0.31851026 1.1524205 1.9082764
-0.19363219 1.102425 1.9646536
-0.15750542 1.0761943 1.9750011
-0.053861696 0.96115273 2.0470672
-0.51620275 1.2278625 1.8800337
-0.069893472 1.2149749 1.8843315
0.27136862 1.3648615 1.6588954
-0.067248896 1.2629267 1.7522453
-0.21771167 1.2687285 1.8078452
-0.43431786 1.2492843 1.8783989
-0.44924331 1.2356526 1.8470148
-0.075831108 1.1291008 1.945857
-0.19328909 1.2234409 1.8887975
-0.11056368 1.4596987 1.6102636
-0.2305994 1.1773612 1.8775802
0.068522438 1.3473806 1.6222702
-0.032804944 1.3302234 1.6456609
-0.2562139 1.1453048 1.9838814
-0.12547965 1.0593715 2.0137832
-0.23515746 1.0822786 1.9810921
-0.11988962 1.0585893 2.0290592
-0.27270627 1.0992215 1.9840163
-0.13348539 1.0584229 2.0375185
0.34030536 1.4404827 1.5846413
0.0037021742 1.4407233 1.6126965
0.22606957 1.343858 1.689666
-0.052174039 1.3374531 1.6334027
0.070616595 1.3191266 1.6443734
-0.078504957 1.3272482 1.6460606
-0.29368559 1.1663216 1.9059372
0.048199296 1.341749 1.6264815
-0.37272128 1.2012439 1.93027
-0.50515693 1.2313825 1.8557827
0.40074891 1.3668903 1.6509894
-0.31203806 1.1066628 1.9814578
-0.27135888 1.0941858 1.9997107
-0.023743846 1.2841744 1.7094309
-0.055081118 0.94031656 2.018075
-0.12825607 1.0958124 2.0526204
-1.2107972e-05 1.3434515 1.6425078
-0.18626265 1.0486009 2.0550022
0.40568697 1.3497083 1.6802089
-0.21169275 1.0405211 2.051414
0.38250446 1.3586062 1.611605
0.025310546 1.3291167 1.6464087
-0.28433192 1.0488862 2.051095
-0.33577925 0.95898664 2.0328765
0.22408719 1.3807765 1.6351482
0.43994609 1.3168139 1.7045219
-0.0031684362 1.3114529 1.6730539
0.43379855 1.274047 1.7687343
-0.31641316 1.3480414 1.7786114
-0.10729066 1.3127779 1.7707412
-0.32863316 1.3191098 1.8536298
-0.44833213 1.2771757 1.7947712
-0.42154717 1.2686845 1.7877412
0.058475867 1.2611119 1.7311504
-0.017555987 1.2606119 1.7294072
0.43705106 1.2805526 1.7465806
0.1959656 1.3075435 1.7303764
-0.099529564 1.3611412 1.6832098
0.056816008 1.3281674 1.631927
-0.33182347 1.3697009 1.7044752
0.056254409 1.3490006 1.6113334
0.20196059 1.2984506 1.7509029
0.095019132 1.4542569 1.5946987
0.42949092 1.2727308 1.7625455
0.42002267 1.2743882 1.7592164
0.42312455 1.2739667 1.7671266
0.42482135 1.2737864 1.7654818
-0.081334308 1.3786963 1.5841206
0.43757156 1.2588418 1.8091369
0.25219581 1.3393613 1.6833208
-0.062314376 1.2222198 1.8424624
0.083478339 1.2055327 1.8337227
0.43236756 1.0921148 1.8513039
-0.0029391709 1.3607923 1.6130531
0.42198652 1.2296832 1.9186046
-0.42841297 1.2699041 1.7971939
-0.063842684 1.2508739 1.7421786
-0.18730578 1.2662281 1.8219225
-0.038638402 1.3824799 1.5870261
-0.32028207 1.3938147 1.6568307
-0.088441201 1.2409608 1.8137747
-0.47166753 1.0988874 1.9158405
-0.090557232 1.2390517 1.8303237
-0.21090254 1.1818775 1.888019
0.070951104 1.3442913 1.6264064
0.2538026 1.3704903 1.6488563
-0.18839693 1.2167386 1.8917592
0.076094694 1.2774278 1.7013597
0.10177446 1.332026 1.6397363
-0.19719146 1.1545044 1.9025178
-0.43684363 1.2377428 1.8682274
-0.5087778 1.2381709 1.8845702
-0.22802097 0.81614494 1.9694353
-0.021919481 1.1049434 1.9643096
0.058506995 1.318745 1.6587518
-0.18334539 0.86579961 1.9416181
0.039382275 1.3509837 1.621888
0.077759326 1.3318142 1.6345468
0.10181199 1.4313658 1.5775526
0.25474218 1.327081 1.6987931
-0.28881031 1.1097112 1.9795464
0.098075867 1.3464892 1.6210802
-0.086329967 0.92279696 1.9961036
0.051044267 1.2805761 1.7086693
-0.23571058 1.0803155 1.986673
-0.027857298 0.92879647 2.0322492
-0.027417373 0.93366516 2.0209508
-0.06066348 0.93247741 2.0323873
-0.052350614 0.9436543 2.0128481
-0.03776579 0.95687646 2.0495257
-0.31813049 0.93789518 2.109796
0.10597295 1.3173099 1.6544497
-0.22235984 1.0534972 2.0149252
-0.29110205 1.0488783 2.0838678
-0.30202827 0.96488553 2.0721948
0.041106537 1.0689737 2.0419033
-0.28554749 1.0367973 2.1297202
0.23241349 1.3720375 1.6478078
0.22267824 1.367092 1.6639128
-0.35784099 1.0894467 2.0632298
0.027719568 1.3321725 1.6467443
-0.36766803 1.0865812 2.0764062
-0.035143007 1.3876493 1.59115
-0.36585137 1.0602635 2.098738
-0.4574835 1.2589095 1.8117986
-0.030504221 1.2697099 1.7213271
-0.061345685 1.2655027 1.7203379
-0.33661357 1.1426966 1.9380854
-0.34443036 1.1149939 1.9781208
-0.37133074 1.0623543 2.0983007
-0.10158204 0.81235075 1.9324507
0.3338891 1.1403902 1.9286932
-0.29218268 1.1367291 1.9755845
0.24851778 1.1280786 1.9940318
-0.10021496 1.1142083 1.9795531
-0.31755021 1.0756296 2.0266168
0.087440014 1.3184813 1.6480479
-0.13673314 1.0618409 2.0296412
-0.36515087 0.95288199 2.0577383
-0.39848721 1.1130246 2.0247786
-0.38178861 1.1136993 1.9920447
-0.37484723 1.1096487 1.9932415
0.05885464 1.3495473 1.6116065
-0.029347155 1.2197503 1.8537658
0.38590887 1.3513799 1.6752807
0.41897139 1.2637793 1.797743
0.08503671 1.2088764 1.7993301
0.42514771 1.2529621 1.8403981
-0.092282943 1.2442037 1.8262271
-0.11129068 1.2716515 1.8363823
0.4618775 1.0801339 1.9299315
0.39637384 1.0863249 1.887338
-0.073183157 1.3063136 1.6631113
0.27365202 1.3387455 1.6939888
-0.019968586 1.2803208 1.6867841
0.38927379 1.3157599 1.7234142
-0.0071868328 1.2744952 1.7117941
0.21568376 1.3232564 1.724552
0.43859035 1.3105334 1.7422415
-0.050766319 1.2766737 1.7094334
0.40337995 1.3082088 1.7138376
-0.0094758738 1.2726375 1.7192401
-0.0096004484 1.2716116 1.7155548
0.00024760474 1.2709138 1.7184521
0.21223962 1.3124334 1.7312368
0.51909488 1.2016493 1.9306034
-0.22788721 1.1798769 1.8740319
-0.20148297 1.1706499 1.890949
-0.3407712 1.2375948 1.88843
-0.11830577 1.2232769 1.905815
-0.12077064 1.2227436 1.9143538
-0.21195719 1.165476 1.8835686
-0.23736398 1.1640511 1.8859968
-0.19683747 1.1556984 1.9031277
0.11768968 1.1862754 1.9130176
-0.24373378 1.1655542 1.9120911
-0.28643525 1.1565202 1.9227294
-0.2257141 1.152757 1.8989729
-0.51003319 1.2281396 1.8575099
-0.46574551 1.2367203 1.8416333
-0.11652073 1.2062937 1.9082582
-0.28163868 1.1556364 1.9114003
-0.3699562 1.1816448 1.9299822
0.47021323 1.1263983 1.9251826
-0.29873443 1.1626713 1.9050635
0.099674322 1.1839859 1.9093506
-0.30061257 1.1509097 1.9380269
-0.27441362 1.1432345 1.928327
-0.23709947 0.83159357 1.9347969
0.1617291 1.1711601 1.9521499
0.11927667 1.1758362 1.9258068
-0.050518181 1.1154068 1.9430829
-0.19421658 1.126246 1.9561514
0.046363033 1.1014054 1.9622092
-0.12301414 1.1745273 1.9720485
0.0027583099 1.0982147 1.9641753
-0.12167937 1.1777288 1.9370908
-0.048286065 0.85938609 1.9558824
0.020219585 1.0953436 1.971595
-0.48448932 1.1946288 1.9488293
-0.45253921 1.1918732 1.8996779
-0.099882774 1.0965991 1.9904432
0.14353418 1.1453568 1.9700708
-0.28386483 1.1097617 1.9731934
0.15522881 1.1383311 1.9662261
-0.2905069 1.106503 1.9840455
-0.18103454 1.0815338 2.0064726
-0.30926386 1.0898174 2.0244176
0.20732117 1.1097862 1.9944962
-0.34964606 0.94139344 2.0004611
-0.11904286 1.1230922 1.9975412
-0.15279791 1.0541383 2.0905061
-0.23179525 0.95453417 2.0347376
-0.12848006 1.0510372 2.0742204
-0.27374852 1.0662105 2.0231395
-0.22329411 1.0535471 2.020344
-0.12158658 1.0906287 2.0478616
-0.12726308 1.0956619 2.0523238
-0.34889266 1.1220767 1.9584924
-0.21703385 1.0386854 2.0644288
-0.25238857 1.0392904 2.0624945
-0.27234009 1.0217606 2.0627782
0.039810069 1.0382019 2.0962288
-0.47348428 1.0572138 2.0902519
-0.36041921 1.0573847 2.0948932
-0.35747859 1.060456 2.0874691
-0.42565086 1.3413851 1.7869101
-0.42101806 1.2596827 1.8569854
-0.3540422 1.1620748 1.9417515
-0.44529811 1.2395463 1.8560921
-0.1660835 1.0653845 2.0142119
-0.26927188 1.0432736 2.0489371
-0.57922316 1.1703364 1.9589859
-0.29063818 1.3821386 1.7175466
-0.4338724 1.2374445 1.8695004
-0.30265158 1.0928996 1.998736
-0.53695583 1.2308826 1.884569
-0.25397518 1.1082273 1.9643034
-0.25590035 1.0633247 2.0223098
-0.53157395 1.2177972 1.9142582
-0.1861282 0.95526868 2.0254841
-0.1686876 1.0527011 2.0286007
0.2922889 1.3628274 1.6612103
0.38238096 1.2204841 1.8394291
-0.35955185 1.1713349 1.9198784
-0.35890514 1.1579444 1.9260721
0.41188443 1.2639301 1.7742631
0.13078727 1.2580374 1.7346227
-0.09970244 1.1115946 1.9771425
0.093562476 1.1021883 1.8981049
-0.4588179 1.1194743 1.8717964
-0.069996089 1.1165327 1.9483422
-0.024127493 1.3521408 1.6061268
