# .PCD v0.7 - Point Cloud Data file format
VERSION 0.7
FIELDS x y z
SIZE 4 4 4
TYPE F F F
COUNT 1 1 1
WIDTH 234
HEIGHT 1
VIEWPOINT 0 0 0 1 0 0 0
POINTS 234
DATA ascii
-0.30092174 1.3838955 1.8333966
0.15209526 1.4628748 1.676592
0.053623095 1.4909782 1.6374432
-0.14355716 1.2769479 1.8735044
0.19894816 1.234233 1.9619492
-0.24248946 1.2754655 1.9644076
-0.17083459 1.2649887 1.9288884
-0.30705512 1.3648088 1.824147
0.31758773 1.4344456 1.7600799
-0.06532611 1.1949192 2.0077059
0.035362165 0.94218552 1.9281613
-0.035452139 1.0650436 2.0335059
-0.075113147 1.468111 1.6998166
0.082095243 1.4172513 1.7224803
-0.25547725 1.0945793 2.0272174
0.35747057 1.5329806 1.6929799
0.16496865 1.4500765 1.6868263
-0.076058052 1.490851 1.7295307
0.17396288 1.4032705 1.743861
0.068239547 1.4236943 1.7111267
-0.077188447 1.4844743 1.73409
0.049770609 1.3498906 1.8552481
-0.068532154 1.3964865 1.8107116
-0.022380564 1.0842971 2.0483737
-0.29866773 1.3839893 1.8275245
-0.15568234 1.030093 1.9822592
-0.30364823 1.3641021 1.8213444
-0.094177589 1.2857678 1.9001149
-0.026334142 1.1976483 1.9690989
-0.089442946 1.2234638 1.9681394
-0.15922174 1.2142434 1.9768937
-0.20070106 1.0923252 2.033988
0.12225542 1.4724342 1.6626867
0.15341663 1.4623839 1.6760176
-0.075944632 1.5156045 1.7319361
-0.206632 1.5797826 1.6426651
-0.19187991 1.5233649 1.6531303
-0.16769657 1.5111134 1.7134997
-0.028380753 1.3087894 1.9382153
-0.20125197 1.494554 1.7376773
0.24758777 1.2129837 1.8973786
-0.29632714 1.4639903 1.7591436
0.17596282 1.4009889 1.7488019
-0.077712022 1.4685009 1.7060233
-0.27376598 1.2323692 1.9727432
-0.062465571 1.2950248 1.9586893
-0.099917553 1.314009 1.8588324
0.054065984 1.4083995 1.7312151
-0.090576075 1.3042282 1.8833278
-0.093703814 1.1842746 1.998939
-0.085747436 1.4693184 1.72329
-0.20293528 1.498524 1.6919845
-0.23277201 1.0771425 2.0186934
-0.048982643 1.4847851 1.7410983
-0.051712248 1.4857748 1.7425548
-0.10164032 1.2748542 1.9325008
-0.22731419 1.2652936 1.9406626
-0.25565046 1.3177497 1.9104353
-0.069464877 1.4553785 1.7226273
0.054414935 1.4406816 1.6756688
0.059852388 1.3978839 1.7372243
-0.16320847 1.1626297 2.036135
-0.23071031 1.2477558 1.9512146
-0.045606848 1.4987831 1.7282596
-0.086404771 1.292223 1.8876977
-0.065055907 1.2763846 1.9282039
-0.050963998 1.2644185 2.0021002
0.070345305 1.0602758 2.0406132
-0.21122299 1.2145777 1.9661933
-0.16071853 1.1606901 2.0482037
0.085289866 1.4191386 1.7161561
0.20979917 1.3711843 1.8124404
-0.1836648 1.4991605 1.7138492
-0.14443822 1.3997302 1.9006327
-0.36611611 1.3626858 1.8329093
0.16433117 1.4515469 1.6854596
-0.091141783 1.3091825 1.8824369
-0.20559984 1.5288295 1.6531502
0.14050268 1.381451 1.7625254
-0.16822611 1.510785 1.7167861
0.087797597 1.4765671 1.6533344
0.095079221 1.5158526 1.6052651
0.11289348 1.4437754 1.7447605
0.23333372 1.4170047 1.7250841
0.19168714 1.408712 1.7471246
0.17873321 1.408304 1.7267753
0.18035121 1.3938603 1.7504631
-0.18558466 1.5760585 1.6417661
0.10222927 1.3934115 1.7562774
0.1906371 1.4088186 1.7418574
0.084803104 1.4180464 1.7185177
0.095307514 1.4029398 1.7292262
0.090819567 1.402572 1.7483729
-0.027198778 1.3054183 1.9588876
0.045218572 1.0640845 2.0377617
0.41813615 1.2682825 1.984482
0.091494352 1.4653747 1.6733738
0.047805905 1.5179906 1.6162666
-0.12556438 1.2756053 1.9227004
0.385593 1.5250629 1.7286924
-0.073680945 1.5160491 1.7225965
0.14170174 1.3845266 1.7703433
0.4597066 1.4333934 1.7815704
0.14119962 1.3818444 1.7596034
-0.073840618 1.492738 1.7227651
-0.19198559 1.4981973 1.7277247
-0.20169148 1.5261223 1.6529812
-0.27118525 1.1772782 2.0846825
0.18077213 1.411891 1.799289
0.054704685 1.4122632 1.7230165
-0.08446639 1.2808932 1.8998891
-0.10088656 1.2788986 1.9072109
-0.20534061 1.4983387 1.6988136
0.19115584 1.2250429 1.903633
-0.059127279 1.4534518 1.7036695
-0.10060737 1.2447166 1.942696
-0.090830617 1.2251855 1.9691796
-0.055363365 1.1989895 1.9816735
0.04333514 1.0826157 2.0583928
0.037751347 1.3417031 1.9034472
0.050906688 1.3941922 1.7737361
-0.32529169 1.3724281 1.8677655
0.093336076 1.4654655 1.6727643
-0.15537338 1.2667301 1.9844489
-0.06259656 1.1980551 2.0028331
-0.022217529 1.1799263 2.0381103
-0.17120807 1.2205013 1.9816458
-0.036475692 1.1793286 2.0453753
-0.21941204 1.2035861 2.0289037
-0.16344802 1.5311726 1.6547083
-0.18640366 1.2900255 1.9043516
-0.085695878 1.247911 1.9480652
-0.21027818 1.2276192 1.9760094
-0.1711244 1.2149433 1.997221
-0.090406455 1.1683664 2.0579805
0.43017462 1.476027 1.680535
-0.11533378 1.1601523 2.05198
-0.18779069 1.1677723 2.0457785
0.17797668 1.394403 1.7633355
0.18027347 1.3928971 1.7402298
-0.16112183 1.5168504 1.7162147
-0.034262955 1.4967699 1.7279514
0.10237686 1.3931775 1.755132
-0.20539458 1.4975896 1.6970416
-0.21007618 1.4998055 1.7072816
0.023276109 1.4227456 1.7844439
0.048742585 1.3504611 1.8626373
-0.31282356 1.3958871 1.788088
-0.20245497 1.5819551 1.6374557
-0.074638262 1.3938552 1.8330473
-0.10261594 1.307043 1.894051
-0.080968976 1.3419855 1.9008485
-0.089817807 1.2793307 1.908739
-0.22154388 1.2824557 1.910342
-0.12171595 0.9385702 1.961468
-0.1870143 1.2309715 1.9761783
-0.24228267 1.2776163 1.9257737
0.059221014 1.0784241 2.0620642
-0.1973034 1.1665677 2.0778403
-0.26259121 1.2071297 2.0529799
-0.27345714 1.2037115 2.0651722
-0.25389919 1.1685337 2.090261
0.059448656 1.3979244 1.7425483
-0.16979089 1.550386 1.6392566
-0.24315101 1.2397819 1.9574037
-0.27863523 1.1787097 2.0858557
-0.1872413 1.2930053 1.9058048
-0.16384608 1.2862104 1.9320003
-0.25869736 1.2922765 1.9114758
-0.18019092 1.2681226 1.9391654
0.16788577 1.2306714 1.9574933
0.024682676 0.94533271 2.0144944
-0.21895273 1.2668763 1.9370414
-0.25393373 0.99001062 1.947063
-0.093421116 1.2261364 1.9840658
-0.086521886 1.2273401 1.9727014
-0.092689961 1.2018646 2.0070677
-0.069251932 1.2056705 1.9986731
-0.079378255 1.1852149 1.9777801
0.061696727 1.0474303 2.0082717
-0.15941821 1.1868646 2.0083456
-0.12558043 1.1728275 2.0237968
-0.16080391 1.1613636 2.0556254
-0.3001532 1.2315942 2.0120273
-0.27389205 1.2295491 1.9825146
-0.10379536 1.2930313 1.9028608
-0.06557022 1.4897714 1.703032
-0.24384557 1.2799238 1.9206798
0.5314945 1.3985051 1.8603252
0.030691959 1.387355 1.8280582
0.56550682 1.2108773 1.9894737
-0.31027451 1.3963215 1.7863417
0.24671592 1.2113326 1.9015614
-0.012407606 1.3487607 1.921011
-0.18046838 1.2797282 1.9213618
-0.11791363 1.2774116 1.9027305
-0.26462799 1.3037239 1.9223368
-0.19131203 1.2863554 1.9029313
0.057934541 0.98410702 1.9646641
-0.38050506 1.314868 1.9318215
-0.34448493 1.3141341 1.8854935
0.00047492317 1.2194458 2.0026212
-0.202289 1.2130281 2.0001483
-0.21091932 1.2093365 2.0184634
0.30603826 1.23566 2.0331619
-0.20248397 1.2033267 2.0202167
-0.060135391 1.1730256 2.0963604
-0.13281873 1.0745863 2.0307972
-0.12444106 1.1741182 2.0204897
-0.24526225 1.2434319 1.9505271
-0.31014732 1.4677043 1.7804674
-0.061658517 1.4215798 1.7873471
0.082629301 1.3531686 1.8227924
0.22112316 1.3686994 1.823146
-0.13652965 1.2853998 1.922361
-0.083521619 1.34585 1.9026961
-0.20190312 1.526075 1.6486119
-0.21262985 1.2835354 1.8935373
-0.084578089 1.2241644 1.9575759
-0.19559689 1.1680949 2.0628588
-0.17030969 1.5122113 1.724208
-0.044898879 1.4778564 1.738058
0.073081225 1.0761014 2.0611665
-0.32394007 1.3609064 1.8585466
-0.30325687 1.3912914 1.8543084
-0.10842531 1.2795267 1.8726964
-0.25327235 1.2938756 1.9128137
-0.25297415 1.2802875 1.9185896
0.10503067 1.4888176 1.6348627
-0.18953644 1.4999975 1.7256852
0.052598316 0.97918677 1.9737747
0.094483346 1.465331 1.6685934
0.10414067 1.3832046 1.7768538
0.098723277 1.4046197 1.7333568
