# .PCD v0.7 - Point Cloud Data file format
VERSION 0.7
FIELDS x y z
SIZE 4 4 4
TYPE F F F
COUNT 1 1 1
WIDTH 90
HEIGHT 1
VIEWPOINT 0 0 0 1 0 0 0
POINTS 90
DATA ascii
1.8870486 1.1775509 2.4476452
1.8834893 1.1598557 2.4349294
2.1415856 1.2039467 2.5331171
1.8874921 1.157879 2.4351037
1.6760045 1.2024338 2.3175793
1.7103866 1.1985936 2.3074734
1.728968 1.4023459 2.0555861
1.7324289 1.4020691 2.0528491
1.6887275 1.3588165 2.0826192
1.5859325 1.499621 1.7946327
1.6214844 1.2775047 2.1210175
1.4346032 1.3754683 1.9547862
1.4045944 1.4152006 1.8206249
1.3975612 1.4484055 1.8411787
1.386893 1.3828042 1.9232959
2.1358039 1.3132929 2.38989
1.8537124 1.2692232 2.2742994
1.5947579 1.2751366 2.1417613
1.4270991 1.3686426 1.9649478
1.8039615 1.0524677 2.3841891
1.5502015 1.2063441 2.088284
1.6193229 1.2769463 2.1214223
1.6119056 1.5193512 1.7668968
1.6227438 1.3085904 2.0941012
1.268459 1.3090551 1.9816308
1.3585696 1.3533759 1.9263235
2.0818696 1.2413082 2.4208469
1.6945956 1.3691342 2.0934708
1.7223078 1.1942929 2.3093898
1.7935796 1.0544969 2.3864064
1.722237 1.1318346 2.2532206
1.6839777 1.3383895 2.091233
1.6311963 1.3011433 2.1082709
2.1404405 1.1674454 2.5291457
1.2343546 1.2620326 1.9753283
1.6228786 1.2403387 2.262248
1.5470952 1.2045672 2.0766704
2.1528628 1.5446293 2.1361861
1.8129158 1.1716261 2.3903983
1.6606586 1.1596817 2.3566251
2.0230079 1.5355164 1.9892595
1.8302659 1.1928551 2.3530538
2.0420508 1.583045 2.0687709
1.6659167 1.1106545 2.3189275
1.5762073 1.1897178 2.0742354
1.7160341 1.2148689 2.2791443
1.2714143 1.2580012 1.962756
1.9504987 1.3027236 2.3055475
1.7325701 1.4031451 2.0484278
1.6902785 1.3050468 2.1017001
1.5954026 1.2358559 2.2752883
2.063134 1.6481816 1.9939296
1.9886856 1.5520451 1.9161401
1.9636421 1.5657914 1.9109203
1.3068016 1.3433154 1.8818287
1.9200245 1.6297684 1.8518183
1.9096223 1.6423198 1.8833063
1.8930337 1.6214281 1.888564
1.8766627 1.6290212 1.85906
1.8656484 1.6388726 1.839485
1.9130063 1.6401204 1.8899926
1.6032057 1.1821352 2.1761577
1.4943795 1.1845679 2.1583767
1.7282989 1.4040744 2.0536606
1.6753147 1.2261437 2.3114762
1.6825272 1.1614504 2.1337585
1.6303527 1.1857712 2.0559738
1.6101615 1.5305699 1.7728915
1.6487356 1.5385283 1.8055115
1.6252676 1.5049889 1.7808676
1.6248933 1.5071311 1.7791407
1.6062208 1.4897867 1.7951545
1.5807844 1.5011586 1.7895195
1.3773984 1.3659898 1.8408339
1.4074427 1.3317345 1.9170916
2.0873458 1.6481546 1.9954064
2.0496972 1.5827174 2.0823109
1.4425297 1.3477069 1.9126807
2.1872125 1.4611225 2.1758592
1.4392226 1.4381781 1.8600066
1.8349788 1.3640814 2.1641285
1.6428686 1.5345978 1.7555361
1.602989 1.5683625 1.7623584
1.4113414 1.4401057 1.8054798
1.8406215 1.089038 2.5294445
1.6201763 1.5083562 1.7775431
1.6262997 1.2757696 2.1214521
1.4391599 1.3544117 1.8438573
1.6330912 1.5572691 1.7686011
1.6289731 1.5147564 1.7704293
