# .PCD v0.7 - Point Cloud Data file format
VERSION 0.7
FIELDS x y z
SIZE 4 4 4
TYPE F F F
COUNT 1 1 1
WIDTH 268
HEIGHT 1
VIEWPOINT 0 0 0 1 0 0 0
POINTS 268
DATA ascii
3.7780087 0.75014722 3.973104
3.7786152 0.78551894 3.9862652
3.7795172 0.77549869 3.9775789
3.7739851 0.75842798 3.9708152
3.7797327 0.77171248 3.9777927
3.7803125 0.771276 3.9784269
3.8971212 0.61394644 3.6425786
3.4590106 0.7299906 3.8949044
3.549875 0.77114499 3.8602076
3.4570236 0.67483127 3.8794682
3.6731584 0.51601249 3.658926
3.4571073 0.85839027 3.6808195
3.5599866 0.76931745 3.8692958
3.2703054 0.81091177 3.4074817
3.7449586 0.5357427 3.640135
3.698338 0.50277102 3.6483145
3.4750021 0.68731141 3.8093944
3.4774821 0.71889544 3.7801108
3.9200454 0.61804891 3.6192863
3.7252276 0.74079716 3.8768404
3.7547293 0.74043131 3.954608
3.7511032 0.75381529 3.954829
3.8319697 0.56235141 3.6644962
3.8166249 0.71692812 3.7215505
3.8157673 0.71773416 3.7212622
3.4740384 0.73144698 3.7814252
3.460583 0.72646946 3.8980086
3.6558077 0.76915449 3.9119878
3.7391343 0.61273921 3.7062628
3.6817508 0.7739802 3.9287238
3.680268 0.77121669 3.9281287
3.7005975 0.67934608 3.684751
3.7994921 0.73707318 3.9149401
3.6674814 0.54586428 3.6822979
3.6718547 0.51889324 3.7000289
3.507201 0.78198266 3.825181
3.680068 0.77459747 3.9280605
3.6764438 0.58061188 3.5538924
3.6789546 0.76246512 3.9392657
3.6766865 0.76248401 3.95151
3.698868 0.49325728 3.6577182
3.5853829 0.72637576 3.6907122
3.4589469 0.80454355 3.7508821
3.4772921 0.82458848 3.7219853
3.4978282 0.83906883 3.5937624
3.7522917 0.74673718 3.9567173
3.8182585 0.73877144 3.9142222
3.7806911 0.73464394 3.929764
3.4551833 0.75746101 3.8571386
3.4807935 0.77524686 3.6968291
3.8197081 0.716721 3.8471494
3.4796906 0.74203354 3.7051759
3.4711487 0.76902586 3.6946442
3.6760111 0.51279533 3.6290624
3.6943812 0.50975728 3.6513841
3.7837698 0.74314642 3.936542
3.7353487 0.75043046 3.9132507
3.6716187 0.51689547 3.6663764
3.7101221 0.777637 3.9172397
3.4564342 0.75658286 3.8332858
3.8445358 0.54072988 3.6458459
3.7248302 0.73814481 3.8814847
3.5861797 0.77689189 3.6281388
3.8429589 0.54498672 3.6209691
3.4805255 0.8214336 3.6506422
3.4536045 0.86831349 3.6774983
3.4914126 0.74187398 3.7239521
3.7785602 0.64854461 3.727294
3.755132 0.54330194 3.6597152
3.8645325 0.58925891 3.6543112
3.8100228 0.75152004 3.9065509
3.809067 0.73001802 3.9096661
3.7494991 0.58455265 3.6809361
3.8939626 0.627316 3.6873684
3.8678064 0.64939493 3.7224228
3.5797675 0.75510126 3.8824115
3.7379835 0.61677307 3.7038906
3.675884 0.51762933 3.6249084
3.6980023 0.50515729 3.6471534
3.8263786 0.53634393 3.6519814
3.6814034 0.49242023 3.6510754
3.6609776 0.55008304 3.6816239
3.7361393 0.74932498 3.9140248
3.6724575 0.51567888 3.665724
3.7781599 0.72866637 3.9386027
3.751209 0.54315078 3.6408904
3.7219872 0.58153182 3.7083132
3.4626217 0.71502072 3.9164684
3.5251145 0.77769029 3.8422823
3.4859316 0.75800425 3.8368788
3.4858668 0.75725257 3.8373289
3.4720478 0.7452147 3.8265116
3.668304 0.6574986 3.6635051
3.6336546 0.74664748 3.6028628
3.6333361 0.7322256 3.6049788
3.855566 0.56625938 3.6641481
3.8599455 0.57013977 3.6619134
3.460295 0.75275129 3.833791
3.4531906 0.76959676 3.8181455
3.6713054 0.50557393 3.6510592
3.7858851 0.66400999 3.7163084
3.7169981 0.53888446 3.6027086
3.7673528 0.55579877 3.6916146
3.5913756 0.75860846 3.6395555
3.5857208 0.77472228 3.6298003
3.7806323 0.77461308 3.9791005
3.8186243 0.7077561 3.8090379
3.778208 0.79360932 3.9854736
3.7674325 0.75136912 3.9603708
3.7841954 0.72813356 3.9368825
3.7886424 0.74129039 3.9404192
3.8075335 0.7308532 3.9110117
3.8024073 0.72255188 3.9082613
3.8097036 0.73395234 3.9098563
3.7739515 0.76478964 3.9713306
3.9266639 0.62628061 3.6104903
3.472904 0.72621053 3.7839212
3.4727697 0.7908985 3.6534734
3.9112506 0.6290285 3.6301668
3.5821128 0.7361905 3.6855619
3.4913268 0.78127187 3.6570261
3.5789287 0.74818474 3.6801262
3.4774704 0.79818308 3.6386704
3.477958 0.81322324 3.6361418
3.4762859 0.80479527 3.6148045
3.5299571 0.82128686 3.6563041
3.7527719 0.74168527 3.9124405
3.5183668 0.81643647 3.6727631
3.4991386 0.80833173 3.6607759
3.4984543 0.80871409 3.6589754
3.5255878 0.73061585 3.7013669
3.5198436 0.73660713 3.7006652
3.5361753 0.80188638 3.6430051
3.394336 1.0224376 3.5157754
3.7230511 0.54399288 3.6027305
3.9076536 0.61544412 3.6388977
3.4790409 0.81592131 3.6551671
3.8564534 0.5695529 3.661433
3.4741938 0.81936699 3.6856077
3.4746888 0.82177633 3.687676
3.5927362 0.75524002 3.9204404
3.8034592 0.72380102 3.9078627
3.4622953 0.83870173 3.6863649
3.778017 0.72999442 3.9388914
3.8027813 0.53711832 3.6324134
3.7280414 0.5446952 3.5962424
3.4638128 0.92898184 3.43366
3.4849653 0.87916148 3.4510591
3.2785575 0.84855402 3.4052401
3.2690363 0.82214552 3.4135666
3.2837539 0.8168031 3.4622514
3.2877619 0.83269233 3.3891771
3.2512867 0.86533552 3.4212658
3.2688007 0.79306072 3.4235775
3.2700953 0.79516751 3.4223139
3.2415366 0.785689 3.423007
3.2281487 0.80508494 3.4071121
3.8034847 0.71389502 3.7544003
3.7806921 0.53191411 3.6271381
3.818126 0.72379899 3.734266
3.818397 0.71804476 3.7323186
3.7240171 0.74574029 3.874311
3.7865381 0.53606749 3.6049097
3.7402189 0.75106251 3.9041357
3.739042 0.75147521 3.9043007
3.8606861 0.56831092 3.6637683
3.7124565 0.64204681 3.6941454
3.734597 0.75203818 3.9126506
3.8126612 0.72476596 3.7507644
3.8456659 0.73689234 3.8784637
3.853291 0.76808912 3.8657596
3.8223085 0.74397463 3.724278
3.7168977 0.76892823 3.9038563
3.5450678 0.76980019 3.8576686
3.4570947 0.75372934 3.8350251
3.6565609 0.72099459 3.6266849
3.8669784 0.78896254 3.7181089
3.8700721 0.79070598 3.7128749
3.7242796 0.75456023 3.9200189
3.8261595 0.53635198 3.6269071
3.7156796 0.78685606 3.90207
3.6734817 0.76851678 3.9507425
3.6495531 0.72089863 3.8286202
3.7036338 0.68227363 3.6861951
3.6784317 0.7615968 3.9456792
3.9105656 0.63820356 3.66699
3.6536081 0.76312608 3.9123588
3.6047053 0.76970077 3.8945944
3.4591925 0.7239995 3.9094086
3.910845 0.63984901 3.671016
3.8559177 0.56963712 3.6568151
3.4566386 0.74282998 3.8732097
3.8559139 0.5722869 3.6570027
3.9061584 0.60812628 3.6432674
3.4642265 0.74197417 3.8609943
3.2823796 0.80112094 3.4340646
3.4746559 0.93684739 3.3421299
3.4876502 0.9085806 3.3624706
3.8216207 0.71772557 3.8047631
3.8258171 0.72217792 3.7907834
3.8163276 0.71613175 3.849154
3.7951322 0.76567906 3.960783
3.7288263 0.74135602 3.9315386
3.6789119 0.57065862 3.5630736
3.6753998 0.58011824 3.5549617
3.8264837 0.56765693 3.6627426
3.7304778 0.6768769 3.7265203
3.8665442 0.76153815 3.8758299
3.8491089 0.75249445 3.8500166
3.8499091 0.75608009 3.851042
3.8493357 0.74882859 3.8517418
3.6982234 0.76216644 3.9334471
3.7250681 0.76332605 3.911993
3.7042112 0.66941422 3.6981964
3.6359558 0.77166629 3.9101374
3.4621739 0.73520041 3.8868926
3.5801449 0.76227939 3.8982556
3.505024 0.77375507 3.814795
3.4517453 0.79099542 3.806556
3.8049593 0.74414355 3.9383061
3.4531946 0.78259778 3.8043427
3.6022768 0.7182672 3.6592002
3.4821413 0.7991662 3.7471333
3.4614053 0.80403578 3.7478261
3.499084 0.80437338 3.6584353
3.4766378 0.80595821 3.6450012
3.4799466 0.80121469 3.6473815
3.4778397 0.80472827 3.6440892
3.4687693 0.82892179 3.6930113
3.455914 0.83216703 3.6913934
3.4986496 0.83624518 3.5952895
3.5186462 0.80747986 3.6117554
3.284456 0.79988086 3.4336698
3.7279453 0.75302303 3.9013579
3.7254007 0.56845307 3.7063248
3.7950382 0.72562689 3.8644264
3.8301075 0.72376537 3.8115249
3.6654928 0.77600676 3.977165
3.8276188 0.71433675 3.7938433
3.7020352 0.66304207 3.6937325
3.5870481 0.73584551 3.9164107
3.8137331 0.72547311 3.7522426
3.6461194 0.77287978 3.9180279
3.5457275 0.76786131 3.8654082
3.513109 0.78373575 3.8290491
3.7462065 0.53854156 3.6365857
3.8232877 0.7403515 3.9011869
3.517019 0.69731849 3.9627533
3.2839365 0.8213951 3.4552307
3.5487435 0.74786955 3.6702454
3.8163013 0.76102322 3.9350917
3.7383313 0.59209615 3.6940742
3.5791292 0.76344436 3.8843031
3.3028431 0.7974875 3.4413557
3.2319162 0.81764418 3.4264414
3.2805398 0.8598752 3.4076667
3.4660785 0.94513881 3.3394566
3.2676492 0.79792559 3.4187486
3.2899997 0.83097494 3.3911815
3.4963658 0.79324061 3.8129244
3.2973266 0.83913046 3.4265356
3.2943349 0.82794708 3.412473
3.6956756 0.54548705 3.6970499
3.7068803 0.51966625 3.7118595
3.7196679 0.52805454 3.6909933
3.719965 0.52494812 3.6928272
3.4681559 0.71489245 3.7765374
3.5452774 0.70881391 3.9602692
