# .PCD v0.7 - Point Cloud Data file format
VERSION 0.7
FIELDS x y z
SIZE 4 4 4
TYPE F F F
COUNT 1 1 1
WIDTH 317
HEIGHT 1
VIEWPOINT 0 0 0 1 0 0 0
POINTS 317
DATA ascii
4.0457358 0.21282308 3.8330204
3.70297 0.40888786 3.860755
3.7075088 0.39932781 4.0415201
3.8116515 0.13682109 3.8442423
3.6304018 0.49839288 3.8608594
3.4502006 0.47425994 3.580132
3.8868997 0.14992443 3.8235278
3.8370271 0.12152816 3.8293483
3.6268013 0.32412991 3.986315
4.0698028 0.21507756 3.8106468
3.8327947 0.12686005 3.8378356
3.8783455 0.35169333 4.0636992
3.969641 0.32585987 3.9955792
3.9043167 0.34841636 4.1438265
3.8965261 0.27689973 3.9232221
3.9719598 0.32265407 3.9109674
3.8639119 0.16035549 3.7409008
3.8996592 0.1639075 3.8495879
3.8107426 0.38607296 4.0969634
3.8861125 0.22593603 3.8910327
3.8363893 0.38804176 4.114706
3.8747931 0.36881787 4.1036282
3.7466085 0.37729192 4.1027899
3.8550508 0.29636222 3.8695934
3.8378356 0.11875476 3.8319921
3.7632642 0.40820679 4.0797019
3.9504249 0.34005204 4.1043158
3.8103228 0.13924199 3.8804245
3.8348 0.3888323 4.1139965
3.8652022 0.38216352 4.1075191
3.8964677 0.16727242 3.8704095
3.8572123 0.14782791 3.8714519
3.8262136 0.12449839 3.8484595
4.0002065 0.33036083 3.9857244
3.8102548 0.1282867 3.8315325
3.6963711 0.40853029 4.034915
3.6193798 0.39224184 4.0131345
3.8362801 0.11184286 3.8385601
3.744802 0.35431632 3.8724728
3.6627259 0.39902988 3.9712594
3.6593223 0.40700489 3.9695518
3.6019399 0.45184091 3.9377551
4.0307441 0.19201872 3.8477566
3.6243925 0.44338965 3.9297807
3.6369126 0.47389606 3.8617887
3.6456614 0.46205476 3.9019847
3.7033272 0.4331753 3.8074374
3.7006605 0.43922833 3.8019874
3.7236001 0.42654383 3.7758572
3.6844113 0.438835 3.8127987
3.694664 0.46093282 3.791537
3.6815801 0.45125064 3.8045478
3.6789215 0.45512804 3.8058913
3.6789081 0.44756067 3.8064656
3.6945453 0.44842717 3.7963994
3.6730375 0.46557173 3.7991056
3.6798944 0.45561594 3.7888312
3.6785986 0.48156819 3.7762144
3.9066756 0.18767411 3.8673823
3.9028599 0.35354111 4.1445923
3.9309373 0.33920968 4.1184096
3.6121166 0.39502269 4.034811
3.6469977 0.36519104 3.9064217
3.8879886 0.35964361 4.1006417
3.8111494 0.13787426 3.8467498
3.8658295 0.38435969 4.1066227
3.8788059 0.22106433 3.8763547
4.0054545 0.181419 3.7579224
4.0694137 0.27269363 3.8391728
4.0636806 0.24155757 3.848856
3.8775196 0.34901059 4.0682693
4.0653844 0.24589677 3.854635
4.0507483 0.17311573 3.7395232
3.985981 0.14988264 3.808044
3.6512322 0.45986521 3.8307498
3.6280048 0.50866836 3.8576283
4.0037575 0.24811356 3.9130161
3.9280148 0.25733706 3.9142036
4.0772567 0.19275558 3.8039806
3.8970213 0.15610431 3.8436124
4.0079379 0.17814115 3.7383749
3.9626136 0.35354683 4.0966139
3.95946 0.33218938 4.0992346
3.9533327 0.33820441 4.094646
3.9232421 0.14735393 3.8379569
3.6919532 0.3563959 4.0888324
4.0056753 0.35991663 4.042376
3.9982212 0.17282403 3.7506404
4.0422211 0.22564059 3.8779449
3.9268024 0.36457959 4.1588278
3.8854477 0.23010452 3.8887074
3.8520443 0.38862398 4.1125503
3.9538558 0.32875332 4.0970845
3.8190765 0.11283508 3.8312869
4.0334196 0.19508731 3.8376646
3.8886385 0.35845256 4.1014194
3.8878796 0.15235826 3.8222146
3.8872244 0.15007187 3.8224216
3.8118899 0.13659328 3.8461018
3.9242377 0.33891988 4.1272635
3.8938069 0.15667143 3.8246617
3.8874705 0.22958775 3.8937917
3.8659534 0.19652288 3.8918099
4.0042796 0.17871499 3.7642462
3.6841862 0.40857929 4.0228729
3.6433525 0.3921673 4.0160995
3.8234491 0.11469249 3.8247211
3.8598132 0.16475455 3.7348733
3.8216045 0.27815667 3.8467574
3.6176145 0.39025083 4.0115638
3.612767 0.40798506 3.9960389
3.9693704 0.3297376 4.0319228
4.0436869 0.16623779 3.7435071
3.9091985 0.16677871 3.8761833
3.9697423 0.30642876 4.0327601
3.8096941 0.12381116 3.8311534
3.9705586 0.31088874 3.9985569
3.9314947 0.33967635 4.1160007
3.9153931 0.36200115 4.1526203
3.9155662 0.35773066 4.149641
3.9132748 0.35716492 4.1499209
3.9521642 0.32543615 4.0974364
3.9604681 0.33603862 4.0995312
4.0617781 0.22486277 3.8221164
4.0590653 0.18200774 3.7350876
4.0775123 0.22277762 3.8022678
4.0723834 0.202904 3.8136182
3.6312211 0.46404409 3.8204341
4.0617151 0.22666954 3.8214405
3.7426941 0.36449358 3.8674202
3.8699956 0.16555233 3.7777975
3.7408941 0.37683621 3.8621318
3.6382334 0.47655231 3.8005366
3.9044986 0.34925282 4.1002626
3.6675189 0.44530812 3.8394396
3.6802397 0.3707273 3.8803155
3.9426639 0.31900305 4.0335369
3.5900469 0.67069304 3.6972275
4.0615683 0.22581109 3.821564
3.8954661 0.15059382 3.8191195
3.6504183 0.45129016 3.8405268
4.0351553 0.18643923 3.8268695
3.6573093 0.447824 3.8234649
4.000277 0.17229018 3.849474
4.00704 0.17352647 3.7446315
3.644079 0.46011975 3.8675525
3.7463474 0.37824297 4.10288
4.0361867 0.19210905 3.8223984
3.9533467 0.3265833 4.0971022
3.8747342 0.22584669 3.8740416
3.9319506 0.25152245 3.9165497
3.900106 0.32479927 4.1009526
3.9681373 0.15003286 3.8230817
3.8725803 0.16126516 3.7792647
3.8921914 0.15821488 3.8279703
3.9267206 0.14579977 3.8314946
4.0507741 0.15870279 3.754662
3.462105 0.47783571 3.6354563
3.4360523 0.530029 3.5943902
3.8921578 0.15827778 3.732482
3.8108218 0.12849958 3.8226895
3.953866 0.31893548 3.9358039
3.9826403 0.16599414 3.8664994
3.9704893 0.33033609 3.941117
3.8899198 0.15507761 3.825036
3.9276359 0.14929891 3.8003223
3.8210325 0.16824229 3.8734477
3.9650385 0.32944354 3.9333839
3.9744091 0.32822761 3.9241729
3.9029715 0.35302883 4.0327554
3.8552229 0.1609167 3.758424
4.0042791 0.17059915 3.8519309
3.8874192 0.3613275 4.10005
3.8869812 0.35934386 4.1007271
3.8348804 0.12569065 3.8353732
3.9684525 0.32943127 3.9404843
3.9660823 0.30647597 3.9475625
3.9466352 0.14528239 3.7834756
3.9543595 0.31046978 3.9410503
3.9976916 0.33600554 4.0695009
4.0087767 0.36652794 4.0577416
4.010354 0.3697851 4.0562592
4.0119753 0.37224433 4.0554624
3.9808996 0.34807175 3.9147708
3.9292581 0.14382628 3.7927585
3.8717828 0.3800202 4.0909963
3.6152217 0.37319922 4.0639281
3.8592379 0.1608465 3.7737377
3.7130547 0.3981463 4.0491362
3.7026918 0.39850467 4.0387845
3.8826232 0.16319948 3.8039241
3.8848608 0.15623045 3.807162
4.0322709 0.389956 3.9041007
3.9040473 0.1463578 3.7699893
4.0299234 0.38857979 3.9111459
4.0333648 0.39010501 3.9060631
3.8771276 0.36471495 4.1071
4.00669 0.18415734 3.7547917
4.0421934 0.26306245 3.8845909
3.9036436 0.16482712 3.7214408
3.8476136 0.38541803 4.1007528
3.8723779 0.3980101 4.08955
3.9028647 0.15041657 3.810962
3.9672074 0.16400947 3.8529532
3.8583007 0.29895285 3.8712063
3.9826567 0.16333874 3.84497
3.8360937 0.36660227 4.133008
4.0605507 0.23521283 3.8584034
4.0409541 0.1672582 3.7483344
4.0114355 0.19368705 3.7451541
3.9362509 0.16180949 3.715066
3.8764038 0.3512865 4.0686903
4.0800986 0.21332297 3.7978916
3.8969424 0.16181159 3.8395686
4.0608382 0.23675136 3.8624709
3.9761257 0.16607279 3.8522139
4.0001707 0.17514203 3.8450868
4.0541334 0.20613611 3.8339045
3.4602675 0.46286562 3.6069109
3.9797931 0.32485995 3.9808795
3.9045916 0.14585552 3.8129225
3.8647149 0.15678325 3.7895052
4.0032406 0.17609578 3.7756355
3.8582873 0.1672169 3.7822926
4.0387692 0.18841547 3.8317583
3.9085834 0.169716 3.8738511
3.9464846 0.14503755 3.7832224
3.8673506 0.19368285 3.8930209
4.0351181 0.19131079 3.8236856
4.021647 0.35305041 4.0673342
3.9008398 0.34685606 4.0975242
4.020947 0.35853514 4.0681329
4.0158854 0.33870727 4.0643435
4.0204091 0.35474646 4.0694566
3.8609421 0.16531013 3.7823355
4.0036912 0.35169858 4.041532
4.004797 0.3551701 4.0426612
4.0045114 0.35544908 4.0414581
4.007617 0.36739549 4.0408988
3.9490669 0.34525394 4.107058
4.0034966 0.34799808 4.0431857
3.9881928 0.16753553 3.8398335
3.9095531 0.15827869 3.747668
3.9836178 0.31649721 3.9894273
3.8047152 0.39616248 4.1311107
3.7860754 0.39203846 4.0872707
3.6157992 0.37166095 4.0643125
3.9031134 0.14983322 3.7665854
3.6208553 0.41021371 3.985054
3.6145475 0.42116624 3.9825249
3.9091885 0.15794697 3.7474177
3.7619929 0.34515548 3.841413
3.6252341 0.44178453 3.9291544
4.0466719 0.20748731 3.8146174
3.8977768 0.15220609 3.8177092
3.8926539 0.14995554 3.8217144
3.8598061 0.16220507 3.7861803
3.6262758 0.47222838 3.8708234
3.6892428 0.4429439 3.7929482
3.8682313 0.167547 3.7807648
3.4622273 0.46143568 3.6065638
3.9707954 0.30344096 4.0008473
3.9678109 0.14907722 3.7861063
3.9947114 0.33414218 4.0052958
3.9946194 0.33116972 4.0035257
3.9879513 0.31709087 4.0071173
3.9713602 0.29950789 3.9739943
3.9723814 0.31450534 3.9174774
3.8058283 0.40699929 4.1066861
3.8269765 0.11896539 3.8536572
3.8363457 0.12154065 3.8290737
3.981312 0.32089189 3.9778068
3.9903691 0.3343308 3.9756019
3.7379394 0.38492334 4.0820312
3.7404995 0.36482623 4.0821462
3.9689596 0.31456172 4.0443187
3.9834404 0.32565212 4.0017891
3.8945751 0.17202424 3.8595977
4.0170684 0.3533774 4.0635319
3.98071 0.31682712 3.9838336
3.9799354 0.31188437 3.9741082
3.969532 0.33000386 3.942014
3.9754555 0.32691869 3.9486558
3.9817209 0.31874782 3.9567828
3.7028711 0.3963736 4.0464993
3.8046713 0.13265973 3.8361676
3.8569343 0.14520869 3.8747654
3.6281459 0.46701595 3.8721225
3.8980756 0.17628561 3.878859
3.6320696 0.37190202 3.9123616
3.9125855 0.1599572 3.7222705
3.9341586 0.33200392 4.0864964
3.4629941 0.48251167 3.628546
3.9305167 0.347664 4.0821166
4.06668 0.26727736 3.8362205
3.4582188 0.45045087 3.6142368
3.8515146 0.29733551 3.8670096
3.8993053 0.16172911 3.8440139
3.8377507 0.16834451 3.7676466
3.6254632 0.43835357 3.935081
3.4799957 0.45712036 3.6148429
3.4651244 0.52197737 3.5817218
3.4723432 0.49258783 3.56497
3.4791031 0.49935949 3.6007268
3.8300426 0.21651167 3.7195947
2.4316187 2.4259803 0.97355551
3.8117633 0.13406473 3.8519249
3.859103 0.14384422 3.8732839
3.8982954 0.16606377 3.8547385
3.6755176 0.40856171 4.0504317
3.8993917 0.15627661 3.8635721
3.8460069 0.39728352 4.112639
2.9003444 1.6658806 2.2410464
3.1320219 2.6389358 0.9707821
3.6210318 0.34788197 3.9665632
4.073627 0.19447376 3.7837663
3.834976 0.16403612 3.8794661
