# .PCD v0.7 - Point Cloud Data file format
VERSION 0.7
FIELDS x y z
SIZE 4 4 4
TYPE F F F
COUNT 1 1 1
WIDTH 322
HEIGHT 1
VIEWPOINT 0 0 0 1 0 0 0
POINTS 322
DATA ascii
3.8258276 0.34512663 3.8349576
3.859484 0.33809221 3.858901
3.8633101 0.35930017 3.863961
3.863899 0.35879999 3.864537
3.7116625 0.12243932 3.5533261
3.5271602 0.480288 3.5953374
3.5885212 0.41532859 3.5817208
3.5869317 0.43666646 3.5511134
3.3168616 0.45611241 3.3363919
3.8338532 0.33214611 3.8435028
3.875104 0.15403344 3.541775
3.8752093 0.31046239 3.604166
3.9292095 0.16699505 3.430285
3.536252 0.34231222 3.8045022
3.5363944 0.3419615 3.8083322
3.7992244 0.15112187 3.5491009
3.7623901 0.37082389 3.8227813
3.7606463 0.36820611 3.8222377
3.7548532 0.2824586 3.5758638
3.7366076 0.10502033 3.537951
3.7523355 0.38164905 3.8211541
3.6854391 0.39001828 3.7965269
3.8567786 0.1280977 3.5263834
3.7009418 0.36182469 3.7994707
3.875344 0.32513079 3.7989347
3.5358315 0.33304486 3.8258512
3.7159832 0.38243598 3.8099771
3.7581546 0.35907784 3.8456092
3.798346 0.15417594 3.5701947
3.7581038 0.13609765 3.5759988
3.8418584 0.12384884 3.5207889
3.7598052 0.13398026 3.5753803
3.7268207 0.11034501 3.555702
3.5352592 0.3721298 3.7463784
3.7359247 0.098001987 3.5445545
3.6446395 0.33827534 3.5919614
3.569761 0.38816804 3.6987846
3.9343097 0.24087386 3.5896749
3.5083809 0.43228701 3.674289
3.8857484 0.24634396 3.604358
3.8807807 0.3266809 3.5645914
3.7315705 0.16124396 3.6076283
3.8641832 0.12746039 3.4920921
3.8008492 0.15028177 3.4509919
3.5274942 0.44020042 3.5553613
3.6155157 0.38231111 3.5197248
3.5724683 0.43480188 3.5329611
3.569911 0.43861184 3.5346501
3.5700948 0.43103927 3.535116
3.5594313 0.46045476 3.5049179
3.7805326 0.1332693 3.4673438
3.8423772 0.12692386 3.5150087
3.8324027 0.33723277 3.8445001
4.0163069 0.25699323 3.6080329
3.7114284 0.12345269 3.5558887
3.7805316 0.20754854 3.5788469
3.8936701 0.17173152 3.4463532
3.7986894 0.33313817 3.771462
3.8805346 0.13923351 3.4979017
3.8659999 0.15189342 3.5445206
3.9661498 0.19450845 3.4943988
3.970005 0.18387328 3.4841816
3.8566465 0.12716889 3.5087714
3.892504 0.25869051 3.6017025
3.8937199 0.22232488 3.3990722
3.7597287 0.13331091 3.4599736
3.885812 0.16308896 3.4398124
3.8840358 0.31412601 3.7210245
3.7954407 0.18424515 3.5659401
3.8576031 0.34855136 3.8561003
3.6559815 0.36151099 3.7841511
3.8657131 0.13099369 3.5298984
3.7846327 0.13968047 3.5230696
3.7840452 0.13737978 3.5233169
3.7907221 0.14407551 3.5248935
3.7909594 0.21602495 3.5953145
3.8932643 0.16893014 3.4527304
3.5388925 0.32983094 3.8262935
3.9025786 0.1617028 3.5379875
3.5846448 0.39023644 3.7292297
3.5264845 0.38794869 3.7303598
3.7534723 0.14369957 3.4894149
3.8861711 0.31604543 3.7247303
3.9302897 0.15745106 3.4275098
3.8116543 0.1538543 3.5744896
3.7084675 0.10955247 3.5403597
3.9324396 0.35277477 3.7429807
3.8673885 0.38755411 3.8709755
3.8456125 0.34583184 3.8511827
3.8765504 0.31063393 3.7916987
3.8848512 0.32136592 3.7929931
3.8565097 0.35305744 3.8578055
3.9561145 0.21546184 3.5043955
3.9660745 0.19381133 3.4944487
3.5240092 0.44644785 3.5545988
3.8869927 0.30148938 3.7193527
3.6417971 0.34847066 3.587322
3.6004844 0.41094616 3.5722761
3.7918508 0.13809727 3.519115
3.9519277 0.20375952 3.5124106
3.8938828 0.1640303 3.4328585
3.5421722 0.44220331 3.5999086
3.6717739 0.35946378 3.8210402
3.9312952 0.18222824 3.5070992
3.8776674 0.31180719 3.7912493
3.8373351 0.2385239 3.6132214
3.8408372 0.13423216 3.5122623
3.316978 0.46722111 3.3428276
3.3289213 0.430803 3.3720379
3.3345904 0.47698647 3.3173094
3.8218112 0.34357864 3.8049252
3.8770187 0.31775329 3.6343944
3.7141588 0.11994456 3.5134168
3.968708 0.1903796 3.4891217
3.8790364 0.31592265 3.6170883
3.8622553 0.34108174 3.8334405
3.8707209 0.32447341 3.824712
3.8841479 0.15467529 3.5553167
3.9033067 0.15976541 3.5397339
3.8115737 0.34325904 3.8027892
3.7478793 0.24457179 3.5674381
3.8686099 0.15265231 3.5496581
3.7510567 0.14391345 3.4422636
3.8762908 0.35202691 3.8443658
3.8840759 0.33599743 3.6072946
3.7128103 0.14467266 3.578711
3.8768005 0.14864209 3.5493279
3.9307194 0.21990681 3.5586152
3.5371966 0.35240445 3.7970448
3.7392719 0.25683132 3.5610418
3.6208127 0.37966168 3.7625632
3.9331741 0.37897208 3.5914931
3.7100651 0.32921576 3.5224476
3.9316616 0.37746733 3.598738
3.9852128 0.28408244 3.6825073
3.9327791 0.38168195 3.5911374
3.93448 0.37911826 3.5933218
3.8024104 0.34836572 3.8103068
3.7886965 0.15365261 3.4213464
3.8997738 0.16618857 3.5337386
3.7720113 0.36858067 3.8076167
3.7982829 0.13815799 3.510174
3.8667083 0.15246294 3.5448344
3.7554028 0.36536631 3.8452413
3.7582188 0.2850908 3.5771363
3.7552752 0.37196073 3.838258
3.8811669 0.1521807 3.5351524
3.7645378 0.34916484 3.8406971
3.7975886 0.33538732 3.772038
3.8833208 0.15047345 3.5061884
3.9595299 0.22684599 3.5447619
3.8981469 0.16167653 3.5332093
3.8548331 0.13540907 3.4763131
3.8256598 0.1320263 3.4987266
3.8983734 0.16431136 3.5334609
3.8873777 0.30744949 3.6869278
3.7471557 0.38311672 3.8089418
3.9561796 0.17696987 3.4607387
3.7578487 0.14405762 3.4932442
3.8843589 0.33852041 3.8352864
3.8773682 0.35394385 3.844408
3.8935637 0.16615541 3.4641261
3.8107283 0.15680715 3.572283
4.0116553 0.25208256 3.6053886
3.935771 0.17932753 3.5209153
3.8691862 0.1618578 3.541373
4.0164642 0.26021233 3.6101594
3.9303927 0.18139452 3.5084875
3.9872978 0.27470481 3.683203
3.9409955 0.34537867 3.7552993
3.9358854 0.32550532 3.751826
3.8134284 0.13887055 3.453402
3.9217095 0.34230179 3.7306056
3.8860133 0.15654285 3.5294845
3.8722048 0.29487899 3.6567073
3.7326341 0.37814599 3.8427632
3.7152779 0.37271607 3.8077862
3.5323529 0.35056695 3.8000262
3.6581464 0.36815125 3.800086
3.8860345 0.35045868 3.5922883
3.88503 0.35156065 3.5919735
3.8660171 0.29419771 3.6352096
3.5229862 0.39535558 3.7274568
3.715755 0.20756285 3.5819585
3.5780785 0.38808265 3.7230637
3.7715552 0.14103997 3.4708588
3.5259089 0.40973717 3.71944
3.8831306 0.33103117 3.8219652
3.5332406 0.39046165 3.7185659
3.5264971 0.40132228 3.7169178
3.7481604 0.17474024 3.6038628
3.8754926 0.32549065 3.8065522
3.5395746 0.42758593 3.5568421
3.5405996 0.42629287 3.5558093
3.7525022 0.14942494 3.4905701
3.5601337 0.45752975 3.5063071
3.5789161 0.42678142 3.5204566
3.8845372 0.29015484 3.693326
3.8600206 0.13834704 3.4781423
3.8974035 0.31356677 3.6982164
3.7127862 0.12090818 3.553067
3.8821347 0.28655529 3.6665277
3.7080324 0.12885 3.5330281
3.8765054 0.30224565 3.610472
3.7156153 0.10948621 3.5303864
3.727123 0.32830271 3.8147545
3.696671 0.12677777 3.5590994
3.6638572 0.34618816 3.8009109
3.9115398 0.16317637 3.4328096
3.9087598 0.16132507 3.4261105
3.6151338 0.32229647 3.8565788
3.8122001 0.33698612 3.8119771
3.8817041 0.30076537 3.6831548
3.9367127 0.34020391 3.7510924
3.9425547 0.1609893 3.4283061
3.8922319 0.30392933 3.6754932
3.9050071 0.19779554 3.5202937
3.8005264 0.33343908 3.767221
3.7556376 0.26582626 3.5843081
3.7485864 0.35706893 3.812552
3.8795428 0.36822781 3.5881712
3.9001803 0.31225786 3.6684937
3.7260773 0.372879 3.8148839
3.9300289 0.35447687 3.7421827
3.6578674 0.3701115 3.7919879
3.536973 0.35516009 3.7898366
3.8095517 0.13197936 3.4884567
3.6137061 0.37736058 3.7669303
3.7325954 0.15384698 3.4703786
3.588016 0.39920738 3.7382236
3.5548081 0.37526074 3.7402427
3.5757918 0.37925065 3.7163792
3.5326807 0.4184725 3.6676743
3.6298432 0.37311876 3.4990466
3.785048 0.14001067 3.5208836
3.8516188 0.1304142 3.5250258
3.5267389 0.4487412 3.6063414
3.5322776 0.43873876 3.6090667
3.5936666 0.41180336 3.5103362
3.4785504 0.58689457 3.3616354
3.4801648 0.59406674 3.3562384
3.8679655 0.16469248 3.5439758
3.4707768 0.60972941 3.3690531
3.8164685 0.13656421 3.5503585
3.8974311 0.16115341 3.4428196
3.8951638 0.32926306 3.801506
3.8982122 0.32692823 3.7834444
3.7975273 0.14929906 3.4199507
3.7678351 0.16719432 3.3943636
3.8021441 0.21701583 3.6091788
3.8254051 0.32642609 3.8090682
3.9341986 0.26140711 3.5785394
3.5206833 0.41260347 3.6795037
3.6105204 0.40913361 3.5324178
3.7977586 0.14894333 3.4210949
3.5413909 0.4530881 3.582022
3.5745759 0.41678023 3.5674286
3.5581324 0.38605043 3.6033945
3.5256212 0.46866989 3.5961037
3.59604 0.40804929 3.5103116
3.3247921 0.43561226 3.3993819
3.5145214 0.61431658 3.3642375
3.4710426 0.60566521 3.3699694
3.5308259 0.34228879 3.8220336
3.8029149 0.1310768 3.5037026
3.8989763 0.17496708 3.4388919
3.7149029 0.12128336 3.5086558
3.5274179 0.31281659 3.7363827
3.2883568 0.45493543 3.3626015
3.3290942 0.43205243 3.3690383
3.7510316 0.28339562 3.5737088
3.5594506 0.32892564 3.7565908
3.5340531 0.36804032 3.7299211
3.5469849 0.37933415 3.5713553
3.5120561 0.44669303 3.5361521
3.6093843 0.41121435 3.5281446
3.887753 0.33994773 3.8316536
3.7220752 0.34535465 3.8782442
3.8822248 0.17573956 3.4024074
3.5992298 0.3374424 3.8463373
3.7272196 0.33496407 3.8760176
3.9093738 0.3364788 3.7901671
3.6881068 0.3570444 3.8284636
3.8951411 0.31334555 3.6955168
3.8950222 0.29707453 3.6806548
3.7283912 0.15536723 3.4747274
3.7173209 0.36614671 3.8082464
3.5487847 0.53959346 3.3826756
3.8841491 0.14762592 3.5054212
3.5369012 0.38156056 3.7309017
3.5316839 0.41928065 3.6687922
3.5865827 0.3783741 3.5990963
3.8797674 0.31342319 3.8157678
3.766078 0.26785979 3.592684
3.3506806 0.43912548 3.3672802
3.3526077 0.45637161 3.3429017
3.3310335 0.50408149 3.3369601
3.3140216 0.44304109 3.3475146
1.8222923 2.2877247 0.716102
3.3268378 0.44484612 3.3463135
3.7144661 0.20395216 3.4285316
3.871242 0.34402418 3.8383834
3.7126894 0.11959371 3.5609076
3.76196 0.13001142 3.5769315
3.7984133 0.15319003 3.5544019
3.5949559 0.38906187 3.7773383
3.8006709 0.14332022 3.5629175
3.7535822 0.26435024 3.5739894
3.8103166 0.156949 3.5716262
3.7020133 0.3710849 3.4969368
3.5337365 0.3335208 3.6863966
3.7150683 0.35995471 3.8509409
3.5236347 0.43943942 3.5208819
3.5324166 0.32837051 3.6992996
3.5138023 0.35998023 3.7068768
3.4954858 0.48729023 3.4997621
3.4806423 0.42607474 3.6441419
1.7777427 2.3064163 0.74773872
3.5295596 0.44606543 3.4949965
3.7013164 0.34684917 3.8415716
3.5230784 0.40574482 3.6828949
3.8886845 0.32351911 3.8339872
