# .PCD v0.7 - Point Cloud Data file format
VERSION 0.7
FIELDS x y z
SIZE 4 4 4
TYPE F F F
COUNT 1 1 1
WIDTH 314
HEIGHT 1
VIEWPOINT 0 0 0 1 0 0 0
POINTS 314
DATA ascii
3.6297207 0.3260445 3.1216404
3.6722474 0.34084985 3.142117
3.4623384 0.10179087 2.8693845
3.0023825 0.27964556 3.0384974
2.9863949 0.42196929 2.7607536
2.9868579 0.42646649 2.7570152
3.0041442 0.43582273 2.7861824
2.7871435 0.42008734 2.7294276
2.8052685 0.39733872 2.7489309
2.7885227 0.45377612 2.7503476
2.706527 0.41152725 2.8164322
2.7087097 0.40948504 2.81896
3.3633146 0.28921619 3.1700127
3.3990393 0.22715229 3.2464523
2.6519725 0.42323849 2.7261314
2.6228538 0.29948381 2.647692
3.5891783 0.31643552 3.060745
3.6623418 0.34883371 3.1657672
3.6480367 0.15051392 2.7032723
3.5347941 0.34788516 3.1147068
3.5629482 0.35134059 3.1231868
3.5122859 0.11625513 2.8817725
3.6403697 0.29715222 2.905616
3.326551 0.34789604 3.0968194
3.4846117 0.077814825 2.8555343
3.545104 0.095864803 2.7742612
3.6264079 0.3090623 2.8456721
3.6569231 0.30528477 3.0954049
3.609921 0.32430995 3.092818
3.5899491 0.31367099 3.0652757
2.7805824 0.36533538 2.8632333
3.6057751 0.20524041 2.6805978
3.452704 0.33941582 3.1080837
3.6108236 0.32313499 3.0933189
3.5269215 0.12041078 2.8244431
3.347785 0.30553496 3.1739132
3.3244386 0.34585902 3.0958524
3.6658173 0.29825529 3.0009677
3.6744621 0.36255261 3.1501718
3.6541357 0.32184017 3.1287282
3.6566622 0.30579981 3.0929556
3.3326802 0.33525831 3.139447
3.5331633 0.11896613 2.8190396
2.9923809 0.28230256 3.0512404
2.999356 0.28318921 3.0383592
3.0141821 0.48361254 2.7622335
2.9839609 0.42535028 2.754617
3.6271245 0.28857958 2.9206605
3.4563587 0.099409729 2.8298399
3.6385202 0.31836492 2.8867571
3.5327158 0.17652053 2.8804758
3.5191066 0.12434234 2.8112462
3.6840544 0.36242113 2.8626556
3.6115098 0.1346505 2.8283854
3.5921643 0.36933842 3.1838832
3.6591303 0.28974688 2.9637218
3.5129037 0.32827887 3.2331538
3.5466704 0.36263812 3.1131032
3.518733 0.31012598 3.22334
3.6055307 0.31634426 3.1159043
3.49435 0.12434946 2.8009977
3.4743478 0.096135117 2.8662131
3.6184335 0.26611334 2.8957171
3.5154588 0.35165998 3.1186738
3.3402505 0.32660329 3.1459577
3.6852367 0.3043586 3.07198
3.6369994 0.33288491 2.8717568
3.635932 0.33396891 2.8716683
3.6275237 0.27619562 2.9176345
3.5313551 0.11819349 2.8223839
3.4884651 0.12962295 2.7995474
3.6711571 0.31101182 3.0557754
3.6712134 0.2960268 2.9726622
3.4634082 0.10028091 2.8688846
3.6758347 0.28659815 2.9712312
3.4615626 0.088950895 2.8460569
3.6759591 0.32329279 3.0879433
3.4946976 0.30660665 3.185411
3.4424322 0.12537001 2.8082824
3.544646 0.13987713 2.8581474
3.7203698 0.32328641 3.01615
3.6615102 0.2863352 2.9514987
3.5492885 0.33661461 3.116184
3.6370819 0.29957116 2.9157844
3.6449189 0.29663181 2.9201038
3.3377366 0.33088672 3.1388323
3.6382041 0.32970202 2.8860307
3.4532695 0.097466484 2.8638806
3.4950001 0.2772637 3.2446191
3.6087458 0.13695943 2.7665806
3.517487 0.13043772 2.720989
3.4827366 0.14783207 2.7023768
3.5609407 0.19790636 2.9053092
3.6241446 0.30738333 3.0963261
3.6931469 0.22416064 2.8286769
3.6826997 0.24474967 2.8476191
3.5073156 0.13290554 2.8103914
3.5071521 0.31756675 3.1681583
3.5179617 0.13008434 2.7220562
3.6499481 0.29857495 3.0639865
3.046216 0.40811938 2.8026793
3.411833 0.28313124 3.2023845
3.4139087 0.2781429 3.2010281
3.3387823 0.31785089 3.1715291
3.4932115 0.32739198 3.1166916
3.5277083 0.31582189 3.2010655
3.5211873 0.13114831 2.7063975
3.3952284 0.22726853 3.2429419
3.461448 0.20866717 3.256619
3.6512034 0.15794687 2.7769206
3.6447651 0.16140498 2.6921346
3.335299 0.32584733 3.1546044
3.6706076 0.30884314 3.0510685
3.6727502 0.31028119 3.0436461
3.652462 0.28557438 2.8581591
3.6039119 0.17233601 2.6921031
3.5096939 0.30706662 3.2243056
3.3178051 0.28846678 3.0883858
3.6465993 0.31521097 2.8841622
3.5050881 0.12169357 2.7972636
3.0024784 0.42683741 2.7745657
3.4061096 0.2829099 3.199785
3.3531082 0.30512282 3.1014328
3.370374 0.33251151 3.0960457
3.2875347 0.35269421 3.0808067
3.6679857 0.33795464 3.1291015
3.6904824 0.1822108 2.837013
3.5909991 0.31456354 3.058635
3.4614429 0.13515154 2.7892091
3.5176673 0.34512821 3.1186543
3.2396228 0.45600533 2.8451638
3.0296528 0.43860897 2.7903793
3.6202781 0.1301991 2.7861447
3.3652303 0.199099 3.2123241
3.5481944 0.34734505 3.2122028
3.6079264 0.22417176 2.8947401
3.4626598 0.14803086 2.7820256
3.4531968 0.34772027 3.110178
3.3453598 0.35532477 2.9420416
3.5175517 0.12762143 2.7221267
2.7936678 0.32525924 2.802829
2.7792184 0.38817406 2.7499392
2.7297804 0.42039135 2.7078168
3.6789098 0.29536229 3.0912781
2.7909606 0.41894716 2.726403
3.5305033 0.34494594 3.1223924
3.7585223 3.4812841 -1.0174574
3.7126114 3.5381641 -1.002762
2.0634644 2.3891861 0.35082027
2.1478682 2.3955634 0.36967176
2.0537391 2.303848 0.3139427
2.2147658 2.3389304 0.22329368
2.0340478 2.4145582 0.31738538
2.0187378 2.3332901 0.27920914
2.2314205 2.5277748 0.11030427
2.0104263 2.444262 0.29109162
1.7256098 2.3646154 0.14346123
1.7532631 2.566411 0.10648662
1.8542551 2.3693433 0.21437028
1.7139809 2.4507532 0.21445613
1.7133207 2.3751969 0.13123262
1.9360934 2.1757865 0.48090446
1.5650631 2.3325949 0.15599605
1.7333851 2.594774 -0.0020242219
0.91806638 2.2736843 0.54482371
1.4980116 2.400584 0.073818088
1.2780523 2.5160091 0.052418072
1.1287622 2.4616065 0.086553551
1.0679981 2.357291 0.32032809
1.1995293 2.3849897 0.056584764
1.6411065 2.3729165 0.10785456
0.93673635 2.2229712 0.60176367
0.72223854 2.1244102 0.62809592
0.71798366 1.8699563 0.5455035
-1.2910124 2.5427778 0.20994437
-1.3248352 2.6145337 0.040249538
3.0610559 0.42947814 2.7417021
2.3475611 2.6349969 -0.0077917497
2.3708677 2.3556833 -0.17101672
3.0378828 0.47679678 2.7407322
2.3467155 2.3316867 0.30035341
2.5075488 2.1353951 0.49721876
2.2093742 2.4112122 0.3178328
2.3003218 2.5049708 0.093293115
2.3782289 2.5767052 -0.11269026
2.1798377 2.0447464 0.16503473
1.3596758 2.3785012 0.23599389
2.8072643 0.4396289 2.7190139
1.7147671 2.3491662 0.14626741
0.665793 1.8414446 0.51873314
1.0461354 2.2671959 0.2312617
1.1278294 2.3954563 0.13005117
1.2569278 2.6821668 0.23605196
0.90936106 2.2299848 0.5641588
3.0402615 0.4478929 2.7218804
0.94801468 1.9230627 0.43564653
0.96643329 2.3124971 0.40091777
0.97681117 2.2370803 0.50914872
0.83544254 1.8302606 0.60609311
1.0068444 2.2778842 0.4463428
0.3714591 2.1758566 0.56852138
0.13668893 2.1401932 0.39131275
2.7863996 0.35109493 2.7552981
0.97348469 1.9625285 0.34309751
3.5508184 0.13496447 2.8483498
1.8379236 2.3925505 0.18914624
1.2757871 2.4471204 -0.013464332
0.87533379 2.1395292 0.63199896
1.0390373 2.3543229 0.23796836
2.7989333 0.355187 2.7694414
1.629308 2.5327218 0.14027455
0.83773345 2.1161127 0.59791851
2.0361323 2.3349376 0.27705288
1.5664477 2.3724058 0.086597331
1.2260031 2.4793785 0.0037990944
2.1791794 2.2808807 0.36143991
1.700362 2.4191902 0.24736321
0.87484151 2.0681975 0.61908925
0.81068701 2.122359 0.56518233
0.51587403 2.0464294 0.54488146
1.7179217 2.3706923 0.12977198
0.86075693 2.1879761 0.56271189
3.3178201 0.35799935 2.9150391
0.95434958 2.1502328 0.40777287
0.9870826 2.2283177 0.50600374
0.92727798 2.1497924 0.45471698
1.1333059 2.5267045 -0.041119855
0.75317603 1.9288781 0.70990866
1.2808598 2.4503152 -0.012297143
2.3885443 2.6816185 -0.11225058
0.67963976 1.9278264 0.77145457
1.269727 2.4119115 0.20388944
1.3538291 2.5554984 0.022881923
-0.045027856 2.3258135 0.48665643
1.9016708 2.4841037 0.23887584
0.067217156 2.4114978 0.57449186
2.1411965 2.1835592 0.45144808
0.30302691 2.1335909 0.53109342
0.92805934 1.917908 0.47015041
2.4597578 3.6160998 -1.1102915
2.071219 2.4309828 0.34487435
0.75243986 1.881223 0.58220136
3.7587121 3.4910316 -1.0151277
0.93605995 2.1079695 1.272832
2.2154489 2.3176773 0.24585719
0.92274684 2.2078669 0.42218569
1.9766916 2.3209503 0.2762835
-1.1172109 2.4807286 0.27460667
0.81445354 2.0491011 0.67717439
0.92458004 2.1583133 0.66923231
1.1054682 2.4271607 0.1803446
0.88923395 2.0321012 0.7329275
2.5105143 2.8069718 -0.36101648
1.1321563 2.2239246 0.30035189
1.3166919 2.496407 0.098119602
1.4683692 2.4462686 0.040980726
2.3511746 2.7427225 -0.29265347
1.5050107 2.5324461 0.10369003
-1.2661214 2.50121 0.12801209
-1.2164985 2.3598728 0.22406445
-1.292935 2.4245436 0.28444406
2.4092362 3.0773931 -0.8194226
-1.4603697 2.596117 0.13868439
0.83790082 2.155081 0.64671016
1.0582898 2.3313472 0.18358295
2.3032637 2.602931 -0.14899321
1.1471213 2.4089239 0.24085918
2.3167183 2.6910553 -0.25130385
2.4262793 2.9541259 -0.57130992
2.4352148 2.8066657 -0.44639784
-1.3088766 2.5139925 0.22357531
1.8115367 2.4352033 0.14521922
1.5099231 1.8817488 0.66599339
1.2809495 2.2619066 0.38148156
1.9277328 2.4798257 0.12556022
2.395277 2.905333 -0.47998229
0.81474829 2.0412395 0.76113039
2.1636744 2.3340323 0.33768246
2.362751 2.8616109 -0.27782461
2.7074747 2.9150646 -0.29553744
0.90570354 2.1816843 0.38588208
1.3937783 2.4761 0.010177908
1.5592514 2.4017808 0.11779722
2.6472712 0.38435364 2.7434671
0.9322927 2.1330204 0.46551207
2.5307672 2.8031559 -0.48472136
1.7690535 2.4332058 0.2464797
3.1906085 2.4657977 0.95873725
2.3397884 2.4076219 -0.23087619
2.5666018 3.1202586 -0.48267722
1.6053598 2.3638945 0.10201275
0.87956697 2.1931381 0.64182979
0.85254943 2.1856861 0.55809081
2.3606679 2.751852 -0.35982063
1.7856947 2.3251824 0.30263978
2.0587401 2.3538806 0.37570429
-1.1583314 2.4372239 0.19264562
3.3905096 0.28491789 3.1956918
1.8005542 2.4318252 0.14594665
1.5126617 2.4432807 0.064112328
2.1807172 2.4062555 0.18723926
1.0839018 2.2191265 0.34178439
0.95041353 2.0682597 0.73721468
2.4799685 2.8244405 -0.505458
2.3224216 2.5360105 -0.38962731
0.87171 2.6643212 -0.16830076
1.0808553 2.3675051 0.16186094
0.86948836 2.1185124 0.65391535
2.3678653 2.0799239 0.60343629
2.1581831 2.3537507 0.26041123
0.73395646 2.1075032 0.73341751
0.93901914 1.9578053 0.36375126
2.0558774 2.3842309 0.27810585
0.80320942 2.0895016 0.69463396
