# .PCD v0.7 - Point Cloud Data file format
VERSION 0.7
FIELDS x y z
SIZE 4 4 4
TYPE F F F
COUNT 1 1 1
WIDTH 247
HEIGHT 1
VIEWPOINT 0 0 0 1 0 0 0
POINTS 247
DATA ascii
3.2171152 0.52269012 2.6665897
3.2620118 0.54132068 2.6787765
3.1552181 0.52661175 2.7787263
2.5900686 0.41476202 2.7109447
2.5934832 0.41339207 2.7084935
2.5296247 0.56834304 2.4636066
2.308311 0.53078061 2.4506702
2.3111169 0.52986252 2.4484892
2.3104854 0.56448865 2.4714916
2.2724013 0.50574911 2.5506108
2.1067312 0.47445911 2.5897484
2.3022349 0.4794609 2.5950053
3.1572709 0.53004754 2.7753522
3.1432674 0.50622791 2.7959819
2.9432616 1.2038457 2.7397466
2.1259241 0.39071795 2.4428351
2.131206 0.39301923 2.4400735
3.1576164 0.54684758 2.8524714
2.2360227 0.48693493 2.5504937
2.1037755 0.43909833 2.6000793
2.1437893 0.39410609 2.4009743
2.0854204 0.44015425 2.5866179
2.0943339 0.42957619 2.6446619
2.5515771 0.35635412 2.7577841
2.146564 0.30311477 2.483427
2.1096683 0.42874649 2.650023
2.6750035 0.34335661 2.8167789
2.5778203 0.34790131 2.7749128
3.1664305 0.50891429 2.6147671
2.9144149 0.51395875 2.7026703
3.2404759 0.50470001 2.6351273
2.308912 0.56490576 2.4657784
2.9546263 0.47412935 2.773278
2.9123642 0.5117178 2.702105
2.5901544 0.41661388 2.7090194
3.0893712 0.36360234 2.4468162
3.1025829 0.53670704 2.686754
3.2647698 0.49347097 2.5969427
3.1738729 0.52961737 2.4203708
3.1793523 0.47237542 2.4662137
3.24668 0.52826738 2.5605655
3.0822613 0.30529168 2.3891284
3.0240664 0.26822823 2.4259298
3.1987729 0.48643705 2.4791873
3.1233478 0.3669419 2.242512
3.1001863 0.32828626 2.4219277
3.2182198 0.48595566 2.4928515
3.1350889 0.3319965 2.2912729
3.1859949 0.49658728 2.4629185
3.1152258 0.53827357 2.6889288
2.9353521 0.49825972 2.7413316
3.212364 0.52418327 2.6670847
3.2294397 0.50811881 2.6204474
3.0549846 0.31748876 2.3823931
3.1076863 0.50207311 2.7362971
3.0271962 0.45357475 2.7862794
3.2392199 0.50162017 2.5526493
3.1523323 0.5431577 2.8297236
3.1529181 0.54798412 2.854311
3.1294372 0.52526557 2.8044841
3.1645136 0.4640035 2.4461367
3.1852553 0.51101929 2.4247591
3.1552019 0.49115643 2.4684474
3.1297979 0.56325442 2.8723576
3.1874411 0.52616203 2.7253911
3.1430385 0.55057383 2.8684182
3.1520722 0.54379451 2.8355675
2.9441578 0.48547423 2.7729402
3.1442289 0.35347307 2.2700722
3.196676 0.51899081 2.6312766
3.1442275 0.52712655 2.8691685
3.1013231 0.32292101 2.2902682
3.2019274 0.42810673 2.2732425
2.9100821 0.45393154 2.6950927
3.1874452 0.51302588 2.4303176
2.9585109 0.50304604 2.6929657
2.936079 0.52199143 2.6930602
3.1679714 0.50722927 2.6123061
3.2079825 0.52913874 2.6339159
3.2756178 0.55117452 2.6851382
3.2262666 0.45622376 2.3974853
3.2679007 0.54182148 2.6749856
3.1778083 0.56915784 2.7391803
3.208127 0.5366047 2.735081
3.1422484 0.50670445 2.7970634
3.2705748 0.56136364 2.683131
3.1321509 0.34373692 2.2753863
3.2377946 0.50535768 2.6293159
3.1585076 0.54616112 2.8520117
3.1538484 0.5489192 2.8530374
3.1776774 0.52458298 2.7224071
3.1037571 0.4887841 2.8813992
3.1481626 0.53760147 2.8108141
3.2453489 0.39635381 2.3490345
3.1723614 0.53689212 2.7271857
3.2020886 0.48280966 2.398834
3.1726351 0.36558104 2.313391
3.1541011 0.49408191 2.8078804
3.1476378 0.51193309 2.8309674
3.2617993 0.52955014 2.6622984
3.1420159 0.50946611 2.7949467
3.1686773 0.51599312 2.2726233
3.260884 0.50968307 2.5586278
2.539557 0.38552088 2.7350774
2.5473597 0.38384959 2.7371612
2.2656229 0.4771857 2.5553646
3.0417352 0.30834138 2.3699546
3.1553736 0.5245899 2.7798762
3.2620742 0.49702314 2.6265557
3.0980117 0.40036765 2.8319147
3.2716181 0.55894178 2.67801
3.2291536 0.51590461 2.671448
3.2696471 0.50757939 2.589484
3.1699076 0.51223636 2.2700038
2.888346 0.46021959 2.8056741
2.9426403 0.49962968 2.6935196
3.2621324 0.51433444 2.6116729
3.2672327 0.54107732 2.6761982
2.126689 0.38942951 2.3987708
2.3115444 0.53002173 2.4469304
2.2441423 0.48856032 2.4961505
2.1509125 0.4107365 2.5218277
2.2300558 0.48676518 2.5560877
3.1246419 0.52693003 2.8378594
3.1484973 0.7826286 2.5990479
3.1494465 0.78344131 2.5994864
3.2191424 0.49811557 2.6329503
3.2034171 0.50446957 2.3295848
3.2167866 0.51931256 2.6667747
2.1486008 0.29303166 2.514462
2.1401479 0.27228913 2.4790511
2.2203367 0.25917047 2.4794109
2.3122673 0.48718718 2.5815184
2.1633012 0.32698292 2.4525073
2.1686239 0.40099412 2.5196598
2.1749237 0.40674987 2.5202384
2.10186 0.26967487 2.4912584
2.1253169 0.42536777 2.6471977
2.9363298 1.2229812 2.7361274
2.9327316 1.2105466 2.7190437
2.0719829 0.43768263 2.6512778
2.3052924 0.43443835 2.4996588
2.9255471 1.2434149 2.7414074
2.9491389 0.48246318 2.7546513
1.0208209 2.426409 0.29925513
1.062553 2.376416 0.14155836
0.89757103 2.4337628 0.27088013
0.8830843 2.3512762 0.23506954
1.0376793 2.5657027 0.030842381
0.56719315 2.3527079 0.16061477
0.70625567 2.3704896 0.20472239
0.55173486 2.3619733 0.15124899
0.41630545 2.3047743 0.2041228
0.52312148 2.5821304 0.020534594
0.10051458 2.3950486 0.099895328
-0.038141724 2.2798834 0.46402058
0.034954526 2.3199944 0.17998487
-0.29110247 2.0142436 0.83001286
-0.07140217 2.1060789 0.79912961
-0.048800111 1.9975288 0.6594978
-2.4395962 2.2754765 0.78027821
3.1539021 0.52419829 2.6913409
-3.8754418 1.571931 1.4713445
-3.4840326 1.6603562 1.554656
-3.7537231 1.6892269 1.4958427
1.4225835 2.2039454 0.34847739
1.0689441 2.4480224 0.23654807
0.38085532 2.5639927 -0.039390147
2.277648 0.49710572 2.5479393
1.045981 2.0800712 0.08621069
0.22740462 2.3300407 0.32399407
-0.01903484 2.1685393 0.41469094
-0.021389872 2.3233945 0.26636466
-0.11720632 2.0646613 0.56904078
-0.11673098 2.2253237 0.56232387
-0.15603448 1.7328809 0.7808708
3.2598886 0.52692229 2.6514921
0.68302578 2.3918798 0.18364251
0.089250222 2.3892908 0.097326688
-0.14254355 2.0446532 0.80379313
-0.082455575 2.2738249 0.38898572
-0.18366602 2.0174999 0.77742571
0.89945388 2.3546548 0.22954135
1.0044637 2.4019914 0.29251677
1.0610453 2.3154259 0.28297436
0.55783349 2.4047275 0.26840076
-0.21716118 2.0209219 0.75080711
0.5563758 2.3579493 0.14882748
-0.1753137 2.0912247 0.73962528
-0.10759047 2.1656973 0.71234059
-0.128143 2.0596437 0.61994439
0.094112754 2.3929808 0.097522378
0.16186234 2.5050387 0.11939998
-0.043189466 2.3716388 0.34466606
-1.0872405 2.1373181 0.84683859
-0.19563134 2.0725896 0.81790745
-0.96880317 2.2340438 0.91220355
0.93765581 2.4539003 0.29074979
-0.24675015 1.7752016 0.77478385
1.0698031 2.3553936 0.16316323
-2.1901309 2.1833801 0.85401505
0.14644235 2.4427035 0.19945137
0.28793406 2.4078944 0.11254235
0.32761094 2.4974654 0.16825949
-2.3664858 2.1884632 0.74018687
-0.11205526 2.360178 0.39382553
-2.3539662 2.109875 0.89745998
-0.052504372 2.3675599 0.35287565
-0.17765559 2.0564075 0.82589507
0.64435267 2.4315634 0.14656517
0.74933511 2.4875689 0.1050771
-0.16624311 1.9410967 0.94061697
1.035954 2.3666961 0.26369414
-3.4741397 1.7780814 1.3741208
-0.16601078 2.0890427 0.5573144
1.1344103 2.5525241 -0.16274703
-0.11945088 2.0434856 0.62923676
3.2536218 0.51477599 2.6241038
-0.23325543 2.1252732 0.70608407
1.1881136 3.1873748 -0.6062634
2.1550124 0.48849696 2.4844158
2.2879579 0.4716613 2.5277121
-2.2422173 2.1357703 0.78106648
0.92460078 2.4314663 -0.44790071
0.36660796 2.4628234 0.19243889
-2.7054892 2.313575 0.76523209
3.0026507 0.45795527 2.7858014
1.2154056 2.9632783 0.55709112
0.5371514 2.4441028 0.18309556
-3.3087611 1.6845573 1.4909164
1.931047 2.0725386 1.1389875
0.94549745 2.7085764 0.32105836
0.65888363 2.6888049 0.35343066
0.93046099 2.2205598 -0.086870447
1.8552743 2.3931053 0.88662696
1.5153735 2.8417449 0.59104615
-0.93393123 2.0943334 0.81095427
0.94352418 2.5409842 0.10993747
2.3232951 0.45484966 2.4996498
0.78503835 2.6225905 0.089062244
-3.3156264 1.6781585 1.4904395
1.0132945 2.3855758 0.18939807
0.91404569 2.4056828 0.22752981
-0.044555716 2.1431956 0.47215062
0.9108367 2.7432191 0.32385767
-0.90302038 2.4025204 0.63272738
-3.5735877 1.6631696 1.4373407
