# .PCD v0.7 - Point Cloud Data file format
VERSION 0.7
FIELDS x y z
SIZE 4 4 4
TYPE F F F
COUNT 1 1 1
WIDTH 256
HEIGHT 1
VIEWPOINT 0 0 0 1 0 0 0
POINTS 256
DATA ascii
2.5220916 0.69862139 2.3599305
2.5051155 0.60690635 2.3832767
2.5734816 0.72210366 2.189858
2.0611186 0.46181539 2.477726
1.9491892 0.51742452 2.3820174
1.9520668 0.51639622 2.3788223
1.834419 0.45309377 2.4499757
1.8305016 0.41831607 2.468678
1.6434155 0.548706 2.3267219
1.4450547 0.46730846 2.3096678
2.2978284 0.62906539 2.3321555
2.4968479 0.70141518 2.3087018
2.4911795 0.67674458 2.3321173
1.7542305 0.3278532 2.4540005
1.8349868 0.41840041 2.4676032
2.1992359 1.3434857 2.3243313
1.8283603 0.41821566 2.4694216
1.4412866 0.42997539 2.2327576
1.4454381 0.43280339 2.2288091
1.4519135 0.46891853 2.3639526
1.4117582 0.36639813 2.2640111
1.4589554 0.29206446 2.3461661
1.4238005 0.34165239 2.2498009
2.326025 0.61438644 2.3450034
1.3392599 0.20029025 2.2466545
1.478108 0.3056041 2.2795739
2.0199039 0.40760177 2.524797
1.9303987 0.45631954 2.4367905
1.4815884 0.34675112 2.2673626
1.4200944 0.28097022 2.354332
1.4664987 0.29407769 2.3437726
2.0830872 0.38231477 2.5607646
2.0616453 0.39241043 2.5497856
1.9781677 0.44302693 2.4606016
1.9739208 0.44205847 2.4663997
1.4603121 0.2613818 2.3684561
2.2475643 0.65426397 2.2962487
2.3079655 0.62170893 2.3552458
2.5735133 0.75143647 2.1943319
1.9485874 0.51921314 2.3801246
2.4544978 0.66242051 1.9972357
2.5723882 0.71615261 2.1659896
1.4223876 0.49748868 2.3988278
2.422312 0.69877207 2.2357483
2.4598393 0.66838002 2.0472958
2.4939923 0.65620232 2.0198884
2.3850186 0.48728547 1.8442755
2.4348183 0.70190048 2.2348332
2.2788436 0.64237273 2.3288021
2.5877876 0.65838081 2.1007149
2.561914 0.69320261 2.1102388
2.5323443 0.68347228 2.141063
2.4802997 0.65908408 1.9583277
2.4099414 0.59249073 2.0211203
2.4432456 0.66653901 2.2826831
2.4717979 0.71231979 2.2187431
2.582346 0.71437991 2.1603155
2.5218053 0.67993551 2.1544023
2.5091758 0.72113371 2.3863831
2.4775257 0.69425178 2.3436532
2.5148952 0.77226144 2.2217023
2.3652968 0.50261319 1.8164184
2.4757354 0.71162134 2.2195518
2.4611785 0.63438874 1.923475
2.4834473 0.56421673 1.8121463
2.4633856 0.70619792 2.07039
2.575923 0.74822634 2.1907506
2.4786551 0.71520013 2.0558639
2.4429891 0.67504519 1.9616218
2.4157128 0.63036877 1.9956894
2.5126069 0.66051817 2.1160102
2.4945152 0.62204099 2.4031665
2.4268374 0.65310037 2.0112603
2.462534 0.74571389 1.936751
2.4892981 0.73408961 2.4094138
2.5389028 0.63571614 1.892239
2.5068934 0.69985771 2.4029186
2.4461708 0.67746902 1.9664921
2.2890975 0.64838964 2.2762933
2.4712901 0.67501301 2.1478634
2.4256423 0.69285792 2.2345345
2.3302426 0.42074376 2.0075963
2.5781951 0.72318542 2.1847677
2.5354936 0.71273994 2.2574246
2.5131249 0.71266675 2.3611481
2.514241 0.71991962 2.3828161
2.4512026 0.68172246 2.0595627
2.4684753 0.63415796 1.9235538
2.5046251 0.69678974 2.2524204
2.4233143 0.7057671 2.16381
2.4978008 0.68200612 2.3633397
2.5045385 0.66536009 2.0474336
2.5059369 0.66634935 2.3410969
2.5349102 0.66215056 2.3927166
2.3804138 0.51518977 2.0097818
2.4893293 0.67977709 2.3314068
2.5107687 0.69450444 2.3633025
2.4761705 0.88786638 2.1752081
2.25877 0.65232909 2.3336034
2.4096553 0.91009724 2.1647937
2.4538779 0.92725098 2.1902831
2.3791451 1.0135292 2.2035439
2.0417306 0.46493539 2.4806137
2.5875187 0.68726707 2.0745773
1.9251428 0.4785873 2.4115708
1.8969657 0.48413822 2.4213376
2.4650316 0.71882099 2.3301466
2.5110879 0.71697432 2.3528864
2.5477877 0.68686378 2.0735142
2.3687687 0.94555187 2.1093791
1.9098392 0.48313114 2.4175754
1.596583 0.13060351 2.3196459
2.144115 1.3365245 2.3726857
2.1044877 1.3188241 2.3236794
2.5912673 0.67012942 2.1170669
1.4006809 0.16427444 2.3033819
2.5407641 0.6935668 2.1678691
1.4016999 0.16349874 2.3029954
1.4104421 0.2842142 2.3741424
2.5540392 0.6857028 2.0429158
2.5602493 0.72226053 2.1519516
1.436992 0.44765052 2.4846165
2.3720272 0.7586813 1.8970474
2.5108111 0.71313477 2.38748
2.4777687 0.67967635 2.4691727
2.4766996 0.67974085 2.4761987
2.2757769 0.5921371 2.3889964
1.7714213 0.30926946 2.6407549
1.7730407 0.30616021 2.6314015
2.1636689 1.3280869 2.3634071
1.7552627 0.41327184 2.5178521
1.4509263 0.13185373 2.3544428
1.4975085 0.29750308 2.3170829
2.2509971 0.56137806 1.7840979
1.4636741 0.29481295 2.331255
1.4690648 0.35298723 2.2640095
1.6091032 0.37510192 2.5920033
2.5351641 0.70263129 2.1667421
2.0885794 1.3418112 2.325345
2.5337768 0.63507915 2.3868916
2.3049088 0.52174479 1.7817693
2.4441798 0.67651719 1.9876517
2.5000241 0.65774763 2.3800282
2.5012121 0.72275329 2.3997908
2.3690393 0.4705213 1.961239
2.5803876 0.74071193 2.1867898
2.5272894 0.68831605 2.1867712
2.5461392 0.69673634 2.1718318
2.518913 0.70667225 2.2605896
2.3706808 0.53185195 2.0154712
2.5176506 0.70345396 2.0435073
1.4317293 0.42742783 2.1897917
1.4436294 0.43615034 2.1873772
2.4806173 0.69636226 2.3772042
2.4870858 0.67832732 2.3332229
2.4127717 0.93566477 2.1686985
2.4087515 0.93959266 2.1745102
2.4085252 0.93909192 2.1730077
2.5489335 0.67279285 2.1308982
2.3149474 0.61835957 2.3536093
2.5655301 0.71992218 2.1442111
2.5804443 0.67979729 2.0885818
2.3440397 0.63468403 2.2163858
2.5576692 0.67406809 2.1143458
2.2865868 0.5736267 2.3784952
2.4653127 0.63680607 1.9240249
2.3604276 0.46990183 1.9615717
2.5695872 0.7413916 2.2021625
2.2492914 0.65503353 2.2969136
2.3563633 0.72432637 2.4939435
2.5219917 0.68123847 2.1987805
1.4781621 0.31526026 2.264694
1.4874439 0.37147796 2.2333016
2.5633061 0.71373498 2.1887279
2.5393512 0.69506323 2.1552401
1.4993925 0.44763327 2.2971222
1.504892 0.45411384 2.2961686
1.4444845 0.30847988 2.2857096
1.484915 0.47059715 2.4312809
2.1833529 1.3482417 2.3067384
1.4329731 0.47658843 2.4479825
1.4401371 0.44967693 2.4765093
1.4222094 0.45279965 2.4762449
1.507568 0.45869714 2.4206319
1.4455537 0.46258858 2.4453766
2.3638563 0.65575975 2.264066
1.9083053 1.3892696 2.2956712
2.1776888 1.380694 2.3301232
1.7487223 0.31957948 2.6395199
2.0639253 0.46093905 2.472625
1.9447461 0.45412216 2.4313157
1.9453008 0.4652206 2.4138892
2.5084558 0.65498763 2.3720753
2.236191 1.1525927 2.6839442
2.5022888 0.84999919 2.4030557
2.2972331 0.6287505 2.3384602
1.4648732 0.36879978 2.2418506
1.4204581 0.48150539 2.4154174
-0.52140439 2.1593664 0.38350934
-1.365033 1.885407 1.0897799
-1.3460218 1.9858003 0.82628876
-1.3136449 1.8430258 1.1313208
-1.4546741 1.4493996 1.1597223
-1.2751652 1.7103566 1.0190562
-3.5845599 1.705005 1.7078333
-4.6662784 1.0819277 2.668134
-4.5691714 0.97895128 2.7850955
-4.5539083 0.98285109 2.5534804
-4.6089768 0.98869556 2.717844
-5.1988478 0.61652261 3.1849842
-4.5895171 0.90648466 2.8734429
1.8355403 0.41939217 2.470156
2.1680174 1.3502383 2.3075032
1.8105673 0.35761428 2.6084666
1.7074171 0.36148939 2.5644374
-1.3837687 1.8882513 0.75154066
-1.3551736 1.842014 1.1092511
-1.671865 1.7867681 1.2585379
-1.3295071 1.9025685 0.9631266
-2.0894041 1.5826415 1.2783424
-1.3370699 1.750405 1.1815174
-1.3648047 1.7647825 0.94559473
-1.3686509 1.7613229 0.99953961
-1.4111996 1.4696889 1.1786751
-3.3153405 1.6456143 1.7198893
-1.2695339 1.8679386 0.77569115
-3.5129087 1.6261288 1.6515452
-3.4538627 1.5544848 1.8013729
-1.3970202 2.0676677 0.72167742
-1.3671086 1.7585676 1.2113595
-3.512784 1.6350287 1.7566381
-1.3147029 1.649035 1.3201904
-1.4236171 1.7840523 0.94774324
-1.3560816 1.7466104 1.0065067
-3.3769767 1.5899078 1.6615887
-4.7006311 0.9030574 2.5517612
-4.1807938 1.036936 2.6066263
1.6370618 0.51889384 2.2406142
-1.2934318 1.8554738 0.83349854
-1.3517575 1.5713977 0.7986688
1.592162 0.35992178 2.6199629
-4.5274029 0.91582966 2.6777427
-1.355867 1.571249 0.90477556
-1.3695089 1.7709994 0.94011211
-1.4818733 1.95152 0.91475147
-4.7408314 1.1343008 2.5308878
2.4568257 0.96000224 2.2563825
-1.4799894 1.6421765 0.79385477
-1.5571611 1.3841052 1.1475698
2.442369 0.57352626 1.8277524
-1.3511742 1.3183074 1.0864539
-1.5455625 1.5156753 0.82015729
-1.3368645 1.5629252 0.80173969
-4.5951314 1.0000794 2.835705
-5.516171 1.2116559 2.6577978
1.42077 0.44639063 2.2366438
