# .PCD v0.7 - Point Cloud Data file format
VERSION 0.7
FIELDS x y z
SIZE 4 4 4
TYPE F F F
COUNT 1 1 1
WIDTH 187
HEIGHT 1
VIEWPOINT 0 0 0 1 0 0 0
POINTS 187
DATA ascii
0.99310786 0.40379781 2.4029245
1.3518213 -0.022460692 2.3068914
1.262974 0.37117708 2.4531596
1.3430207 0.54268956 2.1817937
1.7238064 0.83591121 1.9750016
1.2039741 0.58019948 2.1192448
1.6341126 1.2057652 2.3832998
1.1487912 0.40380874 2.3824871
1.7082165 0.48188987 2.2615964
1.6566365 0.42274246 2.3623996
1.6211367 1.1264235 2.403944
1.1119225 0.47035927 2.2690187
1.3945525 0.24797104 2.4199584
1.6809752 0.8082729 1.9217916
1.5254947 0.75224024 1.9019238
1.062672 0.36934245 2.2453897
0.68879253 0.42446116 2.1250267
0.69122583 0.42771038 2.1200926
1.7110403 0.85578227 1.9652181
1.4917723 0.42287683 2.3254666
1.6695322 0.41646746 2.3188019
1.6994156 0.47719833 2.2594366
0.67811924 0.35834739 2.1625211
0.68872648 0.33504787 2.145088
0.62622881 0.1838389 2.1643276
1.207965 0.51922184 2.1801121
0.78097612 0.3402079 2.1501565
0.76940089 0.47496688 2.3136764
1.2618744 0.51284438 2.1889803
1.2596365 0.51147032 2.19574
1.3092628 0.47133818 2.247349
1.1961942 0.35966337 2.337827
1.5210234 0.73040044 1.9958354
1.5012783 0.62213981 1.6412593
1.6437056 0.83423138 1.6677485
1.5962636 0.82352334 1.8452084
1.5257349 0.70670033 1.6461089
1.7077783 0.85592008 1.9692296
1.5061733 0.69181585 1.4561527
1.6690251 0.82412338 1.9370215
1.6902488 0.84100133 1.8394659
1.7113943 0.88677114 1.7630831
1.7117372 0.756194 1.988072
1.5309532 0.76874042 1.6326915
1.4091473 0.62154281 1.4205073
1.6746278 0.78186476 1.9525102
1.7151315 0.86210346 1.7563344
1.7117205 0.85529113 1.964339
1.6846709 0.84105206 1.9336292
1.6989239 0.80010843 1.925994
1.70067 0.81780136 1.9500223
1.6786165 0.81102043 1.9216876
1.5069553 0.6914162 1.453985
1.4962393 0.62596947 1.6461593
1.6970842 0.82506883 1.6476068
1.6947392 0.85968626 1.6589433
1.6695888 0.84113723 1.7231597
1.5415415 0.85913461 1.5505924
1.6500576 0.84652293 1.9280397
1.7096401 0.88489914 1.7356426
1.6591341 0.81946546 1.6580111
1.1794112 0.54265565 2.1680164
0.70648998 0.1568637 2.199784
1.6888075 0.85805917 1.7300571
1.7161855 0.83285332 1.7286857
1.7289054 0.85945547 1.7832345
0.75467384 0.44747359 2.3677073
1.5322058 0.70671707 1.6383537
1.7106982 0.84823114 1.9696929
1.5041307 0.63649654 1.4801321
1.6927762 0.86301422 1.9211538
1.7020717 0.8438077 1.6856625
1.5348125 0.75880057 1.5413193
1.1342916 0.35455579 2.4095466
1.0707257 0.45567673 2.3074861
0.77213138 0.13314988 2.2344301
1.6718363 0.83568925 1.7511499
1.7093626 0.88823104 1.7383158
1.7056202 0.79174757 1.964851
1.6639267 0.84248328 1.7232008
1.6784226 0.82755357 1.9026906
1.6917331 0.80897015 1.7398396
1.6813096 0.82742447 1.9682924
1.6771998 0.8093347 1.9240508
1.5223293 1.0537101 1.7970287
1.6919045 0.85624367 1.7210916
1.538635 0.86126572 1.5490574
1.507723 0.68836772 1.4491864
0.76762432 0.34141695 2.1705949
0.74044937 0.37250841 2.1114168
1.7033858 0.85089111 1.7642716
1.693954 0.82680655 1.7700535
0.72302747 0.30572668 2.1730411
0.75328082 0.44947419 2.3624821
1.657475 0.86676508 1.6460654
0.80181956 0.46608311 2.2862947
0.74956775 0.46245268 2.3278854
1.5359912 0.76152796 1.6383092
1.6120222 0.78664243 1.8779809
1.5901968 0.80044413 1.8631984
1.4904842 1.0783124 1.7804571
1.5333289 1.0831307 1.8214588
1.5195296 1.1144923 1.8155981
1.694629 0.44735989 2.2273464
1.6685179 0.80806154 1.9027396
1.6570837 0.4305912 2.3295577
1.8345269 0.93078452 2.6040308
1.8345656 0.92647159 2.5935988
1.7036552 0.77273613 1.9693605
1.3919808 0.24189965 2.3895547
1.36148 0.37472162 2.4416015
1.4543355 0.2545526 2.5766726
1.0893466 0.4097994 2.4088871
0.79892796 0.098340787 2.2341862
1.0149609 1.36049 2.0960643
1.0774478 1.4190929 2.0584593
1.0340354 1.4103549 2.1162601
0.7796607 0.13733459 2.222852
0.99435103 1.464597 2.100553
1.0129024 1.3942568 2.0426228
1.6191983 0.79817712 1.6623752
0.77020741 0.47883847 2.3057008
1.3443353 0.54206419 2.1760886
1.7032012 0.71891373 1.9963869
1.7091843 0.84520847 1.9635488
1.6263075 0.70995903 1.9859928
1.5130883 1.1079359 1.8398004
1.5048038 0.73743433 2.0259538
1.673969 0.86553842 1.6789703
1.2030509 0.30829489 2.4655826
1.2610341 0.36770195 2.477505
1.7145194 0.85595012 1.8013879
0.79710793 0.099588454 2.2362545
1.7117014 0.78991973 1.9547695
1.6774162 0.4333781 2.2869654
1.7148027 0.72504079 1.9854795
1.5039452 0.30240607 2.4719467
1.0526038 1.4125031 2.0928116
1.4083997 0.1402352 2.6196926
1.1105796 0.41965026 2.3758481
1.4977109 0.61056542 1.6272377
1.6109365 0.78672218 1.8408296
1.5005405 0.6741662 2.0319843
1.4910653 0.69891179 1.7388361
1.7148821 0.87270123 1.7962193
1.3388937 0.70622867 1.4592162
1.6633855 0.97978264 1.9414204
1.6452231 0.83277571 1.8588905
1.6738411 0.83312738 1.8587804
1.6483361 0.81415528 1.8874979
0.7218399 0.3671177 2.1260567
0.7494784 0.390145 2.0638561
0.62565964 0.14476453 2.1390758
0.62621534 0.1434741 2.140861
0.62911403 0.18111545 2.1630857
0.76948655 0.13419694 2.2340734
1.7202482 0.46815884 2.2556081
0.7637465 0.42936555 2.0123689
0.61855751 0.19457564 2.1610856
1.2544742 0.33924615 2.476145
1.6865265 0.46979859 2.2808473
1.5406115 0.41686854 2.3421702
-4.9862556 0.20138784 4.337996
-4.9123058 0.12617771 4.4802046
1.3424009 0.54150277 2.179935
1.1324005 0.47105926 2.2388096
-3.8318467 -0.26217568 5.0716872
1.1684325 0.30460158 2.5088742
1.0455192 0.39923492 2.3651037
0.68409318 0.4274568 2.1255562
1.1317979 0.46722564 2.23735
-5.1096063 0.10056844 4.2040634
0.95230407 0.38399455 2.451405
-5.8178496 -0.27709141 5.2040124
1.503504 0.68748218 1.4513299
-6.5846958 -0.48567426 5.548677
-8.0306501 -0.48910916 6.2889199
-4.9407921 0.21730825 4.4470472
-5.4574742 -0.18279032 4.8218637
-6.2447052 -0.31623384 5.3014183
-5.6191478 -0.2624172 4.9872851
-6.0935712 -0.23399572 5.1432667
1.522536 0.67382783 1.4375588
-5.1305418 -0.21134476 4.95997
-5.034863 -0.21878791 4.9325786
-5.1837883 -0.20199677 4.7648554
1.3917013 0.2409195 2.4459491
