# .PCD v0.7 - Point Cloud Data file format
VERSION 0.7
FIELDS x y z
SIZE 4 4 4
TYPE F F F
COUNT 1 1 1
WIDTH 179
HEIGHT 1
VIEWPOINT 0 0 0 1 0 0 0
POINTS 179
DATA ascii
0.90540355 0.21038501 1.7143079
0.62078285 0.057094608 2.1126308
0.8081007 -0.0042323684 2.1707897
0.79013473 0.1229717 1.9163724
0.8257578 0.18180475 1.8195835
0.76126218 0.066485606 2.0052865
0.66904181 -0.098632477 2.2284877
0.67092919 -0.099114731 2.2279153
0.30102271 0.24879335 1.7819608
0.46964198 -0.28269663 1.9300008
0.24725048 0.063068695 2.1166024
0.7337712 -0.26194954 2.161597
0.57673579 0.18368456 1.8582503
0.92522621 0.1350684 1.7586128
0.46018106 0.12943685 1.9314598
-0.28467467 0.023496194 2.008709
0.61845404 -0.34263745 2.111449
0.42789379 0.41069862 1.5196031
0.51500636 0.17558792 1.8592653
0.89978915 0.22251403 1.7316676
0.617612 -0.079854719 2.2188294
-0.27708629 -0.21566986 2.0868106
0.70099634 0.20297389 1.729888
0.91643023 0.1939539 1.6865777
0.88346583 -0.27777621 2.1735191
0.70590687 -0.011344502 2.2121546
0.67657143 -0.099345699 2.2316172
0.67596412 -0.0018435653 2.1696391
0.580446 0.19131239 1.8578007
0.91914982 -0.11300129 2.257468
0.077397093 0.075707503 1.9788306
0.32674503 0.0476119 2.113414
0.6695773 0.20782492 1.7894492
0.18204965 0.43377107 1.1422076
0.40371856 0.55712521 1.219918
0.39992106 0.66583949 1.3054388
0.16770439 0.49750847 1.1049602
-0.16830178 -0.24814576 2.0872815
-0.18643838 -0.22386263 2.0886893
0.3705833 0.54528469 1.2072031
-0.257909 0.10770416 2.024117
-0.065641403 0.22587211 1.228441
0.17816108 0.39707318 1.1062291
0.38908127 0.53046799 1.2501466
0.89451808 0.10361688 1.8054177
0.15544853 0.33143023 1.0467334
-0.21125732 -0.080272466 2.0463555
0.4023695 0.51500285 1.3666438
-0.13104114 0.094722025 2.1852922
0.21677338 0.4139562 1.1936359
-0.0092548663 0.39490262 1.2098707
0.1105981 0.27539423 1.0113602
-0.029539766 0.35805139 1.1734047
0.34816691 0.49009678 1.2634292
0.91124701 0.29688764 1.5178169
0.92088473 0.13891175 1.767301
0.66342133 0.20937766 1.7941855
0.83009428 0.76543826 1.9357188
0.82689655 0.75972009 1.9265261
0.48695114 -0.0074830535 1.9711415
0.93141806 0.1231539 1.809441
0.56365895 0.1171086 1.9451702
0.16317405 0.41188776 1.1073879
0.41021448 0.55544627 1.2861838
0.12995365 0.51523346 1.1134356
-0.10706636 -0.22883125 2.0798047
0.23715182 0.43663743 1.1634191
0.053540081 0.33942837 1.0559493
0.14142978 0.30824995 1.0396721
0.93960935 0.68609989 1.722433
0.93418604 0.69304472 1.7085812
0.30008692 0.24756072 1.7762802
0.94236284 0.092340149 1.9206181
0.51605481 0.45008111 1.4527118
0.50234151 0.42263877 1.4412229
0.95079476 0.11533245 1.8520671
0.33569649 0.542898 1.1664208
-0.078567289 -0.26107019 2.0873718
0.08545965 0.26209027 1.0273824
0.7143237 0.20893013 1.7778435
0.49277282 0.51756191 1.418825
0.38583264 0.5644092 1.1812921
0.51306951 0.48833948 1.4209749
0.91494596 0.24337266 1.7131732
0.46185309 -0.27885583 1.9370534
0.82256222 0.10870735 1.8957351
0.73463368 -0.4129582 2.1105461
0.63807249 0.07109268 2.0547817
0.61374325 -0.4204694 2.0531049
0.62424558 -0.37735209 2.0547817
0.67072761 0.056436121 2.0569053
0.61598629 -0.34159949 2.1520519
0.3961091 0.66412413 1.3023074
0.087740801 -0.2270996 1.9025998
0.62900424 -0.19654924 2.1541433
0.39084145 0.58694029 1.2636651
0.67620909 -0.097714998 2.2004578
0.60765463 0.080946438 1.9955631
0.67429757 0.002699953 2.1973023
0.35135812 0.076354243 2.0624657
-0.057810828 -0.3639448 2.0510454
0.6283254 0.023952458 2.1169271
0.48112178 0.47104448 1.4067283
-0.11286991 -0.35706767 2.0453086
0.8288191 0.32413331 1.5386693
-0.042285953 -0.28756312 2.0820501
-0.10597015 -0.31331012 2.0640376
-0.029876478 -0.2595425 2.0906701
0.36802641 0.19041941 1.8401662
0.7753734 0.15407397 1.9203049
0.93326616 0.6201371 1.6890962
0.32946965 0.052702639 1.9932345
0.89651018 -0.42093536 2.1105208
0.073767751 0.22764739 1.0661662
0.039978731 0.34029576 1.0918063
0.40492442 0.51888096 1.3699194
-0.27967426 -0.25759667 2.0668049
-0.27479452 -0.21501492 2.0860188
0.085950769 0.26267368 1.0240421
0.11316513 0.27520359 1.005223
0.19092864 0.35697612 1.0728526
0.80253601 0.12434997 1.9211214
-0.15267327 -0.20093362 1.9632645
0.45563725 -0.29830557 1.9385431
0.78443563 0.13377585 1.8907645
0.68351644 0.24519318 1.6983573
0.83888704 0.32114452 1.5487093
0.87426811 -0.39320353 2.0285137
0.66205132 0.06317389 2.0515008
0.66420853 0.062758535 2.0484633
0.075293995 -0.24413009 1.9425749
-0.035887964 0.28985387 1.1464159
0.91511244 0.30541334 1.5705324
0.50467479 0.4764182 1.418712
-0.19600305 0.69448155 1.6308441
0.41010541 0.49194595 1.3959938
-0.20059635 -0.3303754 2.0479743
-0.033195738 -0.24573962 2.1277881
-0.28799316 -0.33474505 2.052381
-0.30581164 -0.24449964 2.1268597
-0.23390076 -0.21000509 2.0071936
-0.18746983 0.10974878 2.1314869
0.1046985 0.54807174 1.2217623
0.79546869 -0.31131202 2.135989
0.80045378 -0.31142655 2.1398051
0.88172841 0.032348182 2.1371748
0.061238263 0.47126928 1.1295114
-0.081285492 -0.37470251 2.0411854
0.36982068 0.50213015 1.3517098
-0.35012075 -0.06528905 2.1266034
-0.27286106 -0.27833056 2.0589173
-0.2933543 -0.35067117 2.3249838
-0.28739938 -0.20683749 2.0862944
0.48321766 0.13249937 1.9697505
-0.055884905 -0.3627654 2.0469687
0.37802565 0.078832962 2.0998547
0.87771618 0.015507493 2.1463718
-0.11640064 -0.35729805 2.0523281
-0.32156777 0.67192888 2.0677638
-0.32058206 0.66412765 2.0462067
-0.022491816 -0.24222249 2.1491873
-0.12597243 0.14510648 2.0904663
0.67704725 -0.0034467059 2.2220619
0.5600726 0.012912095 2.0852885
-0.13552552 0.090620987 2.2139142
-0.14025271 0.089489914 2.2411332
0.56430817 0.11680694 1.9384723
0.52251178 0.019339994 1.9959315
0.69394696 -0.0032877843 2.1569622
0.6217128 -0.089637101 2.2353735
0.82597041 0.15489706 1.8022039
0.56660414 0.1797142 1.8546809
0.088147335 0.072080471 2.1990826
0.12902676 0.30949777 1.0423466
0.32270357 0.50691879 1.1067038
0.5090512 -0.0003238268 2.0225389
0.089195743 0.3869524 1.0353963
0.91601855 0.20985892 1.7206411
-0.053147204 0.21963879 1.216344
