# .PCD v0.7 - Point Cloud Data file format
VERSION 0.7
FIELDS x y z
SIZE 4 4 4
TYPE F F F
COUNT 1 1 1
WIDTH 360
HEIGHT 1
VIEWPOINT 0 0 0 1 0 0 0
POINTS 360
DATA ascii
0.61884254 0.18638259 2.011939
-0.10655409 -0.89069802 2.3398468
-0.29328912 -0.14849083 2.3883994
-0.10509744 -0.81869084 2.4433546
-1.108786 -0.72377986 2.3579161
-0.23718137 -0.027096044 2.1815448
-1.1667817 -0.31572312 2.617245
0.84288555 0.60864091 2.3853512
0.58979231 0.57988048 2.412765
0.96609139 -0.47930631 2.5427792
0.43079755 -0.23043819 2.4560289
0.27132764 -0.13888346 2.3512876
0.1841687 -0.18352655 2.4638433
0.95319659 -0.72489852 2.6419871
0.91975898 -0.34246942 2.5850744
0.96754295 -0.46530557 2.5483057
-0.17267105 -0.75503755 2.5473027
-0.55657727 -0.71989006 2.3332529
0.84230649 -0.55297601 2.5444958
0.6086387 -0.37418678 2.7128136
0.37615994 -0.15794347 2.3228688
0.41701472 -0.21013026 2.4027817
0.58634245 -0.5176149 2.6781096
0.66159207 -0.35233852 2.7112005
-0.19449313 -0.082616426 2.2742279
-0.2420558 -0.15751652 2.3960433
0.86731797 -0.3822597 2.609921
-0.66160828 -0.45077893 2.2958188
-0.37573525 0.74469566 2.1708264
-0.0028363687 -0.30349451 2.449964
-0.78610528 -0.92873406 2.2172318
-0.57303739 0.60262054 2.3776462
-0.46414861 0.23749116 1.6963578
1.2171444 0.36161715 2.8909047
1.2314767 0.32335275 2.9012496
-0.42908719 -0.16701493 2.3809097
0.26411355 0.58705842 2.4759777
0.33971211 -0.03129971 2.1561389
-0.62346047 0.70356852 2.0886991
-0.68303478 0.69015265 2.0457382
-0.43343258 -0.45459488 2.3060136
1.2356955 -0.21713166 2.5613794
0.68800044 -0.16379879 2.4429851
-0.88095218 0.099670202 2.0399239
-0.42728415 -0.16460598 2.3856924
0.13121098 0.022667892 2.1468563
0.57727498 0.75103146 2.2209616
0.55898994 0.70920628 2.2044363
0.58719027 0.58196014 2.4165614
-0.17486905 -0.014890204 2.1595106
-0.41250774 0.34061167 1.9753693
-0.70233983 -0.040461712 2.0945618
1.1485357 -0.10015217 2.3800159
-0.95679325 -0.65234786 2.1843989
-1.1268747 -0.72529536 2.3986018
-0.74116284 -0.7023865 2.2107882
-0.99391264 -0.59134424 2.2730124
0.077576704 -0.34816033 2.6559312
0.22147918 -0.04247224 2.2138448
0.38638678 -0.33890986 2.717746
1.0229387 -0.60479581 2.5635393
0.75893986 -0.61326611 2.5941381
0.82558221 -0.29475385 2.6493125
0.27503109 -0.38508677 2.5432527
0.76144409 -0.48812318 2.6697645
-0.56230593 -0.67538351 2.3163662
-0.71330374 0.4607082 1.7503237
-0.85170698 0.032089774 2.0308955
1.0075736 -0.17881575 2.3266792
1.112892 -0.14710911 2.4338417
-0.45665631 0.38578588 1.8895164
-0.42788097 0.38203639 1.9116751
0.86829376 -0.31920558 2.6049836
-1.1075289 -0.68281144 2.4640453
-0.11494349 -0.68544465 2.4195416
0.67082077 -0.37637407 2.7056031
-0.65939987 -0.77461648 2.3941605
-0.53136802 -0.16418055 2.3843009
0.95623124 -0.20295729 2.38168
0.33852145 -0.034304269 2.1569889
-0.21173464 -0.15989484 2.3826852
0.47030169 -0.11171163 2.2501068
0.86306047 -0.50210875 2.5280852
0.84229296 -0.55132502 2.5472691
0.86043185 -0.24737434 2.5612695
-0.2795811 -0.046844084 2.2108691
0.58452165 -0.46680838 2.6633837
0.61775047 -0.51363933 2.6531873
0.82623446 -0.33239111 2.6556029
-0.16215397 -0.84971726 2.4817166
-0.56751281 -0.77793807 2.2394843
-0.72526509 0.39044595 1.7375412
0.11298133 -0.5007472 2.6257095
1.2408605 0.36710459 2.9429777
0.57572043 0.58232766 2.3943357
-0.37866008 0.73814529 2.1640904
1.246893 -0.16420417 2.4905045
-0.0037085027 0.58498901 2.5322337
0.79520398 0.0056622056 2.0267859
-0.84970105 0.029554063 2.0752578
-0.62403703 0.70143813 2.0830483
-0.33412027 -0.045707535 2.204896
-0.87969077 0.097368382 2.0329773
0.57925671 0.27403459 2.0926886
-0.57551813 0.60332853 2.3829694
0.13023286 0.022140551 2.1463106
0.12535845 -0.29363585 2.6445372
-0.7004903 -0.76001871 2.2498701
0.74753398 -0.094549291 2.3310649
-0.69722366 -0.044352923 2.0998297
0.77058518 0.21322565 2.2300274
-0.97479862 -0.64849502 2.1968718
0.9091571 -0.22649354 2.5864959
1.0242153 -0.48900393 2.5428135
1.0052766 -0.62685084 2.5186021
-0.56903666 -0.66131145 2.3091626
1.1251782 -0.34905824 2.7052076
0.72868246 -0.20273364 2.426549
0.83057749 -0.27678543 2.6272242
-0.058518775 -0.84331834 2.3540061
1.2156744 0.35815546 2.8949876
0.37958491 0.20842491 2.1869175
0.12227205 0.28862247 2.878226
0.7006588 -0.17098327 2.4794669
0.12589499 -0.57400227 2.4198956
-0.54057622 0.61038297 2.4412289
-0.39034933 0.39195204 2.1529548
0.87221104 -0.23193854 2.5461867
0.83537322 -0.23034164 2.5599675
-0.12737851 -0.096006997 2.3042574
0.35330474 -0.15922594 2.3104677
0.36720893 -0.11100927 2.2400277
0.31503242 -0.099476419 2.2002976
0.837345 -0.29886565 2.6085348
0.72236937 -0.38103393 2.7080557
0.25994051 0.62082911 2.4275126
0.39367783 0.4112044 2.7289374
0.135552 -0.41951701 2.541482
0.11763126 0.58564693 2.5322716
0.56601894 0.74083591 2.2095015
-0.33365053 -0.049039233 2.205894
0.60627025 0.31662863 2.1557145
1.0747429 -0.119174 2.4204469
-0.62463045 0.70368475 2.0896912
-0.69481921 0.69971544 2.0825093
-1.1684486 -0.31140944 2.6272755
0.83365881 -0.14495502 2.3853977
-0.74555379 -0.70612961 2.2130392
-0.065536834 -0.93532145 2.3469064
-0.53762001 -0.67223936 2.3382773
0.56403929 -0.5317561 2.7131104
0.55237955 -0.38093057 2.7141147
-1.1396511 -0.57862759 2.4706445
0.96838588 -0.48251778 2.5453115
0.23585777 -0.15082775 2.3904541
0.25804359 -0.23026389 2.5254376
-0.082768537 -0.68580467 2.3914962
0.91115618 -0.40312159 2.5691736
0.91039765 -0.54489154 2.5233212
0.88062131 -0.60998279 2.4937193
0.43518272 -0.23253883 2.4634995
-1.2055825 0.67203373 2.3285162
0.26794642 -0.38636038 2.5380793
-0.61164749 -0.4497028 2.3010442
-0.87296921 -0.74771231 2.0800302
-0.66903257 -0.94939864 2.3490512
-0.3387574 0.70495647 2.1645041
0.35811093 0.45134178 2.7448306
1.1001285 -0.10015155 2.30651
-0.43381751 -0.17042984 2.3806269
-0.43147975 0.37575963 1.8943864
0.78569251 0.0063438332 2.0133729
-0.35764694 0.20818396 1.9601345
0.37498796 -0.50945246 2.6301825
-0.68869144 0.68191826 2.0817735
0.78919852 -0.09149611 2.4006696
-0.54550058 -0.16224709 2.3691449
-0.76015115 -0.66948789 2.2119229
-0.57366854 -0.77565461 2.2762339
-0.68662184 0.68483621 2.0310509
1.0976472 -0.1466977 2.3998413
0.93097258 -0.67426986 2.4551742
0.61693311 -0.46642527 2.6794906
0.43198043 -0.23099856 2.4524605
0.3113929 -0.1605054 2.3383033
0.17388141 -0.1799029 2.4538419
0.33005631 -0.26075274 2.5996304
0.77696645 -0.55304217 2.6164527
1.0023919 -0.44388112 2.563421
0.60360682 -0.40391639 2.7095068
-0.87947774 -0.75488985 2.0938993
-0.66036826 -0.93660945 2.3724976
-0.051849253 0.31854972 3.1244397
0.12551413 -0.58428669 2.4573922
-1.2679007 -0.68337739 2.6383307
-0.62093455 -0.44601151 2.2942345
-0.40797716 0.33174777 1.9772925
0.61263758 0.51284921 2.4490397
0.55592561 0.066829942 1.9605806
1.0995678 -0.12734728 2.4424903
0.77368528 -0.068039969 2.3397934
0.57767451 0.27633157 2.1144705
-0.33245465 -0.051209483 2.2070765
-0.53127217 -0.77995932 2.2612429
1.0233455 -0.63418013 2.5385172
-0.64198023 -0.049337134 2.103395
-0.59144002 -0.080270946 2.1407187
-0.4572551 0.39081147 1.8923721
0.10525378 -0.14886013 2.391607
0.34662288 -0.15467598 2.2518129
0.86276537 -0.60657805 2.4686704
0.83308131 -0.48080993 2.5652282
-0.15640874 -0.8512274 2.4799588
0.98858434 -0.31391552 2.6173871
0.86477125 -0.17747882 2.5229187
0.74796993 -0.59070373 2.6511881
0.30257559 -0.15926056 2.3310852
0.82058978 -0.30511448 2.6654022
0.2661916 -0.38737431 2.5455406
0.59173012 -0.38226116 2.7279458
0.33629236 -0.038635273 2.1661448
-0.7123282 -0.78945261 2.1702688
-0.74558401 -0.7489875 2.1331229
0.74677038 0.22378168 2.173178
0.80171573 -0.47125506 2.5864413
0.38317889 -0.39208397 2.7045546
0.38040856 -0.51633823 2.6464272
-0.079228386 -0.12891373 2.3296366
-0.57343441 -0.77897215 2.2780695
1.1373128 -0.12824917 2.5048285
-0.42728913 0.38340035 1.9709808
-0.70244867 -0.045513771 2.0885243
-1.0593175 -0.36933103 2.5425992
0.67708284 -0.41890943 2.6716955
0.61352521 -0.51804876 2.6574981
0.24045493 -0.33016634 2.6231017
0.40607667 -0.1495664 2.2925694
0.75979817 -0.6298784 2.578445
0.9048034 -0.22221853 2.5151846
0.78217876 -0.21870711 2.3642886
0.72050792 -0.19182883 2.4129593
0.10104708 -0.15058915 2.3850143
0.23370445 -0.5481503 2.6243167
0.84716481 0.60892755 2.3911095
0.55295265 0.066085331 1.94101
0.69646204 0.056321654 2.0609953
0.76698756 0.48847196 2.713135
0.87916613 -0.52302092 2.4679635
0.99340749 -0.18870583 2.3516543
0.86319953 -0.24596044 2.5080636
-0.71639109 -0.18346001 2.1303926
0.48879698 -0.025038349 2.0577912
-0.3884677 0.37144989 2.0381315
0.38946822 -0.12139899 2.2670679
-0.83389169 0.079528019 1.8048977
1.2986686 0.61486685 2.749213
0.85614252 0.61496669 2.4385195
0.1298116 -0.59265929 2.4806495
0.60841757 -0.519292 2.655453
-0.15088727 -0.85585982 2.4789474
0.76758593 -0.54876751 2.6157522
-0.43888098 0.2379611 1.6876742
0.0086007435 0.58360869 2.5917497
1.3055574 -0.22424546 2.7584755
0.30740938 -0.40014187 2.5026731
0.96488267 -0.19236721 2.3390725
0.74241596 -0.60599142 2.6380966
-0.071544841 -0.11990729 2.4403665
0.39876467 0.2148632 2.1607831
-0.51415521 0.46131128 1.7659826
-0.29476252 -0.13301228 2.2491369
1.0980409 0.061160184 2.5580311
0.95485622 0.15911284 2.7698865
0.58061713 0.059520543 2.0019257
-0.50669831 0.50178128 2.1756785
0.74959254 -0.071851715 2.3480875
0.60992879 -0.093010589 2.2794855
1.1561438 -0.11763667 2.5280247
0.16751263 -0.35749683 2.5171888
0.93683648 -0.71397936 2.6021428
0.51130944 -0.041166045 2.1311166
-0.94330007 0.47890905 1.9082719
0.89857131 -0.33449396 2.5921252
0.030852702 -0.14304952 2.3708103
0.32162723 -0.25282568 2.5596275
-0.76893955 -0.095784023 2.1833866
-1.1400393 0.00097700965 2.1082537
-0.91393 -0.6323995 2.249507
-0.0019316792 0.045528769 2.5231965
0.59642696 0.35958597 2.1706886
-0.52488035 -0.45275447 2.3040247
-0.40794811 -0.19422598 2.3802917
-0.78141481 0.41527709 1.7959292
-0.60347211 -0.33098885 2.44875
-0.62508053 -0.003147848 2.1225162
0.60500151 0.087713011 1.9855769
0.25404769 -0.053232986 2.2289162
-0.57418489 -0.44759634 2.3052721
0.11298786 -0.29425412 2.6388502
0.20668508 -0.39831805 2.6109815
-1.2766055 -0.47374213 2.7889099
1.2107929 -0.37737605 2.7616835
0.82043815 -0.42243668 2.6112642
0.22807483 -0.43935257 2.5014963
0.61008292 -0.33755687 2.7405539
0.74149483 -0.43627641 2.7253292
0.66289306 -0.35709816 2.7334697
0.45337567 -0.074775621 2.2850802
0.90476561 -0.28013048 2.5773978
-0.029127412 -0.57745969 2.2879279
0.78040671 0.63021338 2.4484353
0.57910395 -0.39489821 2.7000558
0.19325258 -0.084011763 2.1989686
0.52837205 0.76313454 2.2113619
-0.057056144 -0.13671824 2.3794365
0.60568643 -0.45494518 2.7003479
0.7972458 -0.40657833 2.6981556
-0.56038982 -0.62737632 2.3786957
0.24644484 0.61532587 2.4608893
0.14245798 -0.32753089 2.6022453
-0.35010952 -0.59561688 2.3008699
-0.47312593 -0.60645205 2.3314407
0.23450096 -0.15821794 2.3837655
-0.64297771 -0.10239834 2.0673525
0.73221868 -0.41498563 2.6842849
-0.74138558 -0.00049994182 2.1147974
0.74109721 -0.57655609 2.650774
0.75466895 -0.61181617 2.5877166
-0.056960948 -0.67373908 2.3537898
0.23182786 -0.44206986 2.5019097
-0.57613713 -0.16507682 2.3607414
-0.50241888 -0.45228755 2.3054366
0.90163201 -0.43167546 2.5625947
-0.70185965 -0.74738461 2.4885473
-0.49068239 -0.71012974 2.4026659
-0.57449174 -0.79169929 2.2943392
-0.66183007 -0.737755 2.4038525
-1.2007452 -0.48694628 2.6335888
0.48426804 -0.1344261 2.2712736
-0.5712803 -0.78974539 2.2690718
0.30033866 -0.27589536 2.5791633
0.59744424 0.52147734 2.4477153
-0.22043715 -0.036358245 2.1893926
-0.66331363 -0.45023456 2.3073263
-0.71857953 -0.80315304 2.204088
-0.14233258 -0.80559051 2.3713222
0.88361716 -0.38251808 2.5852044
0.76746893 -0.57236522 2.5944011
0.7212286 -0.6200707 2.6231964
0.97348768 -0.32258433 2.6058941
0.53953665 -0.39542401 2.7261412
3.356559 -1.0265852 6.4416094
-0.15533671 -0.87199837 2.4645953
0.55832994 0.051752131 1.9446521
-0.12832114 -0.073673204 2.2750421
-0.029063471 0.2182858 3.1387556
0.37265265 -0.38685676 2.6729426
0.59006017 0.085299127 1.9454383
0.63358557 0.31672171 2.1312253
-0.27233317 -0.044348415 2.2807081
