# .PCD v0.7 - Point Cloud Data file format
VERSION 0.7
FIELDS x y z
SIZE 4 4 4
TYPE F F F
COUNT 1 1 1
WIDTH 1459
HEIGHT 1
VIEWPOINT 0 0 0 1 0 0 0
POINTS 1459
DATA ascii
-1.3645638 -0.77870244 2.7066975
-1.3619986 -0.31184205 2.8211124
-0.74183607 -0.19928917 2.0316253
-0.78060496 -0.21426299 2.1406274
-0.61512274 -0.82343191 2.1975601
-1.1036052 -0.16735652 2.2873883
0.013929933 0.27809861 2.3957486
-0.12365153 -0.89448971 2.3415072
-1.0745643 -0.82224035 2.0680368
-1.2363058 0.4890523 2.4257245
-1.1118685 -0.37627351 2.6860662
-1.2732598 -0.25218585 2.7023244
-1.2527615 -0.25621092 2.6511073
-0.85639936 -0.71187788 2.1404793
-1.0116148 -0.84256607 2.0458901
-1.0340441 -0.7506634 2.0547898
-0.96907109 -0.80483538 2.0510225
0.50094819 -0.49414647 2.5918698
0.66104716 -0.61129904 2.5945837
-0.20397612 -0.93691987 2.4303071
-0.95422524 -0.16192149 2.268048
-0.72709376 -0.21924278 2.0954642
-1.0317445 -0.69768238 2.1123941
-0.72588688 -0.12768288 2.0328939
0.15612605 0.59689331 2.3810475
-0.97781563 -0.72296476 2.0715675
-0.63826483 -0.79846549 2.2013164
-0.97936231 -0.72206587 2.0690203
-0.78766859 -0.1936101 2.0435555
1.1525905 -0.77277249 2.587615
-1.1262331 -0.34158415 2.4498231
-0.85114932 -0.10542204 2.1054335
-1.1119527 -0.81588745 2.0712531
0.45503181 0.64960265 2.2805614
-0.47099081 0.1591133 1.8597356
0.79097575 -0.59755188 2.4232895
0.61616969 0.40867132 2.6146247
-1.0990191 -0.70752472 2.3136411
-1.3599693 -0.91376942 2.5449407
-1.3305293 -0.80993384 2.6811981
-0.67868954 -0.66620845 2.3299644
-0.91272628 -0.66367304 2.168344
-0.97790837 -0.72241813 2.074976
-0.84255844 -0.16804576 2.089083
-1.1526612 -0.72183472 2.1507008
-1.0891801 -0.74576765 2.3870699
0.07929384 -0.14939339 2.4092417
0.21914807 -0.1992998 2.2489007
0.67504734 -0.21693365 2.4209087
0.56462717 0.45653424 2.584275
-1.3682448 -0.97666395 2.4834201
-1.0839918 -0.81968838 2.0382507
-1.3653011 -0.79821032 2.6058381
-1.3577524 -0.91663671 2.5560348
-1.3711537 -0.97538322 2.4805365
0.30068904 0.12709445 2.2334895
-0.19438739 0.067729145 2.1706147
-0.27912122 -0.061634846 2.1613033
-0.25656763 -0.10304505 2.1837404
-0.093157664 -0.24629237 2.4400723
-0.17192438 0.49435052 2.4975266
-1.1510879 -0.94087285 2.1719842
-0.49758235 -0.14380887 2.227967
-1.4145088 -0.25663221 3.5404801
-1.4455984 -0.095532134 3.4930897
-0.93115455 0.27545145 2.04231
-0.80990237 -0.22822265 2.0769944
-1.2679267 -0.92766929 2.939548
-1.2406076 -0.035765715 2.0542436
-0.93258578 -0.63853931 2.2159131
-1.2766546 -1.0617063 2.3623283
-1.3271952 -0.88500279 2.5352917
-1.0042038 0.21857649 2.0029762
-0.95514518 0.25962073 2.0195036
-1.3794556 -0.27491653 2.8759794
-1.3522627 -0.8743943 2.4986141
-1.0975109 -0.92963296 2.1122525
-1.3616006 -0.80104673 2.6209359
0.73923272 -0.47302201 2.7112527
-1.3588612 -0.98240459 2.5063546
-1.3580332 -0.89676076 2.8955743
-1.2303197 -0.90924203 2.874604
-0.76105589 -0.37913877 2.2739811
0.056965925 -0.038469736 2.0619919
0.88427544 -0.15046753 2.2212377
0.85249746 -0.32739481 2.5112422
-1.3265206 -0.18759519 2.1361659
-1.2685302 -0.92707515 2.9402192
-1.3362608 -1.0703797 2.4822841
-1.1200191 -0.91292298 2.9125547
0.41737279 0.25458637 2.053977
0.39687508 0.64605081 2.2068012
0.52067542 -0.40254322 2.4297228
-1.2601956 -0.92527205 2.9515727
-1.3588384 -0.81070566 2.7616479
-1.3827995 -0.87951136 2.9224286
-0.98070753 0.20870119 2.0448115
-0.92728007 0.2152539 2.1084268
-1.2884891 -0.2498218 2.6295373
-0.91849905 0.19402045 2.1396415
-0.98389357 0.23338847 2.0267618
-1.0143652 0.077296406 2.1313765
1.2252575 -0.61066699 2.5578892
-0.76084501 -0.21991916 2.3264234
-0.746665 -0.2150525 2.336807
-1.4541539 -0.2934089 3.4638691
-1.4625809 -0.10537165 3.4356441
-0.25307226 -0.19239578 2.4237146
-1.1876789 -0.043188561 2.0475938
0.44339702 -0.64949638 2.5171375
-1.3467319 -0.89564461 2.9181335
-1.3234493 -1.1325824 2.3565466
0.47161785 0.087579682 1.9676197
-1.1163123 -0.92390865 2.0956142
-1.3552191 -0.53290343 2.732691
-0.79782605 -0.83800685 2.5091419
-1.0891368 -0.88650554 2.811626
-1.3444998 -0.90398055 2.9907267
-0.99144155 -0.84807122 2.4583962
-1.4018904 -0.82976067 2.9846556
-1.4881605 -0.39889732 3.5208058
-0.71873224 -0.32955781 2.2895427
-1.4420805 -0.43843597 3.0025585
-0.43107155 0.2099634 1.8088834
-0.37181857 -0.18776958 2.3442123
-0.11595683 -0.1833287 2.2750182
0.11031177 0.13799079 2.0426958
-0.86838281 0.33317757 2.033457
2.1147664 0.13566726 2.4937437
-1.4154737 -0.71574718 2.995723
-0.81332296 -0.15316272 2.0875826
-1.0839958 -0.81748176 2.82427
-0.92895567 -0.20272702 2.0449955
-1.0820918 -0.93683004 2.0945435
-0.52876478 -0.24520528 2.3088131
-0.84114218 -0.3088389 3.9535749
-1.350381 -0.52691412 2.7321856
-0.67870402 0.61710638 2.148092
-1.3448519 -0.80966717 2.625366
0.047889538 0.10996287 2.0830407
-0.4060955 -0.06849733 2.1469803
-0.19042613 -0.72062916 3.2456839
-1.580379 0.03805048 2.8810282
-1.3345759 -0.16704233 2.9714673
-1.3476207 -0.74134725 2.6343238
-1.3479656 0.19422625 2.7814479
-0.88263053 -0.65091723 3.7829032
-0.86636734 -0.16617478 2.0497627
-1.2613037 -0.75873196 2.5402732
-1.3555828 -0.48613113 2.7242026
-1.4712799 -0.70485747 2.3197663
-1.0269777 -1.0034711 2.17237
-1.4073043 -0.45509911 3.3525124
-1.2493149 -0.92230541 2.9507642
-1.3793156 -0.40004691 3.0075755
-1.307119 -0.88969225 2.9330535
-0.87408042 -0.17104608 2.0566366
-1.2554837 -0.94773275 2.9762027
-1.1098464 -0.36991906 3.9114738
-1.4217293 -0.55834049 3.2745268
-1.1664848 -0.97076464 2.6483679
-1.1802744 -0.94645107 2.6790447
-1.0893916 -0.93840867 2.0945964
-1.0837061 -0.54494083 3.6855562
-1.4480547 0.10030488 2.9425967
-1.2012818 -0.93630952 2.9807553
-1.4887483 -0.82676733 3.0087664
-1.1002238 -0.26980236 2.4241383
-0.85053247 -0.18201225 2.1024036
-1.2158825 -0.39145932 3.6723101
-0.22725558 -0.84955972 3.3727953
-1.1896883 -0.93494326 2.6703289
-1.4160548 -0.32755151 2.825001
-1.3399973 -0.69235492 2.6674743
-0.69404674 0.47182804 2.4138134
-0.54513955 0.62070966 2.4008989
-0.55522102 0.618191 2.3883641
0.48927358 -0.61878484 3.3128459
0.44194505 -0.64829558 3.2874508
-1.3197334 -0.92741668 2.9905171
-1.1181598 -0.79606581 3.4186974
-1.1310726 -0.90663439 2.9407156
-1.4028134 -0.96271807 3.0203006
-1.1109575 0.043033261 2.1694291
-0.86295116 -0.93110299 2.828825
-1.2894454 0.017283177 2.869657
-1.300508 -1.1642997 2.4153035
-1.3192822 -0.44556656 2.7234132
-0.96663481 -0.65982407 3.2280316
-1.3071605 -1.1676615 2.4174776
-1.1447568 -0.94870633 2.6978261
-1.412176 -0.70792121 2.930933
-1.1798441 -0.85200649 2.8988094
-1.0132252 0.57502431 2.3344951
-1.07944 -0.60429502 2.2142777
-0.97636098 -0.87013382 2.8908558
-1.2438829 -0.97109979 2.649626
-1.247076 -0.79627293 3.1620183
-1.1595455 -0.38529611 2.4615169
-1.2512804 -0.23909669 3.5589702
-0.98693788 -0.96063715 3.6457927
-0.77182299 -0.68219435 3.1873388
-1.2780142 -0.96311367 2.9731781
-0.25334731 -0.68088281 3.1468725
-0.096262433 0.81528217 1.4698206
0.074347481 -0.78137451 3.6637192
-1.330213 -0.54623717 2.6718953
-1.275777 -0.88096946 2.907752
-0.98813599 -0.81100768 3.1457307
-1.3520405 -0.74526227 2.6356292
-1.1530674 -0.6069786 2.3853192
0.4529472 -0.74510354 3.7786591
0.45055717 -0.74839747 3.7794361
0.45813116 -0.74852264 3.785856
-0.7256602 0.63957667 1.7852199
-0.7479791 -0.71862841 3.3162243
-0.99809974 -0.7887044 3.781193
-1.3128279 -0.40919763 2.7245755
-0.71282697 0.51286298 1.9328554
-0.68241179 0.30468315 1.7481859
0.0684691 -0.76701617 3.4462523
-1.3177125 -0.98628891 2.4891829
0.49179003 -0.69959283 2.8849125
0.36712581 -0.73121697 2.8870523
-1.3396904 -0.91230386 2.4778414
-0.68932575 -0.37899494 3.8112359
0.31341898 -1.0069026 3.7794802
-1.4219422 -0.58354604 3.1008251
-1.3225287 -0.90202546 2.9066434
-1.3044503 -0.85925782 2.4391279
-0.55972958 -0.64808798 3.0948229
-1.2107084 0.31452495 2.7107022
-1.4386688 -0.60578638 2.9962871
-1.4556162 -0.44467941 2.4860148
-1.5152062 -0.69218701 3.0041077
0.040766343 -0.99675143 2.5435622
0.084829703 -0.54567713 3.7387309
0.35569525 -0.79227382 3.7240565
-1.3755618 -0.50582713 2.7385359
0.37419325 -0.88570857 3.7197428
-1.4146869 -0.65934038 3.0032876
-1.4189793 -0.50273085 3.1829541
-1.5711544 0.011450252 2.9781749
-1.4356023 -0.57626951 3.1409776
-1.1770526 -0.2168003 2.5134435
-1.5072924 0.1141432 2.7998385
0.22283143 -0.69509983 3.3062503
0.89282972 -1.1138738 3.589128
-1.427992 -0.75363398 3.0040264
-0.47313803 -0.86238378 3.4354184
0.81557548 -0.84931415 3.6320193
-1.0886716 0.68444544 2.0510967
0.26228198 -0.63380712 2.9975762
-1.0963746 -0.77470124 3.3226426
-0.89596128 -0.92303383 2.8963616
-1.4247471 -0.6184203 3.0474634
-0.91656697 -0.76552218 3.0752151
-1.0322264 -0.69699776 3.3607879
-0.23737368 -0.79037768 3.5558238
-1.2422645 -0.93076974 2.9448483
-1.4294425 -0.46729648 3.0790899
-1.3123863 -0.92880583 2.9676979
-1.0738199 -0.97711569 3.0524423
-1.5919188 -0.023466403 2.9283519
-1.2550503 -0.2093268 2.337795
-1.0679039 -0.73169118 3.3215818
-1.0382801 -0.73307407 3.5209465
-1.4226835 -0.71684682 3.0221097
-1.1652504 -0.83323902 2.6862359
-1.4302229 -0.5684101 3.1470122
-1.3884801 -0.71465105 2.6552787
-1.0648682 -0.67717648 3.2430575
-0.72393274 -0.62668055 3.6998503
-1.3025547 -0.8555038 2.8617694
-1.1278143 -0.85352749 2.8166087
-1.2866746 -0.24961369 2.2335675
-1.0591075 0.0091328546 1.6099765
-1.0024867 0.02246538 1.5271298
-1.0483537 0.13027008 1.8854495
-1.1675972 -0.83419055 2.7471035
-1.1541531 -0.90929633 2.697356
-1.3937032 -0.77966148 2.7915535
-1.3227739 -0.91980308 2.9927435
-1.426479 -0.59863508 3.1047866
-1.1949638 -0.87090021 2.8198252
-1.2429754 -0.17267275 2.3190706
0.3163718 -0.81455183 2.8558714
0.19504356 -0.21507347 3.6869552
-0.55241764 -0.75677717 3.241529
-1.4229836 -0.83808941 2.9672303
-1.0621012 -0.77858043 3.4485772
-0.71518171 -0.72433972 3.2195137
-0.23517075 -0.71489102 3.2131889
-0.21768051 -0.63651705 3.1552968
-1.264318 -0.22596835 2.3606017
-0.16216372 -0.91334176 2.6280322
0.14960933 -0.93387401 2.5938938
-1.0441464 0.10478827 1.8011764
-1.0591464 -0.64746004 3.5784416
-1.4144058 -0.74001026 2.998143
-1.2849468 -0.11270906 2.7074223
-1.2837029 -0.09999492 2.7200446
-0.15026374 -0.79279077 3.3854465
-0.25214812 -0.80107957 3.421855
-0.23853871 -0.82199514 3.4087498
-1.4061084 -0.70966971 2.9822781
-1.4213458 -0.55701482 3.1376388
-1.4108561 -0.50238436 3.0005226
-1.4201391 -0.82698184 2.9880021
-1.4303259 -0.61752802 3.1341279
-1.0746627 -0.27225631 3.4169021
-1.3365628 -0.73425561 2.5600684
-1.3162184 -0.69807255 2.5136533
-1.3700866 -0.4664019 2.687799
-0.90649176 -0.66567421 3.0900295
-0.93114501 -0.77296954 3.1034496
-1.062196 -0.83905065 2.8675532
-1.0787227 -0.84578508 2.7768776
-1.0305432 -0.75413811 3.1497352
-1.1924527 -0.90635365 2.8780527
-1.1149423 -0.96549332 2.669966
-1.1400107 -0.95345259 2.6888163
-0.78084117 -0.73319906 3.224339
-1.2277074 -0.94815296 2.9936969
-0.69689763 -0.78213626 3.3756776
-1.4014654 -0.74255043 2.6790452
-1.4110887 -0.82449001 2.9664588
-1.3496736 -0.74545443 2.6040344
-1.3372819 -0.70636147 2.5748284
-1.4293926 -0.56595689 2.9067779
-1.0156242 -0.72998106 2.7029345
-1.0248454 -0.98946673 2.6546714
-1.1630288 -0.89864385 2.8711336
-1.449836 0.025760606 2.9953163
-1.4286849 -0.017728938 3.0176666
-0.72617334 -1.0607853 2.8192773
-1.2508426 -0.91997021 2.9521742
-1.4307907 -0.042362392 3.0304043
-0.80617636 -0.76613992 3.2882226
-1.4215918 -0.5985114 2.9769306
-1.1964562 -0.93396252 3.0114493
-1.0542039 -0.69769615 3.2378204
-1.008973 -0.83910865 2.8561447
-1.3267998 -0.94609988 3.0449736
-1.0309596 -0.93229425 3.0442281
-1.0475347 -0.91565365 3.0244389
-1.031746 -0.93861115 3.0471294
-0.86395252 -0.61556953 2.9920256
-0.8676759 -0.63094747 2.997894
-1.0319978 -0.93868285 3.0465288
-1.5645739 -0.020752033 2.9821112
-1.2552021 -0.93431461 2.9631624
-0.76671737 -0.76505154 3.2818928
-0.91558373 -0.7956875 3.339663
-0.90094125 -0.71412551 3.0221822
-0.5489735 -0.75407439 3.2897882
-0.617854 -0.76274478 3.3000486
-0.87775433 -0.50277233 2.8412235
-0.58350432 -0.72678781 3.2212887
-0.88134074 -0.70969665 3.1470683
-0.68078917 -0.77231282 3.3248057
-0.38606894 -0.7661863 3.3215771
-1.1185125 -0.97965646 2.6950586
-0.87888378 -0.66604173 3.0205035
-1.2039448 -0.80177677 2.7651472
-1.2651882 -0.90728241 2.9207273
-0.80639565 -0.86807114 2.6112316
-1.4358567 0.09889859 3.0419374
-1.5767999 0.23458724 2.9702914
-1.5987873 0.37924027 2.6784248
-0.62255889 -0.77623326 3.3167288
-0.10609821 -0.70828748 3.158015
-0.24992263 -0.82164115 3.4136646
-0.06516061 -0.65222621 3.6625438
-0.25177824 -0.84206182 3.3855269
-0.56290966 -0.71137422 3.0114093
-0.28174859 -0.78516787 3.3326526
-0.45968026 -0.63046849 3.0059781
-0.1882643 -0.79571694 3.2892931
0.024234245 -0.7430042 3.2762983
0.3112781 -0.67497289 3.3326185
-0.054620467 -0.82729125 3.5054953
0.34110099 -0.65159988 3.0102549
0.56843549 -0.47083193 2.8940916
0.43828332 -0.65251982 3.6894743
-0.59716749 -0.75022817 3.2667296
-1.1998926 -0.90649611 2.9230044
-1.0713491 -0.90109932 2.9572003
-1.052788 -0.88644725 3.0511541
-1.2510763 -0.90163219 2.9067373
-1.0656409 -0.86192644 2.8803129
-1.0368629 -0.85164845 2.8818805
-1.1307479 -0.91759545 3.0146992
-1.233047 -0.88879663 2.854619
-1.1524833 -0.94518352 2.6858919
-0.91411358 -0.68414134 3.1740355
-0.80105072 -0.6889742 3.1860852
-1.0512661 -1.023989 2.6540759
-0.86097473 -1.0363276 2.7967079
-1.072456 -0.90649951 2.9571071
-1.0422882 -0.94624603 3.0597234
-1.0686325 -1.0126936 2.6616051
-0.25779232 -0.99899369 2.7943015
-1.0706527 -0.81946284 2.9058139
-1.0729474 -0.90951043 2.9598706
-0.9015922 -0.85845464 3.0348678
-0.32303178 -0.69694889 3.2360103
-0.51112795 -0.75960308 3.0192537
-0.64558929 -0.72607392 3.2427006
-0.75403106 -0.55506873 2.9863324
-0.49694219 -0.74046999 3.2633717
-0.77743435 -0.64718378 3.0220437
-1.0326896 -0.75035256 2.6927729
-1.0283558 -0.73207945 2.6779387
-0.0025817754 -0.71622741 3.2083261
-0.5593856 -0.76905674 3.2609646
-0.73240787 -0.78094816 3.3071132
-0.3150976 -0.68448949 3.2368762
-0.7432459 -0.75718606 3.2627583
-0.71632987 -0.73053783 3.2340879
0.52207303 -0.69723058 3.886235
0.43948272 -0.70996332 3.7500269
0.72651863 -0.79286081 2.9539015
-0.56230903 -0.72687942 3.3092368
-0.066905715 -0.74401379 3.607934
0.44256634 -0.71738404 3.9223499
0.86343431 -0.97283322 3.6502633
-0.073944524 -0.6629048 3.1313047
0.34041286 -0.62144309 3.0122333
-0.30903199 -0.80178213 3.3146577
-0.34774521 -0.87455976 3.5436926
-0.20297998 -0.85498726 3.2981424
0.34036213 -0.22585258 3.8850741
0.47994193 -0.14909294 3.8597672
0.63338792 -0.74233282 3.5653534
0.79373825 -1.2940893 3.7784226
0.012771827 -0.21433331 3.5920157
-0.49400541 -0.74827367 3.2919862
1.0533293 -0.71932709 2.9212875
0.36126909 -0.82098663 3.6800773
0.84494394 -0.19544415 3.4379358
0.48078984 -0.65071791 3.135957
0.087051474 -0.26579237 3.6777236
-0.53939325 -0.76870495 3.3085027
-0.47898006 -0.84168458 3.4510794
0.15751767 -0.7496683 2.6891816
0.15668954 -0.75578064 2.6988115
0.63296455 -0.27452409 3.8650208
0.01158075 -0.11662263 3.4517603
-0.25096628 0.07926847 3.4347129
0.47896653 -0.65008646 3.0334277
-0.062116902 -0.83190787 3.3857832
-0.57927293 -0.68728936 3.2086813
0.53294212 -0.65562665 3.5988567
-0.50363547 -0.75295049 3.2780824
-0.47188491 -0.86747044 3.4449148
0.13200925 -0.6256035 2.7102518
0.68229312 -0.69409156 3.6291838
0.94755977 -0.32599777 4.0551429
0.40409967 -0.8377884 3.6193745
-0.56099963 -0.75404191 3.2723892
-0.3026261 -0.71524274 3.2080722
-0.25409335 -0.79076225 3.2801855
-0.23200496 -0.81409234 3.4052565
-0.077371359 -0.84835082 3.560041
-0.065917276 -0.77426797 3.4238691
-0.22141305 -0.79650509 3.2913346
0.36197966 -0.66924733 3.1531117
-0.46485192 -0.75748408 3.2846222
-0.24500713 -0.80920458 3.4061308
-0.27859011 -0.76151437 3.3267746
-0.26039821 -0.78722596 3.2769399
-0.051699307 -0.71886343 3.2997048
-0.17930999 -0.72052079 3.1795983
-0.045022927 -0.58490819 3.0797322
-0.0092458343 -0.69692945 2.6997807
-0.036978569 -0.53317386 3.0477061
-0.44557282 -0.77337152 3.3202932
0.13491176 -0.57623762 3.0124745
-0.15542723 -0.82688433 3.3431404
-0.03049881 -0.57415533 3.0541737
-0.16090423 -0.76799488 3.2286565
-0.41009706 -0.73799753 3.2472925
0.42305377 -0.44683039 2.8732066
-0.12081194 -0.66561627 3.1323345
-0.065689661 -0.63978058 3.1434848
-0.078422256 -0.71599799 3.1781166
-0.089987941 -0.58114094 3.0048935
-0.21513034 -0.56662691 2.9612999
-0.12427305 -0.84351277 3.3669205
-0.065309852 -0.83151495 3.3611345
-0.21575631 -0.69427776 3.1318262
-0.09562432 -0.72984976 3.1982703
-0.10465235 -0.80868781 3.3001804
-0.18038113 -0.79217041 3.2850993
0.15098768 -0.52530158 2.9149628
-0.24268083 -0.78737038 3.2780118
-0.20186706 -0.81241393 3.3111339
-0.46451214 -0.77626908 3.3426478
-0.091133378 -0.72658026 3.1803596
-0.11744787 -0.83549774 3.358701
-0.30638319 -0.68802696 2.9916015
-0.22616707 -0.75714797 3.218137
-0.59881145 -0.6852082 3.0010607
-0.55590135 -0.68199617 2.9970798
-0.055883147 -0.77479631 3.3898838
-0.047077578 -0.63652539 3.16992
-0.1188706 -0.56305629 2.8152936
0.40274325 -0.46759611 2.9255176
0.17323442 -0.59186649 3.0130348
0.095196277 -0.60564905 2.7800033
0.6492703 -0.67101568 3.1754045
0.059880316 -0.60604674 3.0266516
0.06888853 -0.52214843 2.8721302
0.67577893 -0.66716224 3.1722162
0.52231866 -0.63833839 3.0136812
0.48124206 -0.5947662 3.0853231
0.70176166 -1.2563534 3.7711403
0.48611006 -0.9515534 3.900954
0.45415127 -0.51978475 2.9917109
0.41549286 -0.8673507 3.6304903
0.3463169 -0.66913605 3.1766131
-0.376793 -0.7786476 3.3701756
-0.050820436 -0.63867956 3.1467271
-0.0049703899 -0.66640168 2.7191796
-0.10999687 -0.66160798 2.7327542
-0.087745801 -0.72902232 3.2056515
0.043800425 -0.64094585 2.9768405
-0.09069147 -0.75041997 3.2117233
0.14738183 -0.54197592 2.9232056
-0.13376103 -0.50090384 2.8716075
0.095756911 -0.55584705 2.9677503
0.10192288 -0.56224144 2.9483654
-0.060044605 -0.8279404 3.3743012
-0.25169808 -0.82873327 3.327327
-0.2281156 -0.76340997 3.2205052
0.49220449 -0.66834253 3.0481751
-0.10313059 -0.80125183 3.2965291
0.0028985515 -0.54292375 3.0235014
0.26765719 -0.67698425 3.2092781
-0.13848828 -0.57264048 2.8147533
-0.06008346 -0.67065316 3.2080717
-0.22356506 -0.49438432 2.8912394
-0.079247691 -0.80228108 3.3229444
0.36293477 -0.67568755 3.2107203
0.42427132 -0.83210164 3.6274052
0.3412118 -0.65820706 3.1586587
0.17149854 -0.77108747 3.3447187
0.15479295 -0.77662194 3.3967631
-0.037955407 -0.52545029 2.8856695
-0.0031612678 -0.72195393 3.2994506
0.27775058 -0.69189888 3.2339542
0.13153954 -0.70783293 3.3083599
0.7165966 -0.61835772 3.1692533
0.54992968 -0.49209234 3.0779276
0.17109294 -0.77564675 3.3957753
0.66005969 -1.1185188 3.7144558
0.45567119 -0.84613174 3.6381571
0.56652826 -0.58691376 3.0502882
0.66116124 -0.71782154 3.3104265
0.61295736 -0.66609174 3.0349319
0.49060073 -0.5802539 3.0995698
0.48025364 -0.59368557 3.1042519
0.48791057 -0.96018434 3.8925726
1.0199444 -0.83062249 3.5929549
1.0532024 -0.69724238 3.3387387
1.067813 -0.68109751 3.661073
0.1128747 -0.58746809 3.0482686
0.30385494 -0.65415007 3.1431863
0.30907902 -0.64608341 3.1406608
-0.14128989 -0.70563412 3.1754353
-0.24243587 -0.67182308 2.9942772
-0.27464768 -0.61975431 3.127414
-0.23749849 -0.63462722 3.0614836
-0.27528057 -0.62907487 3.1302936
-0.064664587 -0.83042723 3.3608234
0.3908613 -0.67031372 3.1818216
0.38565847 -0.66804022 3.0160897
0.39706215 -0.6793195 3.0241477
0.39522251 -0.69786346 3.035269
0.80046111 -0.83966517 3.5856211
0.32316348 -0.58255619 3.0991838
0.80342001 -0.93273258 3.6518877
0.26368096 -0.56114399 3.0360696
0.478834 -0.67391801 3.0280712
0.22176473 -0.52608788 2.9874737
0.43588972 -0.65931356 3.2226331
0.17245542 -0.59047216 3.0124357
0.075218387 -0.54126316 2.8931816
0.081052311 -0.52391207 2.8836761
0.1202153 -0.57338166 2.8174009
0.1529182 -0.51711881 2.9136896
0.5673086 -0.96960294 3.8102095
0.35695925 -0.65782875 3.14644
0.66938895 -0.62410992 3.0162206
0.27546862 -0.68059552 3.1923354
0.29526609 -0.68558085 3.2098432
0.31320521 -0.68975747 3.2317071
0.038217012 -0.57855332 2.9631658
0.13689193 -0.51081485 2.8846674
0.60156846 -0.54453099 3.0299354
0.68318081 -1.1214552 3.7917218
0.52509159 -1.0347137 3.8705981
0.34771925 -0.70205963 3.2407205
0.51323265 -0.99353915 3.864254
0.51112604 -0.97644985 3.9043989
0.77020961 -1.1574489 3.5789979
0.48798585 -0.68579167 3.2333267
0.51496685 -0.99263996 3.8664684
0.46051639 -0.67718619 3.1676743
0.48054323 -0.66933155 3.6449807
0.66934735 -1.1047487 3.5879443
0.66705543 -1.1732296 3.6610982
0.65171701 -0.69404417 3.2654278
0.66417211 -0.69972545 3.2535937
0.45343682 -0.66358238 3.0202055
0.82178164 -0.87344122 3.6663425
0.72854757 -0.93953055 3.6396852
0.72291249 -1.2622663 3.7665265
0.7778362 -0.7991128 3.6410348
0.80096155 -1.1779559 3.579937
0.70484722 -1.2178919 3.8856568
0.71410733 -1.2142048 3.8933516
0.53490865 -0.91037947 3.8267081
0.6841554 -1.1392138 3.7987618
0.39115274 -0.87273782 3.6525779
0.67209762 -1.1453359 3.7948079
0.73130947 -1.1958629 3.8408973
0.70230067 -1.1591791 3.5542166
0.66791958 -1.0749202 3.8164392
0.60977095 -1.0357181 3.9232192
0.7046988 -1.0534749 3.6953726
0.61215961 -1.1767204 3.8995247
0.65553641 -1.1729951 3.5560832
0.49532673 -0.92970145 3.834367
0.73777503 -1.1846527 3.6018815
1.0772029 -0.66735512 3.6545861
1.0752374 -0.60998672 3.0111113
0.77739978 -0.87219197 3.6311643
1.0718935 -0.68722266 3.3358197
0.49065027 -0.95515913 3.9170344
0.70492631 -1.2015191 3.8206186
0.7778945 -0.85975713 3.633225
0.80194479 -0.82942379 3.6201475
0.6762386 -0.69961911 3.3131146
0.83858854 -0.81216055 3.5773547
3.5956695 -0.61641699 4.9844456
0.39089996 -0.79231256 3.8069348
0.49129575 -0.88966161 3.8355329
0.49402627 -0.88714093 3.8359859
0.49347261 -0.88630766 3.837677
0.54348177 -1.0179529 3.8701844
0.71353191 -1.2286824 3.8151898
0.62843066 -0.84967053 3.5890512
0.74649119 -1.1757519 3.5889144
1.0160908 -0.6450609 2.9548733
0.64744312 -1.1262199 3.6101499
0.74908048 -1.2321709 3.6243379
0.40944061 -0.85466671 3.7352505
0.60485387 -0.96968675 3.706491
0.83583653 -1.2279363 3.6108003
0.81852973 -1.2318854 3.6084464
0.8155008 -1.2351611 3.6094711
0.68500167 -1.0981157 3.7500727
0.76666713 -1.1900719 3.5775218
0.66843766 -0.80878091 3.6410646
0.71217489 -1.2524387 3.7013023
0.78300369 -1.0011373 3.6206851
0.79897517 -0.83340019 3.6190867
0.84984666 -0.84387404 3.6123078
0.79839766 -1.2934549 3.7260911
0.68901569 -1.2228936 3.7978413
0.65026081 -1.176053 3.6665788
0.64843214 -0.78089881 3.6175263
0.63043177 -0.81267452 3.6610355
0.83058745 -0.84232485 3.6230721
0.83233756 -0.84715784 3.6166408
0.63285404 -1.1414553 3.6127501
0.84833187 -1.2218615 3.607204
0.66527206 -1.225299 3.8866978
0.65066749 -1.0780718 3.8475754
0.64254135 -1.1953405 3.8984778
0.72578001 -0.94453681 3.6363504
0.85074162 -0.84212285 3.6114771
0.60525048 -0.97109371 3.7072318
0.61502677 -1.1821038 3.8988693
0.83497244 -0.8881346 3.6192553
1.0775747 -0.72959429 3.5867846
0.67777997 -1.2227509 3.8918042
0.47785428 -0.76600641 3.8941331
0.56247604 -0.97569656 3.8122063
0.82424712 -1.2723511 3.6785254
0.81888264 -1.1538942 3.8364656
0.49829179 -0.94457471 3.923501
0.64332312 -0.91212475 3.957989
0.68971545 -0.85570973 3.9545398
0.53417879 -0.61815536 3.9056206
0.37405983 -0.80942851 3.7462573
0.43992895 -0.68217427 3.8999813
0.69787747 -1.1923341 3.6126151
0.68692505 -1.1556451 3.5554478
0.73034126 -1.0779086 3.8395338
0.45386013 -0.78901905 3.8198047
0.5745225 -0.71523476 3.9716294
0.58122498 -0.75603712 3.9688621
0.49374902 -0.89759862 3.8216255
0.96874404 -0.6543749 2.8424954
0.42001373 -0.81578249 3.8175819
0.68978357 -1.0878363 3.8351171
0.75049305 -0.78406864 3.9332535
0.38145539 -0.81974417 3.8040509
0.55572188 -0.86450309 3.7752867
0.79735255 -1.2970752 3.7883708
0.68361306 -1.2031529 3.8860641
0.86804998 -1.1652718 3.8194656
0.83022839 -0.79432166 3.5796881
0.71680331 -1.2287353 3.810869
0.37253404 -0.69089186 3.7270772
0.37009355 -0.87190169 3.7235823
0.78546119 -1.2508056 3.8026571
0.52837098 -0.91290003 3.5976925
0.68716955 -1.1531835 3.5573215
1.0004333 -0.71390682 2.8927968
0.51426142 -0.75416696 3.5631618
0.51046681 -0.96051776 3.8525722
0.39232007 -0.74799907 3.797123
0.76820475 -1.1020367 3.9250646
0.97688365 -0.8926096 2.9213691
0.15217896 0.011870326 3.3208625
0.48907983 -0.75565249 3.906353
0.54075366 -0.32480797 3.9953203
0.7053144 -1.1620457 3.5622282
1.1932986 -0.092418179 3.8991854
0.8851999 -1.1717228 3.7803957
0.71177644 -1.146026 3.8303506
1.1336278 -0.24449426 3.8907843
1.1141882 -0.63569534 2.812573
0.5413062 -1.0140544 3.87219
0.015625784 -0.43771866 3.535285
0.65971911 -1.0728141 3.8232598
0.68371046 -0.74748242 3.9786162
0.016368086 -0.2765398 3.6095121
0.67360383 -0.74390757 3.349844
0.49380392 -0.78475744 3.9249976
1.1041154 -0.13364004 3.8943782
1.0288379 -0.83163917 2.7651975
0.15753873 -0.04093653 3.3468971
1.9557329 0.26442415 3.2212338
1.9718863 0.2958169 3.1783884
1.8108947 0.088037938 3.2817636
0.80549365 -1.2764398 3.7562423
0.6606372 -1.1770957 3.7882423
1.0654643 -0.63798481 3.0547173
0.50582159 -0.97358185 3.8925414
0.97517043 -0.75659543 2.7406499
0.83400679 -1.0429559 3.85309
0.70830321 -1.2014647 3.6566818
0.81487292 -0.80165195 2.769484
0.8086763 -1.2757428 3.6987174
0.48719946 -0.78469062 3.9171631
0.58674216 -0.8652159 3.9219496
1.0237449 -0.38252908 2.8511262
3.3060319 0.095798783 3.5656068
-0.014169713 -0.8747583 3.3479421
0.05611774 -0.61277562 3.5535421
0.021700438 -0.45736501 3.5900166
0.5424481 -0.84589911 2.6898372
0.88662249 -0.91570282 2.6052151
1.0661448 -0.90900332 2.5633326
0.7296012 -1.2649745 3.7696347
-0.17790429 0.017535474 3.322582
1.0069852 -0.36287597 2.8354506
0.94725657 -0.57159346 3.1297307
0.95061588 -0.51571035 3.0766082
0.95083177 -0.53107649 3.0866508
1.045439 -0.59938836 3.7744634
0.66821718 -1.1663939 3.9036248
0.67632443 -1.0750098 3.8249979
1.0949993 -0.46250126 3.6810939
0.84254462 -0.86605352 3.8901052
0.65463001 -1.0673277 3.8197412
0.66873968 -0.97140509 3.9308424
-0.25390869 -0.98774487 2.7440193
-0.29608253 -0.9502185 2.6835461
-0.27369735 -0.96981621 2.7164972
-0.27837032 -0.95858371 2.6981452
-0.24710388 -1.0030893 2.7685547
0.88502431 -0.92587095 2.5806959
0.091500573 -0.87482584 2.6111732
0.6937139 -0.77806628 3.9573143
0.65702289 -1.1829786 3.7491877
0.16419919 -0.84073865 2.6531911
-0.12743247 -0.76417375 2.6987667
0.83695841 -1.2543062 3.6453168
0.83169246 -1.195405 3.6092381
0.76591784 -1.2740121 3.7864444
2.2406544e-05 -0.33341521 3.8756123
0.92027646 -1.1499226 3.6492717
0.78679407 -1.2390424 3.6489546
0.70337576 -1.1920834 3.8168435
1.0757765 -0.69005865 3.2463889
0.67978579 -0.55667841 3.0796843
0.84006542 -1.2143041 3.8008115
0.24962455 -0.56513023 2.9881368
0.8118282 -1.1964232 3.5993729
-0.055641796 -0.57739967 3.7065859
-0.47188705 -0.81551445 3.4642408
0.38049698 -0.81377572 3.766701
-0.20128192 -0.68175822 3.1637905
-1.0197098 -0.6112355 3.4416089
-0.10851262 -0.66545498 3.1566551
-0.15827298 -0.83403534 3.3737557
0.73927927 -1.2233346 3.7971075
0.58680737 -0.65232104 3.1610465
0.31912014 -0.83367717 2.8521683
0.74392641 -1.2293315 3.7970366
0.92909342 -1.0999291 3.6249039
0.66414994 -0.57489359 3.1928787
-0.73414421 -0.77652168 3.2576108
-0.83997887 -0.90321344 2.9500103
0.8818922 -1.1719756 3.6004181
-0.89392751 -0.90752113 2.9085851
0.78966916 -1.2628552 3.6643717
-1.139141 -0.84520924 2.7956076
0.71752191 -1.1114855 3.8407402
-1.0919832 -0.85463732 2.8304505
0.68102342 -0.63045496 3.2332914
-0.052172717 -0.75801122 3.6049852
1.0540316 -0.7199198 2.9576864
-0.049626086 -0.57084459 3.7151368
-1.0054463 -0.82985711 3.1596723
0.83429796 -1.1759108 3.8116922
1.0885916 -0.540043 2.974503
0.78391665 -1.298072 3.7851937
1.1165318 -0.52864492 3.0255868
-0.13955431 -0.75988019 3.5339324
0.52811319 -0.7568295 2.5766439
0.0016560405 -0.40628573 3.5760674
0.89041889 -0.80873197 3.5778508
0.58784872 -0.78945571 3.9675276
0.88223857 -1.229856 3.6918807
-0.5682407 -0.64539891 3.8426044
-0.10315302 -0.67147934 3.1631114
-0.5838412 -0.62045074 3.6861563
-0.12387713 -0.20730625 3.8675981
-0.37954366 -0.73469114 3.257122
0.85379636 -1.2577122 3.6789761
-0.63380569 -0.80136919 3.3243442
0.16633265 -0.52573663 2.7869067
-0.97987771 -0.93640751 3.0780094
-0.83608842 -0.9040693 2.9659431
0.82226121 -1.2390449 3.7577035
-0.93526798 -0.56181991 3.5115216
0.9108578 -0.91749358 3.6723156
0.71770614 -1.1147854 3.8415294
-0.51240879 -0.57825166 2.9518354
0.507397 -0.97403401 3.8924446
0.7815631 -1.2716267 3.7916746
0.58724022 -1.028739 3.850107
-0.25270027 -0.84815919 3.3922615
0.73559433 -0.80499053 2.7081971
0.54652768 -0.8148219 2.6509166
0.74397886 -1.2603346 3.7298949
0.78843707 -1.2889539 3.7246253
0.70527011 -1.1677339 3.5600038
0.86064082 -1.2334751 3.6415911
0.10399415 -0.52246946 2.7687187
0.87400901 -1.0078877 3.7281811
-0.95502961 -0.7931177 3.0305245
-1.3309997 -0.3706795 3.4448338
-0.05311368 -0.56926721 2.9926994
0.81423461 -1.2568654 3.6671517
-0.85523444 -0.13944672 3.9610341
-0.96512479 -0.091792271 3.5865126
0.89292848 -0.87449527 3.72175
0.83952218 -1.246877 3.6487639
0.30572367 -0.75475955 2.9037976
0.16698913 -0.60325515 2.8388762
0.91213942 -0.9874227 3.7456753
-0.94912678 -0.38384226 3.9605558
0.90357417 -0.85328138 3.6996727
0.32190046 -0.82724655 2.8699429
0.6183784 -0.52241075 3.006598
0.67754203 -0.62957358 3.2369516
0.89654958 -1.1131145 3.771059
0.606619 -0.68495017 3.2473552
-0.044385612 -0.82742101 3.3869693
-0.15125006 -0.85516715 3.4146538
0.89860958 -1.1218467 3.7737274
0.79667658 -1.259635 3.6939034
0.2704643 -0.71347266 2.9321871
0.07326293 -0.48913187 2.8623438
0.83285326 -1.0768125 3.8529193
-0.31822705 -0.43660995 2.8319697
-0.7447359 -0.24715553 3.9657354
-0.86992872 -0.51161754 3.5875411
-0.50293773 -0.68415135 3.7488289
0.88208288 -1.223159 3.6563346
-0.68291336 -0.590976 3.6487846
-0.78847098 -0.6718508 3.1912744
0.88167971 -1.1962038 3.7593102
0.8566553 -1.1764835 3.5828249
-0.73950297 -0.57307792 3.6491206
0.70909327 -0.65709811 3.0248899
0.88254523 -1.1800888 3.59128
0.87014145 -1.1640835 3.8110216
0.48841882 -0.64694643 3.019707
0.86499947 -0.80814868 3.7205813
0.038553193 -0.71728224 3.3043203
0.91515046 -0.87475455 3.7006183
-0.65306002 -0.62854177 3.8531933
-0.83780807 -0.82777685 3.5232182
-0.98545665 -0.35403422 3.963783
1.1194793 -0.56583697 3.0876768
-0.78437513 -0.62371278 3.8355134
-0.15388697 -0.50496972 2.896595
-0.61418641 -0.64585757 3.1112103
1.1236565 -0.72529817 3.4756799
1.0789189 -0.53662622 3.0570562
0.49314988 -0.65955108 3.0262976
0.92622441 -1.1308891 3.7577143
0.91430414 -1.1271007 3.7636578
0.32424322 -0.42943591 4.1638918
0.10797741 -0.63276231 2.8547387
0.88944054 -0.86970317 3.7149999
1.1717463 -0.69473487 2.6539235
1.0650424 -0.6784333 2.8736522
1.1571374 -0.74673945 3.4260402
0.70776284 -0.87617749 2.8141856
0.68844122 -0.68869561 3.6014068
-0.6095829 -0.76105022 3.3288369
0.97644836 -0.60530025 3.1678712
0.96581471 -0.5942589 3.1593475
1.1510527 -0.64255381 3.2691491
0.92168039 -0.41809928 2.8935525
0.75368756 -0.7961008 2.9544284
-0.12618804 -0.83162707 3.5490038
0.86469728 -1.1702816 3.7586026
-0.42355368 -0.84481519 3.9735146
-0.56880933 -0.78862679 3.5222418
0.91272652 -1.1030991 3.6856968
-0.6147992 -0.6526444 3.8743117
0.8933211 -0.8083927 3.6662889
1.1502661 -0.4558571 2.9674118
1.1563749 -0.5441041 2.7663291
1.0680693 -0.5319162 2.9321764
1.1228776 -0.18252601 2.9034016
1.1354614 -0.67534912 2.5787234
1.0853963 -0.13845363 2.3414502
1.1636009 -0.76533192 2.5988631
1.13468 -0.22522222 2.8384542
0.81037462 -0.80782902 2.6351304
0.56219977 -0.63782811 3.0802414
0.52692533 -0.61815822 3.0702858
0.6949417 -0.56450188 2.9825306
0.50259477 -0.57482153 3.0739491
0.47916549 -0.68831146 3.1489985
0.39316177 -0.67871422 3.1969345
0.28397089 -0.67741621 3.2351205
0.28022799 -0.69106883 3.2364695
0.80916482 -0.71652317 2.6995003
0.94356477 -0.45699337 2.930841
0.59664595 -0.78723443 3.5823877
-0.34232172 -0.7818138 3.8478093
-0.34186617 -0.64587349 2.9609022
-0.33118743 -0.66759372 3.1502309
-0.90886462 -0.76568025 3.9452677
-0.74837881 -0.65762782 3.6641197
0.15762579 -0.57722515 3.0091
0.25507721 -0.64740491 3.1303604
0.16198005 -0.60585761 3.038245
-0.023092542 -0.54538494 2.9202738
0.44725275 -0.55006093 3.05739
1.144823 -0.76201993 3.557766
1.1138723 0.27529564 2.7985888
0.86148715 -0.13887386 2.1911945
0.50455552 -0.48735523 2.8967569
0.20864178 -0.78609353 2.671742
-0.46903759 -0.38026163 2.8114514
-0.93406963 -0.83697677 3.0261543
-0.87800932 -0.84875011 3.0358996
-5.3700514 -0.21331729 3.0961356
1.1804882 -0.2455768 3.4269545
1.1866789 -0.25536039 3.4244854
0.53276509 -0.55994314 2.8781452
0.53574234 -0.55903447 2.8798494
1.1508611 -0.69120336 2.6193533
0.13638043 -0.63235152 3.245332
1.0470686 -0.66586125 2.8741438
1.1403217 -0.084735386 3.1736994
1.1602557 -0.034910589 3.1506407
0.33775935 -0.54161119 3.0283372
-0.089106716 -0.63256937 3.1249495
-0.29607326 -0.38951147 2.8330641
-0.93860841 -0.58992827 3.6140482
0.87766415 -0.77814871 2.6735418
1.1115992 0.018042663 3.0847218
0.727732 -0.68766773 3.0383885
0.31109461 -0.88795793 2.8009639
0.29202053 -0.87555587 2.7913504
1.0262382 -0.52913046 3.1054931
0.73552632 -0.82503915 2.8604889
1.0747828 -0.5379988 3.0529976
0.20588814 -0.56438875 3.0408146
1.0253901 -0.45745227 2.8982434
-0.87734288 -0.7579459 3.3003399
1.1932086 -0.76786321 2.6057022
0.5614844 -0.055667378 2.219604
1.1094162 -0.45790735 2.6467702
0.55173159 -0.58061695 3.0926661
0.50006372 0.093712851 1.8621567
0.64333349 -0.021450942 2.0634568
1.1309382 -0.66116768 2.5813506
0.71997637 -0.15980199 2.3767476
1.1524098 -0.4712168 2.7637095
0.6878559 -0.052646212 2.1343064
0.29752317 -0.64552939 3.1352065
0.89353985 -0.76303124 2.6988482
0.69249332 0.045832772 2.0356348
0.67697853 -0.04892277 2.1151299
1.2008662 -0.72580159 2.6237161
-0.36247995 -0.61728144 2.9225791
-1.890111 2.5561812 -1.1090586
1.1345212 -0.13706902 2.5611868
1.1441849 -0.1073884 2.6126752
1.1477349 -0.70426047 2.9708672
1.0900135 -0.80966628 2.6703169
0.5077427 -0.50879669 2.896836
0.24879095 -0.62165761 3.1315157
0.19669773 -0.55696619 3.0457363
0.93711084 -0.4487564 2.8940783
0.89785224 -0.36732924 3.9987779
0.32086951 0.056635767 2.0679362
1.1376945 -0.25061375 2.9948769
0.31903216 0.051071875 1.9488829
1.0600853 -0.59846151 2.5931232
0.91214132 -0.6142357 2.4675751
0.96767676 -0.40808049 2.8908057
1.1796998 -0.82776785 2.5627065
0.88727242 -0.59941548 2.4586589
0.30154437 -0.8619042 3.5465991
0.59300119 -0.74233466 2.8527431
0.83487964 -0.19556239 2.2490113
1.0465562 -0.44273096 2.637763
0.36896679 -0.45653579 2.8633769
0.51149935 -0.11522052 2.2283461
0.34369987 -0.12177777 2.1868625
0.27845493 -0.51703542 2.9352314
0.32909983 0.81750119 2.1732082
1.1088953 -0.65042913 2.902925
0.27641252 -0.59480596 3.0364308
-0.22412734 -0.59440333 3.0417182
1.1455457 -0.12458932 2.5944171
1.033949 -0.62138063 3.1333408
0.85702437 -0.61060786 2.8061388
1.061543 -0.54447806 2.6326094
1.1606141 -0.66809952 2.7366145
1.0689573 -0.44850773 2.6387904
1.1319573 -0.61125201 3.7100868
0.34237292 -0.61534941 3.1352119
1.1278722 -0.53000116 2.7685368
0.35062629 -0.5447678 2.9380467
0.23659874 -0.049484991 2.1476679
0.30107865 -0.74721265 2.9599569
1.129748 -0.10886838 2.5956528
-0.8771292 -0.80383241 3.6862657
1.1366155 -0.21799278 3.0163023
0.9529013 -0.61957759 2.5369403
1.2143737 -0.57805532 3.1403577
1.1554675 -0.64299464 3.6812611
1.1326324 -0.067273565 3.1020494
1.0593659 -0.44915837 2.639745
1.135646 -0.062710978 3.5452275
0.93059969 -0.64293277 2.4564335
0.28935602 -0.56029868 2.8620541
-0.96883279 -1.2289484 3.9440985
1.2596004 -0.21088049 3.4250064
1.3187602 -0.033776872 3.3088524
0.94033378 -0.54355556 2.8975832
1.0295944 -0.72030783 2.7143502
0.83933336 -0.20229907 2.256382
1.0557803 -0.42976189 2.6346848
-0.06727457 -0.72677577 3.1751068
-0.25910556 -0.76578391 3.7389903
1.1681182 -0.69914156 3.3699954
1.1242658 -0.61934137 3.7110288
1.1665112 -0.75995851 2.5979702
1.0375476 0.78836769 2.4899113
0.53075558 -0.52131587 2.8941362
0.39119586 -0.51000822 2.9562616
1.3208629 -0.038416423 3.3067341
0.41662467 -0.22868553 2.3756466
0.34897125 -0.56181532 3.0334804
0.62907255 0.46395588 2.6100192
0.90168041 -0.53208613 2.4875493
-0.26663631 -0.79834014 3.9126713
-0.71673912 -0.81015617 4.1269765
-0.23694487 -0.78736758 3.812968
0.90685493 -0.63337934 2.5991585
0.75043303 -0.67546457 2.4447577
1.0037806 -0.45838022 2.538286
0.40396091 -0.47333455 2.909169
0.3728689 -0.17967463 2.3506017
0.21664068 -0.063817106 2.0893583
1.0092543 -0.46137634 2.5407934
0.17514303 -0.49831393 2.8453848
1.2539802 -0.087027863 3.1829219
1.1186512 -0.69310033 3.5768962
1.1434724 -0.2837016 2.9720926
0.922629 -0.69354969 2.387193
1.1402562 -0.47428781 2.7665606
0.63702035 -0.59714609 3.1638618
1.0791866 0.17474023 3.3145409
1.1524963 -0.48224241 2.764359
0.49714667 -0.069807999 2.238281
-0.70174581 -0.68948919 3.1928666
1.1544141 -0.41740936 3.7966671
0.42673135 -0.19355491 2.435621
0.34958258 -0.16244896 2.425597
0.42742378 0.70090884 2.2111456
0.095027 -0.15730606 2.3657887
0.21750012 -0.19946301 2.3709128
0.94533288 -0.58992875 2.4995649
-0.51813257 0.46740043 1.7897614
1.1780099 -0.7877093 2.5835905
1.0110219 -0.48504582 2.6424825
0.75481749 -1.291647 3.7904692
0.780047 -0.70167774 3.2622156
1.0743446 -0.40567008 3.8754158
0.37465557 -0.26175523 2.3844223
0.27304298 -0.29244712 2.462599
0.80037731 -0.70033616 3.0020862
0.72779429 -0.64172518 3.0268116
0.73795116 -0.64449382 3.0227878
0.90899086 -0.60459489 2.8681355
0.5891853 -0.61851436 3.065345
1.1223254 -0.43390527 3.8136735
0.99703008 -0.84191722 3.5666223
1.0605716 -0.6259529 2.8894124
0.63134992 -0.83938193 3.6419489
0.93251646 -1.1060721 3.5663805
1.252062 -0.090645492 3.1793432
0.26743728 -0.22162552 2.3254931
0.68084037 -0.13762152 3.8328271
-0.25884962 -0.79449171 2.5637541
0.10739585 -0.40059125 2.4653969
0.54861987 -0.68956625 3.3167129
0.98550045 -0.64220911 2.5844646
0.75077909 -0.19348745 2.4491584
0.91148305 -0.58145124 2.5005138
0.49884915 -0.73892879 2.8000708
-0.089835532 -0.73706406 2.5853906
1.266999 -0.078077205 3.4515765
0.88376689 -0.35773769 2.5500145
0.24346539 -0.029620023 2.1509037
-0.093443878 -0.25531673 2.414526
0.86359066 -1.2015783 3.7974167
0.53975195 -0.22356047 2.3056362
0.80576515 -0.58777797 2.4421227
0.30578381 -0.73275155 3.2599041
0.069138318 0.63004822 2.4161961
1.1629801 -0.41012144 2.9654131
1.0999688 -0.64415771 3.3295557
1.1336913 -0.61654204 3.7048557
0.80740827 -0.61103791 3.2454312
1.0820928 -0.67649293 2.8065271
1.1240726 0.021348938 2.6550746
0.78808552 -0.58677781 2.4483228
0.9706856 -0.46064785 2.4941943
0.82618427 -0.58373338 2.4924858
1.1393877 -0.1052966 3.1824417
0.41301119 0.0096128741 2.0962956
0.60820407 0.24554121 2.1173301
0.92079335 -0.3318252 3.9552052
0.71927178 0.024020577 2.0019145
0.72044486 -0.45549551 4.1586666
0.98946512 -0.57306331 3.0035691
0.92319703 -0.30517069 4.0286798
0.48087844 -0.023550482 2.1303563
0.85796487 -0.37218294 2.5083523
1.1554581 -0.59401548 3.6926129
0.82650667 -0.61856681 2.4522185
0.84558475 -1.2640685 3.7260499
0.79217887 -1.1431332 3.5451219
1.0570105 -0.6134569 2.9095097
0.28186613 -0.23323737 2.3832743
-0.0090795392 -0.27693853 2.4348021
0.9287774 -0.68440729 2.5277908
0.70072258 0.0054734354 2.1011522
0.70416701 -0.68389761 3.2976933
0.32263505 -0.25355333 2.3974216
0.86509657 -0.84240651 3.5737617
0.91349196 -1.1863254 3.7132204
0.036077738 -0.18044603 2.3246286
0.57071614 0.044401854 1.8993676
0.10428316 -0.54497081 2.5611286
-0.26955676 -0.40768963 2.3435018
1.1804711 -0.79074705 2.6500843
-0.65435904 -0.49200317 2.2305279
-0.086991988 -0.72598636 2.3848329
1.1551489 -0.87822521 2.633599
-0.032361005 -0.26112211 2.403424
0.8352834 -0.29661936 4.1251578
0.56874573 -0.83927965 3.5141089
0.42751709 -0.86619037 3.6565926
0.46194977 -0.85949838 3.6380832
0.2896648 -0.063539296 2.0555325
1.0787352 -0.66665983 2.9072976
0.35155103 -0.14876376 2.2164664
0.027883304 -0.17792408 2.3253136
0.28579736 0.46094945 2.6748645
1.0135272 -0.54902691 2.3486204
1.1492233 -0.17930417 3.0271707
0.28902707 -0.12453759 2.2139521
0.33509254 0.038681224 2.1263688
0.66803139 -0.11848648 2.2832983
0.76879328 -1.1194762 3.441195
1.1444268 -0.47161457 2.9886792
0.74719578 -0.85231632 3.5863285
0.8868804 -0.50777048 2.4852526
-0.16817333 -0.25458977 2.4323902
-0.54622525 -0.17220387 2.4161329
0.94357222 -0.49306637 2.4950628
0.51400906 0.37135437 2.2646608
0.35372397 -0.13945059 2.202976
0.26755053 -0.11377401 2.1757202
0.84131086 -0.50721955 2.5232835
0.58205575 -0.40385011 2.6569312
0.82329267 -0.47494367 2.5067239
0.41401514 0.24860008 2.1650026
0.5816775 0.12286952 1.9424508
1.1710334 -0.65677446 2.8806753
0.76326483 -1.1063936 3.4206541
-0.61814076 -0.16685814 2.3681741
-0.7299419 -0.14826672 2.3992734
-0.11190983 -0.68805718 2.2925816
1.1774625 -0.72616529 2.6694305
-0.053853404 -0.77722061 2.5247879
-0.15891676 -0.2026301 2.3389869
-0.380999 -0.17304856 2.3304338
0.31926051 0.38242665 2.6290119
0.84899837 -0.98877782 3.6370242
-0.71261734 0.67477769 2.4912021
1.1719726 -0.64579618 2.729804
-0.090154395 -0.13199668 2.2069359
1.1762974 -0.38625196 2.6581244
0.11488382 -0.56830227 2.5587718
1.2179643 -0.71359646 2.5899091
0.047002085 -0.3219595 2.5613503
0.853953 -0.83475924 3.5412631
-0.84806895 -1.0126493 2.3204484
0.59408927 -0.45897153 2.694437
1.1863105 -0.69429725 2.6443086
-0.35100642 -0.73964602 2.4672554
-0.1859372 -0.37462851 2.1421499
0.52010882 0.36176965 2.0916367
-0.29212245 -0.13870765 2.209671
-0.22500136 -0.18282966 2.266768
-0.49015746 0.59444958 2.32094
-0.66236526 0.57995248 2.3616738
-0.9720661 -1.0422515 2.3613315
1.1517066 -0.32799581 3.024529
-0.17855357 -0.51407743 2.3091562
0.96514326 -0.35699353 2.5301883
1.148836 -0.32805839 3.0428865
1.136554 -0.74448323 2.7908425
1.1314465 -0.52224022 2.6902683
1.1680456 -0.65663093 2.8929222
0.70447189 -0.31282386 2.6661959
0.98526138 -0.34641945 2.7247634
1.1445384 -0.47999263 2.8821757
0.90839773 -0.27323559 2.2635715
1.1079745 -0.75950897 2.8490067
0.83242226 -0.36654323 2.5161753
-0.1230664 -0.44899696 2.6369796
-0.04094471 -0.50105667 2.6009824
0.52421707 -0.25006971 2.2335799
1.1591835 -0.18118887 3.071908
1.1830022 -0.83258826 2.6124296
0.30683017 -0.21642503 2.3710871
0.31683502 -0.21325991 2.3614705
1.1001403 0.43093354 2.6292124
1.101979 0.037128743 2.6808894
1.16966 -0.58468497 2.7558656
0.33698869 -0.14207481 2.182153
0.23906167 -0.15084532 2.2857668
0.45850486 0.64589298 2.292978
1.1045969 -0.68559664 2.5948272
1.1592991 -0.3262268 3.006017
0.76523823 0.036410987 2.1682088
0.31233984 0.32043266 2.7473478
1.1275811 -0.66796374 3.4063804
0.82260191 -1.0332999 3.9265094
0.88285977 -0.43631962 2.5305223
0.77437478 -0.42905152 2.5123856
0.78944904 -0.4197371 2.5522938
0.90314513 -0.20924193 2.2806568
1.104845 -0.21181582 2.4797161
0.67795128 -0.20809485 2.4756019
1.0575699 0.57101899 2.5998826
0.8037371 -0.59495121 2.4598057
0.83797318 -0.19385909 2.255446
1.1257995 -0.64288789 2.5749617
1.1430707 -0.51659894 2.6776917
1.1394992 -0.20020263 3.1468418
1.1556287 -0.1930068 3.1114964
1.1796148 -0.51549274 3.0119433
1.1681714 -0.52191424 3.041472
0.61582357 -0.38509431 2.6721559
0.31030804 -0.41208553 2.7075317
1.1843268 -0.53971606 2.9901607
0.8867538 -0.5032447 2.487519
0.67252892 0.19784398 2.270319
0.64589471 0.014338851 2.0843289
0.87477368 -0.6812287 2.3929586
1.1707777 -0.22746888 2.5060453
0.73281586 -0.1682689 2.3455627
0.72487396 -0.19538666 2.328233
0.63154298 -0.030440165 2.1311984
0.5981108 -0.017468726 2.132309
1.066501 -0.10389432 2.3360565
0.93755692 -0.64764637 2.4853499
0.8570388 -0.22689563 2.3087447
0.69128865 -0.18632807 2.354593
0.9295845 -0.47289088 2.5033379
1.1293356 -0.68257231 2.5996375
0.67654324 -0.45383856 2.6498091
1.1605669 -0.65281045 2.6772885
1.8887442 0.20157409 3.110631
0.76086128 -0.63094354 2.4743285
1.1670086 -0.67206979 2.6756432
1.1580589 -0.62104172 2.7559862
0.66109729 -0.46986467 2.6921768
1.1306581 0.18809785 3.1190212
0.63141751 -0.099890523 2.1907887
0.88215858 -0.17620173 2.2319932
0.68152869 -0.19307777 2.3642449
0.69076049 -0.20025261 2.2963307
0.55062026 -0.11164901 2.2210665
0.70363128 -0.54341853 2.5793936
0.94155759 -0.090024494 2.2586131
0.65641057 -0.42350093 2.6020963
0.68875307 -0.16779934 2.367794
0.34510899 -0.2293144 2.366322
0.34332493 -0.2279627 2.3688948
0.80104983 -0.44325727 2.5339649
0.929295 -0.18478823 2.3508985
0.32611102 -0.24372585 2.345531
1.1151694 -0.68813592 2.6286409
0.67318088 -0.090013772 2.2354648
0.87435752 -0.43422806 2.4668567
0.35455924 -0.16380492 2.3483169
0.8605786 -0.22963119 2.3083372
1.9615372 0.24099597 3.2367241
0.77483976 -0.48869285 2.4926805
0.25551406 -0.14490947 2.2171237
0.52069473 -0.10106675 2.2118528
0.70760119 -0.48053274 2.5306265
0.95315641 -0.1733357 2.3844831
0.95359492 -0.17966343 2.3778207
0.33864826 -0.21359181 2.3542242
0.094718359 -0.21918857 2.4102461
-0.27437857 -0.11348956 2.2292421
-0.20891869 -0.17302147 2.2845178
0.49792579 -0.13014902 2.2038379
0.25749421 0.11417434 2.3262146
-0.024900747 -0.18740538 2.3507392
0.79173332 -0.43548766 2.5066528
0.21996181 -0.29747608 2.5276096
0.79290313 -0.36812118 2.5101066
0.79423285 -0.36968654 2.5132294
0.26249284 -0.582165 2.8113923
0.84853101 -0.21850881 2.2867239
1.1471086 0.51118666 2.4942331
1.8334934 0.17803667 3.1382985
3.1691561 -0.08726342 3.7402992
1.9288614 0.22524062 3.1817782
0.70642877 -0.22785319 2.3498373
0.85143459 -0.08189781 2.2447042
0.48324195 -0.10926378 2.1913679
0.84124464 -0.20802304 2.2481537
0.65804172 -0.11021517 2.2838161
0.14479142 -0.47438535 2.4071434
-0.023922784 -0.38487491 2.5488884
0.77389526 -0.51525033 2.4692795
1.119855 -0.138089 2.3070965
0.77499175 -0.46416551 2.5051024
0.18725148 -0.11923123 2.2019038
0.13878965 -0.17693987 2.2904696
0.23584157 -0.067553103 2.0885611
0.52873737 -0.40070066 2.6349361
1.1007854 0.35501331 2.6837175
0.75672495 -0.15645128 2.338412
0.48014626 -0.097591333 2.1556156
1.0251052 -0.16096133 2.3603108
-0.22245394 -0.15922055 2.3130758
-0.12972265 -0.30905586 2.4085252
0.4857237 -0.060710765 2.1634223
0.28611398 -0.094981827 2.1525953
0.65357196 -0.51823437 2.5673718
-0.18301733 -0.16602603 2.303211
0.78533715 -0.53032267 2.4557004
0.74434251 -0.5525949 2.5101464
0.26484984 -0.20182754 2.3114004
0.031780042 -0.55409032 2.6142762
0.4898915 -0.53391105 2.5769167
0.76607877 -0.41875884 2.6448195
0.028151438 -0.6184454 2.3902354
0.62573338 -0.66111267 2.4855106
0.66470093 -0.52370745 2.580066
-0.26122242 -0.090259738 2.1987171
0.63249582 -0.21803829 2.4040749
0.78527039 -0.6861304 2.4479175
-0.19305791 -0.72087115 2.3387358
0.59758139 -0.20033535 2.3989317
0.1944565 -0.12510641 2.1954479
0.21670252 -0.054969937 2.0926499
0.36827862 -0.2587572 2.4511817
0.69372249 -0.44557026 2.5426424
0.81860179 -0.70722926 2.5877964
0.7099756 -0.42813906 2.6340129
0.30973983 -0.15372974 2.1784291
-0.18995658 -0.10402367 2.2369132
-0.18986304 -0.80253029 2.3219173
0.72258443 -0.35605079 2.6327972
0.1649984 -0.49843538 2.5940375
-0.30273575 -0.16372088 2.2780211
-0.74679399 -0.22831841 2.0906165
-0.18619727 -0.64967293 2.3424716
-0.30580604 -0.20027992 2.4189432
0.15132657 -0.32484472 2.4836721
-0.13794535 -0.23124735 2.4315925
-0.36950919 -0.067807458 2.1670499
-0.80204266 -0.19517168 2.0175414
0.31510615 -0.47900388 2.6609724
-0.740596 -0.22908734 2.0830734
0.44422698 -0.41127312 2.7052481
-0.2503145 -0.1504688 2.2651851
-0.65788996 -0.77344972 2.2438776
-0.63770205 -0.72761261 2.2756944
-0.18835007 -0.79968256 2.3303392
-0.61775929 -0.69125658 2.2402632
-1.1167421 -0.70635009 2.1473799
0.025021689 -0.54870766 2.5985975
-0.21245083 -0.85972291 2.4846799
-0.63597339 -0.78748745 2.1940594
0.40665647 -0.12103949 2.2393105
-1.0329016 -0.76007724 2.0424182
-1.0569611 -0.8147729 2.0233185
-0.63647705 -0.69432044 2.2509556
-0.93674177 0.0066563729 1.9782921
-1.1424927 0.0094578359 2.1345987
-0.99193758 -0.72049105 2.0502946
-0.86738074 -0.68442619 2.158906
-0.78267384 -0.74017358 2.4667947
-0.7842437 -0.74408704 2.4682329
-1.0905998 -0.74437118 2.0795999
-0.72881377 -0.78563601 2.3908901
-1.0690751 -0.0049659456 2.0853343
