# .PCD v0.7 - Point Cloud Data file format
VERSION 0.7
FIELDS x y z
SIZE 4 4 4
TYPE F F F
COUNT 1 1 1
WIDTH 386
HEIGHT 1
VIEWPOINT 0 0 0 1 0 0 0
POINTS 386
DATA ascii
-1.2705352 0.4571408 2.8688076
-0.77564704 0.1504644 3.088999
-0.76815611 0.17704427 3.0888977
-1.2226005 0.39344215 2.9951959
-0.96320766 0.32993081 3.0550113
-1.2944294 0.29381219 3.1885071
-1.2034123 0.40058666 2.8507915
-1.1919619 0.14808297 3.4341409
-1.1610489 0.13063775 3.4412575
-1.1569673 0.098747954 3.2644117
-1.5191414 0.15010644 3.5194497
-1.0459293 0.29529279 3.0685751
-1.2660913 0.22148007 3.2519586
-1.0397327 0.48784047 2.6740777
-1.3863161 0.39959455 3.0425897
-1.0372154 0.33148834 3.082912
-0.78011638 0.1813543 3.0818377
-0.72221124 0.18182713 3.0004714
-0.81727529 0.332019 2.7996314
-1.1869547 0.19467933 3.4242096
-1.2444293 0.13809744 3.4932797
-1.2465943 0.080381066 3.5819223
-1.4066712 -0.030133629 3.5573976
-2.093976 0.23800904 3.3968539
-1.334417 0.3604297 3.0526662
-1.3159299 0.35351267 3.0889606
-2.069546 0.27677053 3.4232507
-1.4001044 0.087557025 3.5341537
-1.819914 0.10055339 3.6636662
-2.100136 0.2438338 3.4147029
-1.2107173 0.38641635 2.9891994
-1.1997844 0.15300167 3.435715
-1.3052515 0.37385088 3.0488298
-1.1401086 0.33782771 3.0470705
-1.0486393 0.23080455 3.1781297
-1.2623744 0.46104759 2.8885312
-1.4083375 0.20628472 3.3411369
-0.75382614 0.41852987 2.8858535
-1.1570252 0.34292263 3.0291474
-1.3964357 0.38897392 3.0425956
-1.2167354 0.46496135 2.7599437
-1.3182821 0.37330875 3.0419302
-1.3099824 0.35604995 3.0924201
-0.76341724 0.28701025 3.0661623
-1.229869 0.21156631 3.3019328
-2.1308701 0.18282591 3.3808293
-2.0924416 0.21236119 3.4220605
-1.5178926 0.15325075 3.5155761
-1.9711879 0.225456 3.492867
-1.4443069 0.09759967 3.5581501
-1.7903718 0.050238274 3.712353
-2.1283836 0.24896057 3.4387906
-2.1154308 0.19682582 3.3841872
-1.5057285 0.22850788 3.3772779
-1.082673 1.1701717 2.3308578
-1.0369375 0.36543131 2.9712834
-2.1118035 0.23585208 3.3823671
-1.1668544 0.11266565 3.2205222
-2.1120868 0.17446946 3.3896549
-2.2418468 0.29574126 3.2137253
-1.0225326 1.0628489 2.13536
-2.2170107 0.11958019 3.3045413
-1.571175 0.16990811 3.4896228
-1.4844894 0.096571103 3.5217969
-1.1499819 0.65438694 2.5346034
-1.2143122 0.23212284 3.2174599
-1.2072445 0.53081751 2.7020528
-1.4972565 0.055248812 3.6893716
-1.4151537 0.088906616 3.6074178
-0.88381445 0.63453287 2.4383395
-0.97927189 0.52466178 2.6331031
-1.9602993 0.22470081 3.483865
-1.0335252 0.53390908 2.6319225
-1.2039039 0.29403272 3.0099103
-0.63724303 0.50664002 2.5691917
-1.4322557 0.084996089 3.5448887
-1.2439337 0.40146241 2.9747074
-1.168957 0.34224066 3.0284386
-1.3814943 -0.028425414 3.5960956
-1.1866748 -0.0074806106 3.7171788
-1.0740924 0.1573032 3.2830102
-2.0932996 0.25213003 3.418581
-1.1330212 0.6341334 2.5704908
-2.209722 0.054435596 3.2516577
-1.8182151 0.07246653 3.6597338
-1.9616903 0.23205827 3.5065067
-1.8191879 0.10255939 3.6653626
-1.4298707 0.088526048 3.6028345
-1.4970406 0.13973494 3.4818547
-1.095645 0.21977125 3.241513
-2.0970109 0.028570324 3.3023744
-0.85955477 0.64652723 2.4300618
-1.0293758 0.41052452 2.8105412
-0.63388664 0.62764287 2.305666
-2.0336199 0.26956326 3.468008
-2.0928543 0.23582834 3.4284036
-1.9843916 0.2504037 3.5215366
-1.4965473 0.14338395 3.4850571
-1.5059286 0.22807698 3.3832324
-1.5076944 0.22691803 3.3808002
-2.147985 0.028769763 3.2091033
-1.3724407 0.22144341 3.3341238
-1.3935164 0.23949292 3.3154836
-2.2210672 0.33527562 3.212538
-0.856103 0.64672285 2.425478
-0.86231101 0.64641374 2.425004
-0.76928771 0.72351515 2.3150682
-1.2590137 0.14609784 3.4340737
-2.2003329 0.072294444 3.1764705
-1.0561211 0.38357273 2.8962076
-1.0290705 0.58301657 2.5909047
-0.97976029 0.52645987 2.6375744
-0.89087844 0.30601776 3.0452921
-1.2665253 0.20350249 3.2904575
-2.1600444 0.023455106 3.2321367
-1.1965655 0.14464462 3.4265969
-1.2503788 0.45335382 2.8829849
-1.1914406 0.19996609 3.3501294
-2.1955428 0.057688359 3.2143312
-1.3314914 0.45508125 2.846324
-2.2166088 0.1711999 3.3265812
-1.2723328 0.49048242 2.7263525
-2.2153838 0.055286251 3.1945293
-1.1323472 0.36304021 3.055968
-2.2017817 0.070481628 3.1796372
-2.1785555 0.040559277 3.2107728
-0.95669961 0.21104123 3.1953516
-2.1324701 0.1810419 3.3829885
-1.9957937 0.2160112 3.4742978
-1.9960418 0.21092033 3.4729764
-2.0910308 0.22013739 3.3928914
-2.0037398 0.20366269 3.4542692
-1.3922697 -0.030910801 3.5560961
-1.3874267 -0.028392814 3.5559802
-2.0741067 0.029322462 3.2817907
-1.5011191 0.13759474 3.4809153
-1.9673752 0.2498488 3.5262244
-1.5721574 0.0044476478 3.765954
-1.8859112 0.28191361 3.4496887
-1.5321087 0.019359961 3.7744577
-1.4280525 0.1153524 3.5599544
-2.1439605 0.40891019 3.3248158
-1.8448316 0.062284879 3.7258909
-1.4334396 0.11216225 3.5597234
-2.1077518 0.27679893 3.4331555
-1.3856053 0.070142001 3.6102865
-2.1065776 0.2341139 3.4306288
-1.4161491 0.028871946 3.6325612
-1.376894 0.16463609 3.3864315
-1.1951901 0.09484151 3.5841484
-1.149236 0.097810462 3.3707502
-1.2332219 0.18645678 3.354249
-2.1802511 0.051299535 3.2911463
-1.2860131 0.1368079 3.4427686
-1.1304452 0.01223082 3.6781921
-2.2182181 0.099752665 3.298811
-0.99987441 1.0294284 2.4680333
-1.5092905 0.13673712 3.4808135
-1.5000657 0.15175065 3.4590831
-1.485124 0.15920964 3.4597437
-1.4921281 0.15696791 3.4430563
-1.9814451 0.22000523 3.4794118
-1.4286569 0.10438044 3.5604959
-1.1488824 0.089556761 3.4696095
-1.3798808 0.18306571 3.3635929
-1.423844 0.083694227 3.5459225
-2.2345164 0.27660185 3.0886867
-1.5087789 0.22812177 3.3833313
-1.421913 0.18494636 3.446702
-1.4938366 0.23234999 3.3807163
-1.3974432 0.21289931 3.3625336
-1.2309884 0.068667606 3.4595125
-1.3548702 0.24478269 3.2842267
-2.2129562 0.054416489 3.2835491
-1.3010517 0.2855953 3.1929545
-1.9378852 0.24734977 3.4669614
-2.1174936 0.019438371 3.3237934
-1.1557328 0.046076506 3.192955
-2.2380662 0.11636113 3.2109332
-0.87790352 0.40863293 2.8607659
-2.0498483 0.27398679 3.4801202
-2.1922746 0.037776541 3.2561753
-0.88532007 0.64494169 2.4570651
-2.0993354 0.021712013 3.23913
-1.073262 1.130603 2.1646256
-1.0847982 1.1278446 2.1741791
-2.1144943 0.017047744 3.3294783
-1.0805792 1.1531153 2.2090063
-2.2083001 0.34395897 3.2083476
-0.80567873 0.72510839 2.3133631
-2.2285783 0.15810844 3.3270292
-1.0599875 1.1672115 2.195678
-1.1703045 0.085029237 3.3868217
-1.3798759 0.098046303 3.4500887
-1.3573802 0.16164069 3.3369949
-2.2219572 0.16268753 3.3286264
-1.3348416 0.39611325 3.0821946
-2.0743959 0.045072179 3.3037207
-1.8506098 1.0892915 3.2816997
-1.3942535 0.35034224 3.0687389
-2.1589341 0.02679793 3.233176
-1.1510401 0.071290836 3.2424309
-1.2594465 0.24226265 3.2347891
-1.3023312 0.1649425 3.3656542
-1.3494842 0.36738709 3.0349
-1.322751 0.38305554 3.0174563
-1.1119092 0.19091682 3.3564034
-1.1691936 0.34390762 3.0257702
-1.121376 0.13599864 3.4419889
-1.2438927 0.21318859 3.2551858
-1.2009033 0.23636577 3.2151184
-1.1785063 0.24690397 3.2086844
-1.0733746 0.22854419 3.185324
-1.0629177 0.37626559 2.9257538
-1.0872526 0.36297646 2.8954141
-1.0324211 0.20657879 3.2882838
-1.4501404 1.066052 2.4398324
-1.120477 0.62158149 2.493521
-1.8453895 1.0955867 3.2829483
-1.2895948 0.377327 3.0616546
-1.1080389 0.25100744 3.2808831
-1.2380797 0.40952274 2.865509
-1.0491097 0.23442665 3.2220807
-1.0971259 0.23668705 3.2427921
-2.1268969 0.25368077 3.4388366
-2.0422332 0.2360844 3.4746027
-2.2032087 0.063646212 3.18295
-0.98954362 0.38340846 2.9096143
-2.2376213 0.15914072 3.2271464
-1.0051162 0.29840228 3.0667148
-2.0399663 0.22232516 3.4998033
-1.1105741 0.61663395 2.5113018
-2.1321738 0.0072671687 3.3316071
-1.0328867 1.0497876 2.1412582
-1.0478858 1.2058243 2.2174351
-0.60001171 1.2686598 2.2346013
-2.2112789 0.036476966 3.2705081
-1.1279504 0.11448178 3.2598996
-1.1958565 0.12866795 3.4364979
-1.1564828 0.1097843 3.2596014
-2.0696175 0.12118387 3.7164083
-2.2137368 0.10266514 3.2980611
-1.198446 0.25198334 3.2044194
-2.1220815 0.25562304 3.4379904
-1.1921177 0.40887347 2.8456693
-1.2046318 0.4024027 2.8434141
-1.0737344 0.2423851 3.2410417
-1.2244864 0.39206794 2.8476288
-2.0782089 0.11140016 3.7109013
-1.0682876 0.21183778 3.2095003
-1.0776553 0.36966112 2.8870397
-1.1151778 0.44303107 2.7633038
-1.4878728 1.0575182 2.4599464
-1.1476215 0.99834353 2.0676463
-2.1228676 0.020860169 3.2823575
-0.89302081 0.56860042 2.4877865
-2.2074614 0.056750614 3.2512479
-2.1862433 0.04386279 3.2940724
-1.1415383 0.94081193 2.5907729
-2.2097332 0.17979576 3.3255649
-1.3848357 -0.040953916 3.5942488
-1.226122 0.36652216 2.9568524
-1.3826566 -0.034004703 3.5460293
-1.3651603 -0.036474392 3.6033344
-1.5734168 0.16560936 3.5002785
-1.2998903 0.036238059 3.5524461
-1.4211128 0.19012989 3.3615482
-1.2474095 0.051112365 3.4308434
-1.3882245 0.083387233 3.536016
-1.4049503 0.081977747 3.5284398
-1.1901532 -0.0044672228 3.7166145
-1.2164595 -0.011778975 3.7122593
-1.1687202 -0.010555569 3.7171869
-1.3278147 0.17946416 3.3366628
-1.6812435 0.80690771 3.7517262
-1.2817762 0.19241083 3.306813
-1.2224791 0.1478975 3.4331326
-1.6359599 0.74669039 3.7742586
-1.265051 0.18103392 3.3305364
-1.1538922 0.17719547 3.3574288
-1.0979317 0.37369251 3.0130615
-1.0768356 0.2394249 3.2424662
-1.2648034 0.4440105 2.7796586
-1.4191881 0.55704302 2.7417872
-1.0652354 0.2293207 3.273088
-1.1117803 0.1765932 3.2946751
-1.1331319 0.37032625 2.8856611
-1.2694738 0.51555699 2.7618341
-1.0737544 0.37911439 2.9231353
-1.1786575 0.39354858 2.9403903
-0.97072601 0.22882637 3.1623507
-1.1451371 0.6735999 2.574775
-1.0854656 0.27637053 3.0831478
-0.75430489 0.32356188 2.9719181
-2.023417 0.17486678 3.3951981
-1.0636607 0.48404253 2.6894255
-1.1259242 0.62210149 2.4893775
-2.1476748 -0.0010049106 3.3294368
-0.92675328 0.65127897 2.4658074
-1.0335879 1.1623024 2.1375792
-0.76186109 0.75643188 2.2530324
-1.1101434 0.76683211 2.3638413
-0.76955467 1.1697922 2.2237468
-0.89520121 0.4666023 2.7598443
-0.87267256 0.21254118 3.1769354
-1.1912189 0.57225627 2.5468431
-2.1805782 0.088934608 3.3170781
-0.89308465 0.30035704 3.0497258
-2.217907 0.13625246 3.3254149
-0.74271464 0.29962942 3.0513666
-0.79519331 0.29905096 3.0290477
-1.0000156 0.42494699 2.7939317
-2.1653638 0.047301259 3.206136
-2.1068695 0.017163754 3.274286
-2.206912 0.2931321 3.3111477
-2.1808515 0.10521534 3.3599148
-0.58298844 0.52991861 2.5520093
-0.79651076 1.2144811 2.2698259
-0.81560856 1.1981106 2.2820361
-1.1844262 0.74620861 2.6621089
-0.42460439 0.93342489 2.0012484
-1.6423397 0.0066109286 3.8107982
-1.9478817 0.23855832 3.4888046
-1.9549607 0.23777838 3.4907262
-2.1304531 0.15503357 3.4484296
-1.922671 0.26719365 3.4590528
-1.4881983 0.23491983 3.383841
-1.68183 0.81402785 3.7497985
-1.3351903 0.23718131 3.277041
-1.8945662 1.0022209 3.349859
-1.2775793 0.42751586 2.8402114
-1.2758144 0.43193191 2.8322508
-1.0031255 0.21800534 3.2435718
-1.0680771 0.39149651 3.046756
-1.0444536 0.19038649 3.2995858
-0.88032371 0.54746097 2.6099534
-1.0048059 0.39490515 2.8370135
-0.88988221 0.62976098 2.4382043
-0.64631039 0.43534347 2.793309
-1.1312199 1.1299255 2.2607698
-1.1986107 -0.032642461 3.7587311
-1.3775557 0.099184759 3.5117183
-1.2200497 0.14302593 3.4271469
-1.2590091 0.45993784 2.8868272
-1.5891809 0.15625228 3.5095315
-2.0284534 0.24665388 3.4945505
-2.1071558 0.024675405 3.2887833
-0.95909852 0.20552647 3.1982422
-1.4942009 1.0287777 2.4687428
-2.1351192 0.17835061 3.3815966
-0.94058615 0.44855085 2.7919097
-1.5155257 0.9991411 2.483145
-2.1919925 0.070302047 3.176811
-1.4393517 1.0006908 2.5225084
-0.90246493 0.25277883 3.1186106
-2.1034942 0.038449053 3.3799398
-2.191077 0.030040443 3.2257793
-1.1484054 0.65403658 2.5156343
-2.1866565 0.044733655 3.2956634
-0.75035179 0.3387323 2.9157112
-0.88069344 0.91870385 2.1777339
-1.4102664 1.0567412 2.2895617
-0.94643617 0.42712349 2.7852247
-0.66369635 0.57531345 2.5239031
-0.61437452 0.58413506 2.5217538
-1.1413889 0.18169677 3.3532298
-1.0812012 0.36607757 2.9280815
-1.5706024 0.17197168 3.486861
-1.4809241 0.071184076 3.6566341
-1.2580402 0.063371085 3.4023743
-1.489778 0.15721403 3.4405034
-2.1334503 0.012768967 3.3614402
-1.333661 0.25823838 3.2285562
-1.1036738 0.5524025 2.6175358
-1.1248145 0.13729106 3.2978024
-2.1433728 0.1999331 3.370908
-1.4375641 0.19462952 3.3767705
-0.92056006 1.257774 2.0464752
-0.94886607 0.6401701 2.4867923
-1.8592184 0.084005319 3.7119837
-1.4541363 1.1541899 2.4193983
-1.8330549 0.049844831 3.6858392
-1.2317061 0.24492978 3.2047474
-1.7917986 0.047744609 3.7115505
-2.0570614 0.13479501 3.6754162
-1.2129955 0.55785245 2.7195168
