# .PCD v0.7 - Point Cloud Data file format
VERSION 0.7
FIELDS x y z
SIZE 4 4 4
TYPE F F F
COUNT 1 1 1
WIDTH 99
HEIGHT 1
VIEWPOINT 0 0 0 1 0 0 0
POINTS 99
DATA ascii
3.2093945 0.32862061 2.3350143
2.5496953 0.37407741 2.7955148
2.2731965 0.50818431 2.6045616
2.6012642 0.40555391 2.7722111
2.3213472 0.56442356 2.5188766
2.1024647 0.43459839 2.693639
2.1669097 0.38910589 2.4464207
2.3248069 0.56342363 2.5205281
3.0401113 0.38326263 2.9134007
2.2626615 0.45400479 2.5855327
3.0618961 0.25480038 2.5042572
3.2636511 0.47811329 2.6334844
3.060328 0.25820577 2.500376
3.1203582 0.30843297 2.491647
3.1486411 0.51637709 2.7598941
3.0035563 0.45382774 2.8679907
3.2361245 0.47608137 2.5768359
3.2013724 0.48132113 2.5431583
3.1926532 0.46762827 2.5519848
3.2139492 0.52409953 2.8213542
3.2852228 0.53660423 2.7643313
3.2361355 0.49743938 2.753582
3.1617484 0.32889092 2.358351
3.2081642 0.49191955 2.5341115
3.0716364 0.3789579 2.2838597
3.1535192 0.493018 2.9139359
2.1723938 0.26598495 2.5270023
3.2549715 0.49005622 2.646414
2.1425781 0.41859382 2.5659215
3.2973168 0.49631268 2.6252191
2.2623172 0.37567732 2.573786
2.9280908 0.50080019 2.7806933
3.1076658 0.43031639 2.8806956
3.1617076 0.52887917 2.9179926
3.1845143 0.51902634 2.8116224
3.1634037 0.52500314 2.7650509
3.2391942 0.50257474 2.7110062
2.3560929 0.53847158 2.5234392
3.2139676 0.52577531 2.8206789
3.0906787 0.2889539 2.4562688
3.0958381 0.37788182 2.9119945
2.9234993 0.49930987 2.7800364
3.1608739 0.51126093 2.8657961
3.0294065 0.44253635 2.8660905
2.9263017 0.49957824 2.7793171
3.2763832 0.52617145 2.7661407
3.2325411 0.49711889 2.7475715
3.2253141 0.35783026 2.405853
3.2683597 0.51637942 2.7599895
3.1608016 0.51299375 2.8642979
3.2786272 0.54012293 2.7616935
2.9151003 0.41960227 2.8692579
2.9416666 1.2079417 2.8002689
3.044883 0.30949199 2.4480603
3.1494846 0.49933195 2.878314
2.9315078 0.50055647 2.7814057
3.2349453 0.53600132 2.6785669
2.2894206 0.50360489 2.6104331
3.1864679 0.50204647 2.3501174
2.6086674 0.40191159 2.7757747
2.1778727 0.31988892 2.5025909
2.1303346 0.38873276 2.5517259
2.1944971 0.39831677 2.5747364
1.3214772 2.9332879 -0.68762022
1.1345001 2.4542739 0.30622044
0.069889233 2.3205926 0.43393278
2.5309658 0.5558061 2.5008121
1.2359176 2.5027821 0.13227253
-3.6599417 1.7565449 1.3395067
2.1662917 0.44997078 2.643755
-0.022243245 2.1976788 0.71095884
2.9587359 0.46307871 2.8528376
0.65842968 2.3909407 0.14224827
2.3350124 0.45853937 2.5282919
2.9214988 0.42566058 2.8709657
0.10513565 2.3490105 0.24622418
-2.0599177 2.2164276 0.75094479
0.11236762 2.4287741 0.23558797
-0.047379833 2.0792885 0.77857178
3.0993853 0.36725944 2.5353236
-2.2301629 2.2380407 0.7584967
0.47413731 2.3883479 0.14720264
0.15388235 2.3411527 0.16477406
2.0984592 2.9303772 0.50012267
-3.6129792 1.8515594 1.2859136
0.06827125 2.3150928 0.44626099
-0.066123828 2.1278481 0.51882863
2.2374268 2.640651 0.70492357
1.1033771 2.4890738 0.28076527
-0.063777104 1.9344871 0.46986318
0.83282989 2.0692677 0.077718966
0.86903089 2.9530768 -1.0207227
1.2417308 2.4650381 -0.29700369
0.68120128 2.3837628 0.15624733
1.2192978 2.4283285 0.2659305
-0.11379084 1.8394079 0.87697864
0.15714099 2.1652217 0.43251047
-7.3558326 6.1684947 -2.4658897
-3.6118677 1.8527408 1.2860154
