# .PCD v0.7 - Point Cloud Data file format
VERSION 0.7
FIELDS x y z
SIZE 4 4 4
TYPE F F F
COUNT 1 1 1
WIDTH 212
HEIGHT 1
VIEWPOINT 0 0 0 1 0 0 0
POINTS 212
DATA ascii
2.8282802 0.32055914 2.3320897
2.9835374 0.38632092 2.1507933
1.9266264 0.47818246 2.531333
2.0601594 0.52931124 2.4798708
2.8441367 0.45053363 2.7371736
2.3031008 0.58106178 2.3568347
2.1825504 0.28050166 2.6548741
2.1813204 0.27902713 2.6563487
2.1600566 0.30784884 2.6412199
2.0722756 0.52542555 2.4760153
2.0997303 0.58563066 2.3899512
2.0327797 0.48481596 2.4712512
2.8363161 0.46115848 2.7419217
1.8915433 0.45752841 2.5296841
1.8086623 0.18182851 2.3676836
2.939662 0.5351916 2.7796192
1.9447631 0.40652665 2.3330364
1.9492158 0.4017621 2.3318577
2.1233222 0.50443441 2.5069284
2.7470262 0.54311991 2.6530664
2.2606847 0.35622856 2.6876504
2.0947082 0.50747335 2.5187697
2.1112595 0.50425154 2.5172732
2.8494201 0.31313598 2.3273716
2.8617494 0.49796844 2.3588982
2.9062896 0.36583039 2.3135252
2.9427047 0.58119112 2.5748506
2.8083324 0.51467669 2.6938751
2.9474547 0.55187958 2.6345673
3.0194819 0.54057717 2.3871188
3.0231211 0.44440749 2.1546271
2.9105415 0.33850831 2.2563522
2.8486061 0.34097838 2.2850025
2.8412554 0.46010908 2.3583274
2.9626751 0.58196527 2.5963299
2.9566038 0.36607233 2.2275217
3.0110905 0.59657806 2.6296012
2.9809449 0.6280843 2.6379588
3.0115609 0.59335327 2.6315339
2.9376066 0.38812232 2.1612124
2.9885805 0.55229706 2.3465033
3.0496483 0.57672024 2.5665598
3.0303724 0.56612486 2.5629714
3.0460544 0.55581802 2.4484236
3.0310428 0.47656223 2.2618861
1.8930168 0.45013669 2.5065718
2.9133158 0.41481519 2.1251287
2.9655821 0.56284541 2.5089903
2.9834349 0.40613821 2.2126391
2.9879951 0.55409753 2.3460851
3.0063288 0.52261961 2.2887592
2.8404291 0.42907766 2.1081347
2.9990869 0.41736218 2.2171004
2.959029 0.56176174 2.7286503
2.9733524 0.40317851 2.1299829
2.9610901 0.47124818 2.3471024
2.9671509 0.46611232 2.3479271
3.0422852 0.5570547 2.4549432
1.931612 0.43295091 2.452105
3.0827668 0.56473148 2.4307809
2.0535007 0.39574894 2.4526608
2.7422528 0.56511611 2.5980756
3.0807376 0.58583599 2.5391138
2.1167488 0.51730818 2.3697164
3.0128465 0.56384218 2.5281489
3.0322523 0.47735471 2.2627273
2.8583066 0.57466596 2.5955667
2.82886 0.32210997 2.3418617
2.7330623 0.46992701 2.6999452
2.1285894 0.4997164 2.3759871
2.9019012 0.44635868 2.7345841
2.7940552 0.43219039 2.7105875
2.993227 0.53719211 2.3610818
2.8402314 0.35629535 2.2756526
2.0052552 0.4855195 2.4209907
2.8065443 0.46761489 2.7334938
3.0703006 0.57646871 2.4290595
2.9211953 0.54782659 2.785248
3.049139 0.56814927 2.4938049
2.13589 0.56140929 2.3926666
2.8817053 0.39881942 2.1284437
2.8498635 0.35772172 2.1986883
2.7032468 0.57640243 2.5857692
2.7574425 0.5316093 2.6610026
2.7703712 0.48969251 2.3600953
2.9899206 0.51457798 2.176023
2.8312478 0.51160526 2.6926215
2.9986722 0.61334574 2.6320212
2.961201 0.55001515 2.6949301
2.9002652 0.37035164 2.3106499
2.8345006 0.50453585 2.6904483
2.9997685 0.41651887 2.216531
2.9684627 0.36924684 2.238359
2.9694028 0.37400311 2.2814453
2.9244175 0.59081751 2.5781767
2.9487903 0.39744917 2.1724977
3.1078928 0.50229752 2.267771
3.0699725 0.59695697 2.5721543
2.9753714 0.55936497 2.5080473
3.0324557 0.47622785 2.2622275
3.0264008 0.56549716 2.5572283
3.0027893 0.41790932 2.2197592
3.0620246 0.58666468 2.5667696
2.9196541 0.45011577 2.7317681
3.0712514 0.61088628 2.5672765
2.7065074 1.2633452 2.6149356
2.828088 0.36240011 2.2751822
3.0019705 0.55023652 2.3827865
2.9819422 0.58118796 2.7473319
2.9660516 0.60428995 2.7518625
3.0298533 0.47797626 2.2612743
3.0232761 0.54412383 2.3875425
2.987771 0.72895122 2.6788945
2.8831336 0.5703854 2.6007187
2.7073488 1.2658719 2.6162424
2.7151644 1.2454199 2.6090157
2.9018157 0.90503198 2.5494823
2.9720402 0.55175179 2.7073615
2.7090452 1.2534459 2.6131895
2.9744043 0.53279138 2.364162
3.0023491 0.56998271 2.576267
3.0057583 0.56868136 2.5290937
2.9684296 0.57843751 2.5777557
2.9427629 0.56957233 2.164957
2.8741384 0.56199199 2.5894289
2.7358997 0.4687326 2.6983037
2.9287498 0.8281312 2.5246093
1.8521322 0.14001946 2.4334974
3.071136 0.60236418 2.5697529
2.1230984 0.50039202 2.5123689
1.7409648 0.26681468 2.5043921
2.6726711 1.2410549 2.6087728
2.9535196 0.55882937 2.1638319
3.072525 0.57373649 2.4279988
3.0161433 0.5153501 2.2872798
2.9678733 0.60585654 2.3027575
1.9198644 0.40223148 2.4394
1.9849052 0.41528291 2.4577715
2.8132596 0.32532203 2.3425121
0.21036795 2.2796521 0.096234158
0.67888945 2.3659537 0.22485317
-0.17234927 2.2312181 0.29791674
-0.25085157 2.3197787 0.047376886
2.3786628 0.58538455 2.3705859
2.3078318 0.58616924 2.3577957
-3.9969177 1.474792 1.5973833
-0.31617126 2.2292311 0.13931647
-0.69070572 1.7117246 0.66691941
-0.34964776 2.0628552 0.3836669
2.1189797 0.48073608 2.4006021
0.71709704 2.7274446 -0.37567189
-0.61645186 1.612482 0.72650981
0.34784052 2.3103774 0.1336351
2.7280819 0.48286945 2.7030299
0.16323107 2.4438453 0.1168978
0.61872345 2.4025693 -0.017414648
-2.4635923 1.9931102 0.89152694
0.65160614 2.349653 0.21551427
-0.44939211 1.8713977 0.77711672
-2.6337738 2.007098 0.91023868
-1.3892543 1.9422807 0.75323427
0.61733705 2.3735709 0.19095461
0.013175677 2.2661545 0.11270452
0.89129692 2.671756 -0.50050151
0.69057643 2.9162459 -0.68365937
-0.30258733 2.2048116 0.15307981
0.83924049 2.2795148 -0.26856625
0.74767613 3.1560845 -0.82705235
0.62053925 2.3805606 0.012810697
-3.9582026 1.5705466 1.5387517
0.8032366 2.5587723 -0.18410531
-0.54256785 1.826986 0.3414475
-0.36774722 2.1815925 0.44023544
0.5260573 2.3964219 0.19188033
0.67441928 3.0460999 -0.35815954
-0.48797029 1.9901888 0.52567399
0.6445173 2.3986781 0.20086771
-0.44467682 1.9729242 0.54175001
-2.3796735 1.8521619 1.0141143
2.988862 0.51945776 2.1755466
-0.47979918 1.7960236 0.48067746
0.65227276 2.5965648 -0.17483871
0.80616355 2.382875 -0.61791009
-1.276396 1.8876956 0.79900318
0.70011789 2.4602108 0.0020401294
0.42000052 2.5202136 0.36738333
0.7823326 2.6117337 -0.40448013
0.30153123 2.8203027 -1.0909067
0.74469411 2.8810234 -0.60179996
0.23842642 2.6743662 0.25363314
0.8929444 2.4552979 -0.10834687
0.51795131 2.7182491 0.20105131
-0.28474355 2.2525353 0.24750294
0.22036426 2.2712505 0.10767999
1.3861738 2.3417172 0.86155927
-0.72349471 2.4650722 0.13981523
1.9578691 1.7321488 1.2661784
-0.12836014 2.9451699 0.042145744
0.24416152 2.3085136 0.17398807
0.69180167 2.331593 0.04990961
-0.48498061 2.1010134 0.59187078
-0.46392691 1.7986571 0.37277013
-0.31293994 2.5812471 0.26760256
-0.50133365 1.8203014 0.35798198
-0.44926602 1.7605501 0.87548459
2.1423566 0.46801788 2.4224184
-0.45460519 1.7786891 0.49556142
-3.8850808 1.4605016 1.6055679
-2.5155168 1.9848757 0.79591453
-3.576303 1.5366237 1.4481182
-4.673192 1.6981968 1.5008781
1.21997 2.0914278 1.1109103
