# .PCD v0.7 - Point Cloud Data file format
VERSION 0.7
FIELDS x y z
SIZE 4 4 4
TYPE F F F
COUNT 1 1 1
WIDTH 147
HEIGHT 1
VIEWPOINT 0 0 0 1 0 0 0
POINTS 147
DATA ascii
3.383348 0.34343255 2.5014341
2.2924137 0.50326264 2.7351575
2.4351604 0.54569834 2.7048888
3.1673188 0.39967954 3.0649631
2.747237 0.43185794 2.8944044
2.7427216 0.61393172 2.5784371
2.3178337 0.43261594 2.576741
2.3378754 0.37039724 2.5886602
2.7462475 0.6359399 2.5989671
2.5004139 0.56353879 2.6076648
2.4909322 0.60163617 2.6237485
3.1596766 0.41071343 3.0690181
2.2392817 0.49017966 2.7140195
2.2339215 0.49532324 2.7178092
2.703644 0.57502329 2.6228464
2.7460024 0.61031818 2.5793843
2.4942338 0.60051942 2.6256323
2.2992537 0.46780998 2.6547112
3.0898712 0.501948 2.9721208
2.4622293 0.52009797 2.7472625
2.4245851 0.4920761 2.6843624
3.3330545 0.50759685 2.8658702
2.4891543 0.50367963 2.6298411
3.2207713 0.27514973 2.6545017
3.2415581 0.4574388 2.6950917
3.2826099 0.32378548 2.6508815
3.2968414 0.52749228 2.9234588
3.1426239 0.46767521 3.0198214
3.3963289 0.48705769 2.7466688
3.3612101 0.51865107 2.6827083
3.4259994 0.39820102 2.5131342
3.3444707 0.32289758 2.5727749
3.3608351 0.53114176 2.9879351
3.3577125 0.53592932 2.9877589
3.3576758 0.53261924 2.9896026
3.2889757 0.50259185 3.042268
3.2865109 0.54591113 3.0884941
3.1702006 0.39383546 3.061595
3.3840208 0.50619817 2.9232402
3.0982244 0.48093876 2.9982848
3.4378197 0.53056765 2.8685839
3.319654 0.37795922 2.467483
3.3915203 0.37111777 2.5704899
3.2898369 0.5020842 3.0770936
3.3774261 0.36165616 2.4801311
3.4222853 0.42699885 2.6207004
2.3169465 0.34302872 2.6150687
3.3686321 0.51680559 2.6765873
3.500911 0.4384751 2.6394682
3.0944901 0.52595043 2.9179621
3.4349458 0.53258055 2.9324405
2.5153275 0.51425886 2.6103628
3.2220643 0.32047668 2.6038477
3.3369038 0.52565598 2.9148245
3.3872979 0.37823021 2.5673029
3.3120062 0.51827049 2.9522243
3.3114154 0.53563756 2.9297976
3.2275281 0.5478248 2.928766
2.3861766 0.50805873 2.6371918
3.7010126 1.7048383 2.3542552
3.3722205 0.52005118 2.6891425
3.3903148 0.5117774 2.8810778
3.3669105 0.52511585 2.673033
2.5394061 0.46580541 2.819958
2.5245402 0.57466882 2.6304448
3.3577886 0.53430223 2.9889548
3.3024588 0.51787174 3.0298314
3.4179597 0.39575294 2.6197557
3.301173 0.52071434 3.0298839
3.4199667 0.42759368 2.6192427
3.0859118 0.50449824 2.9687588
3.395153 0.46998477 2.5326161
3.1652112 0.46291512 3.0216322
3.3462944 0.55350679 2.9891279
3.2059927 0.28223702 2.6724765
3.2773876 0.32883835 2.6473889
3.1682303 0.45569074 3.0196393
3.3682294 0.50727934 2.7014112
3.3847523 0.49672854 2.6861024
3.3669944 0.52525181 2.6729298
3.2943366 0.51718372 2.9242482
3.0733058 0.51666975 2.9264462
3.07866 0.53820348 2.7982376
3.4274426 0.5603075 2.9449055
3.4240046 0.53363568 2.9391022
3.3370006 0.50534934 2.8609838
3.3687954 0.48072863 2.9211299
3.4222503 0.42584381 2.6222181
3.380867 0.50605333 2.9169807
3.3022072 0.29746366 2.5973771
3.2208714 0.35684642 2.521914
3.3012569 0.52246708 3.0284097
3.2426209 0.39370385 3.0700738
3.4078598 0.49032518 2.548265
3.4708126 0.50271261 2.6089611
3.3910575 0.51139933 2.5525753
3.22755 0.38901466 3.0674696
3.4763563 0.50736624 2.8142805
3.3544841 0.47807547 2.7206044
2.4906669 0.51108706 2.7445731
2.7542598 0.42796603 2.898443
2.3559141 0.43845314 2.6678412
1.8687408 3.2508142 -0.56157809
1.5200419 2.5513873 0.35839418
1.2205657 2.01318 0.79041469
0.65965027 2.4793913 0.30699369
0.21550931 2.1294596 0.85712755
0.44573545 2.4459131 0.40654385
1.130993 2.5491283 0.27063218
0.46054932 2.322365 0.36024266
1.0556694 2.5034304 0.15939829
1.2021265 2.5239596 0.21990088
3.4068341 0.4929949 2.7678146
3.0598388 0.44177634 3.0164239
0.49533558 2.475677 0.22232024
3.2309363 0.44693127 3.0359426
1.4974824 2.6000137 0.11185633
0.29288045 2.1268241 0.72774583
-0.62676942 2.2695053 0.57667679
0.33737978 2.2319543 0.5016166
1.4645962 2.564707 0.31663066
0.87150395 2.5059249 0.1509245
1.8539793 2.8627131 -0.31713048
1.6989747 3.1273274 -0.51603669
0.54966515 2.4674785 0.144518
1.7420402 2.4684951 -0.11117215
0.75946611 2.5665967 0.1045505
1.4934447 2.576997 0.14109978
2.4935405 0.49762097 2.6327307
0.35453206 2.4991832 0.36707282
2.4797664 2.9979186 0.62863201
3.2818804 0.4755455 3.0936806
1.7142936 2.7469032 -0.020984484
0.44307473 2.4403071 0.41864112
1.5035993 2.4856522 0.29494518
0.29874596 2.2559981 0.4785417
2.5955629 2.7018883 0.83876067
1.4918082 2.5873582 0.33125392
0.33800057 2.2350054 0.49973637
-1.6479958 2.246664 0.69365954
3.3945203 0.47494322 2.5322011
1.5791781 2.6506791 0.14479458
1.6163521 3.0327888 -0.29442102
1.5400777 2.5256152 0.38638967
1.6694375 2.9009244 -0.25827077
0.30017409 2.3641539 0.54906356
-0.81763816 2.5874414 0.62778038
