# .PCD v0.7 - Point Cloud Data file format
VERSION 0.7
FIELDS x y z
SIZE 4 4 4
TYPE F F F
COUNT 1 1 1
WIDTH 236
HEIGHT 1
VIEWPOINT 0 0 0 1 0 0 0
POINTS 236
DATA ascii
-1.3559904 0.40927625 2.8734591
-1.3811219 0.25060344 3.1954005
-1.2796108 0.10843119 3.4435039
-1.3473493 0.41868472 2.8912582
-1.3210299 0.17297153 3.2598224
-1.5267562 0.040542316 3.5592792
-1.1244522 0.43710738 2.679172
-1.2114041 0.58576143 2.5671945
-1.4125537 0.45783556 2.8541744
-0.80822974 0.13579881 3.0111558
-0.90250432 0.28308117 2.8078048
-1.3323019 0.099313632 3.5025835
-1.334813 0.042888641 3.5920448
-1.4948232 -0.067940384 3.5685241
-1.3810055 0.084482297 3.4955518
-1.3623573 0.08938016 3.5435746
-2.181457 0.19797382 3.4015334
-1.3839397 0.2504077 3.1873677
-1.4022348 0.30885863 3.0949192
-1.4881412 0.049399752 3.5436018
-1.9084301 0.064349599 3.6713364
-1.2262615 0.29253563 3.053921
-1.1353097 0.1874066 3.1868596
-1.2280819 0.31328908 3.0656555
-0.83935815 0.37082109 2.8930013
-1.9457164 0.044803452 3.7204986
-1.2065523 0.29834977 3.0350733
-1.4825579 0.34365892 3.0477436
-1.1457536 0.18942367 3.1929212
-1.6058432 0.11483902 3.523632
-2.0590329 0.1867912 3.4981782
-1.8790827 0.014740056 3.7208579
-2.2028742 0.15661527 3.3893845
-1.8923591 0.018426891 3.7419956
-1.6094295 0.0099543314 3.7045791
-1.5931427 0.18808131 3.384304
-1.8914884 0.04542369 3.687901
-1.5421624 0.03735109 3.5697834
-2.1995561 0.13433991 3.3951881
-1.2930292 1.0043342 2.2975597
-1.1050953 1.0042433 2.1322446
-1.1118584 0.99805695 2.1428137
-0.95081317 0.86186898 2.1065159
-1.1639159 1.0914905 2.2146339
-1.6590239 0.13112827 3.4972405
-1.5724771 0.058249347 3.5307989
-1.234138 0.60163498 2.5368855
-1.2920575 0.48051634 2.7058926
-1.5199972 0.051886708 3.60989
-0.96761632 0.58033842 2.4419191
-1.0638294 0.47331971 2.6378951
-1.1180758 0.48255894 2.6363771
-1.5203332 0.047000628 3.5542519
-1.4697912 -0.065676056 3.6072874
-2.1808589 0.21240816 3.4230559
-1.2173167 0.58190066 2.5731263
-2.0251813 0.16900155 3.5051842
-1.9067233 0.036208373 3.6678176
-1.90771 0.066379838 3.6730061
-1.8966206 0.051113483 3.6628227
-1.5906521 0.098566003 3.4895337
-1.5181645 0.05136973 3.612149
-2.1841879 -0.012811843 3.3100886
-0.9433229 0.59220707 2.4335592
-1.1146253 0.36177576 2.8167796
-0.71719456 0.57147992 2.3102977
-2.1213608 0.230545 3.4724486
-2.1820612 0.21372971 3.4429789
-2.1818633 0.19731744 3.4454639
-2.1099737 0.20645362 3.5027771
-2.1804543 0.19625047 3.4331152
-2.178102 -0.016686426 3.2808104
-2.0723381 0.21215428 3.5264335
-1.6682236 0.12307674 3.5141571
-2.1838007 0.14839318 3.4046969
-1.5951222 0.18654305 3.3878417
-1.4596958 0.18036744 3.3417573
-0.85260707 0.66750336 2.3178015
-0.63321412 0.52653056 2.3474388
-0.6270203 0.52564639 2.3473308
-2.2870269 0.029101718 3.1831775
-1.1416981 0.33607352 2.9027269
-1.2186091 0.29281202 3.047312
-1.0643342 0.47518253 2.642338
-0.90092391 0.73701608 2.2082224
-0.97703403 0.26065725 3.0535388
-2.3090258 0.022380963 3.2547786
-1.284187 0.10488468 3.435993
-1.3556597 0.41271487 2.8775158
-1.291365 0.51451546 2.7130318
-1.2347879 0.31251061 3.0646822
-1.300577 0.34788045 2.9724889
-1.0953084 0.35375649 2.8856337
-0.81906176 0.12385681 3.0401337
-1.9105879 0.018493295 3.6959887
-1.5652713 0.12388761 3.4424241
-2.3038416 0.13017572 3.3317769
-1.5928227 0.015816819 3.7023542
-1.6051749 0.11586412 3.5229096
-1.4804171 -0.068739004 3.5672882
-1.4755732 -0.066223852 3.5671539
-1.5889436 0.098679148 3.489265
-1.5161792 0.077571362 3.5688918
-1.5215662 0.074379198 3.5686867
-1.4739318 0.033087462 3.6200328
-1.4381824 0.061242498 3.4857302
-1.3205618 0.14565051 3.3629098
-1.3736963 0.097299725 3.4519408
-1.4265946 0.19106945 3.2870803
-1.2190419 -0.023880411 3.6897275
-1.4556413 0.31149811 3.0723562
-0.90088063 1.4283421 2.3970637
-1.5971147 0.097821653 3.4891448
-2.0692408 0.18114786 3.4847651
-1.5167881 0.066608518 3.5695899
-1.4704958 0.1770092 3.3313239
-1.5095985 0.14551522 3.4546661
-1.5812629 0.19197066 3.3877311
-2.3000557 0.012780132 3.2904561
-1.3877629 0.24245308 3.1999419
-1.4584174 0.0763565 3.4894691
-1.2425021 0.0029326444 3.2039592
-2.3119326 0.12090881 3.3331189
-1.1633959 1.0955783 2.2043564
-0.7766934 0.40372691 2.800312
-2.2950485 0.30120125 3.2110834
-0.82021683 0.30444688 2.8575544
-2.3325212 0.088395551 3.1341715
-2.3158159 0.11709434 3.3323696
-1.1427511 1.1094761 2.1909027
-1.9987965 0.2137492 3.4762709
-1.3835694 0.081388392 3.4992628
-1.5001962 0.24024667 3.2508159
-1.4024186 0.1268778 3.3647861
-1.4675952 0.058665637 3.45947
-1.4556224 0.30240053 3.0579038
-1.2501587 0.064772919 3.2695949
-1.435583 0.32195413 3.0405376
-1.3407396 0.40738869 2.8920679
-1.1992569 0.1501189 3.3654542
-1.2978727 0.34372991 3.0229065
-1.28771 0.19353151 3.2231925
-1.2652864 0.20397122 3.2166905
-1.1600724 0.18525532 3.1939931
-1.1318613 0.20108797 3.2529783
-1.1486071 0.32919669 2.9323502
-1.1728314 0.31547368 2.9021153
-1.1195103 0.16477713 3.2974136
-1.2044871 0.568232 2.4963942
-1.2103003 0.28803128 3.0240912
-1.0913532 0.25337419 3.0746408
-2.0635471 0.18684953 3.5038476
-2.2194653 -0.033682525 3.3394952
-1.1445808 1.1383489 2.2054162
-1.1154746 0.99127078 2.1382926
-2.1611919 0.20298855 3.4980664
-2.3195205 0.048804536 3.2629421
-2.2983339 -0.0053468551 3.2776825
-1.2434869 0.067599952 3.2696719
-2.3130858 0.20973751 3.2369792
-1.3795357 0.32407564 3.0085356
-1.3239088 0.29215047 3.0451937
-1.2852089 0.2089919 3.2122777
-1.2774982 0.3606641 2.8513172
-1.2900053 0.35416365 2.8491092
-1.1606377 0.19990252 3.2495027
-1.309878 0.34389472 2.8533988
-2.2188666 0.16757341 3.3819737
-1.1550801 0.16890019 3.2184281
-1.1547242 0.3400757 2.9275961
-1.3399873 1.0896029 2.1442504
-2.2099714 -0.02080657 3.2900887
-0.97702372 0.51513135 2.4922814
-0.6741457 0.39945227 2.8145299
-2.273385 0.0023751475 3.3012311
-0.92267275 1.3090931 2.3711412
-1.4116235 1.020108 2.4940956
-1.470767 -0.071980275 3.5573034
-1.3880086 -0.0016671617 3.5630119
-1.3350688 0.011433203 3.4414039
-1.4929669 0.043739129 3.537951
-1.1839489 0.32789591 3.0195539
-1.163745 0.19696385 3.2509582
-1.1989001 0.13490199 3.303941
-1.1594334 0.33200923 2.9296501
-1.1717687 0.23159778 3.0910897
-1.0718518 0.46744412 2.6541557
-0.84494001 0.699516 2.2553232
-0.95934415 0.16909535 3.1865904
-1.2754402 0.51969796 2.5501597
-1.1244048 0.26398435 3.0599933
-0.97925818 0.25506178 3.0580459
-0.80274463 0.34033024 2.8256569
-0.82889557 0.25433028 3.060261
-0.88129038 0.25343803 3.0377562
-2.1939437 -0.024622548 3.2821319
-0.79550999 0.52512234 2.5855243
-2.2940581 0.25186959 3.3146141
-0.87954289 1.1577669 2.2653456
-0.89869022 1.1415787 2.27772
-1.2690381 0.69530159 2.6629167
-2.0357084 0.19982895 3.4940138
-2.0427947 0.19907826 3.4959199
-2.0103796 0.22802533 3.4639447
-1.5756358 0.19458447 3.3908393
-1.3490266 0.13912885 3.332355
-1.3629344 0.37924123 2.845269
-1.2391654 0.31343511 3.0237262
-0.97368467 0.57556623 2.4418302
-0.6438117 0.58159697 2.4723299
-0.7984665 0.64354032 2.304347
-0.8363207 0.68324167 2.3010607
-1.5472678 0.050051205 3.6269245
-2.1162992 0.20802182 3.4993393
-2.277966 -0.012434794 3.2331281
-1.2324904 0.60100937 2.5179296
-1.1018952 0.15356943 3.1199365
-0.84338832 0.29056287 2.9206333
-2.0587795 0.21099941 3.5324244
-0.96345049 0.86070138 2.1772354
-2.2955277 -0.0089417631 3.216996
-1.0315875 0.37799069 2.7915366
-0.69850308 0.53110534 2.5270653
-1.3455659 0.41373748 2.8685102
-1.0793607 0.78225052 2.2409956
-1.1669017 0.31904685 2.9347565
-1.6584406 0.13315147 3.494451
-1.5694234 0.034818858 3.6660025
-1.5774466 0.1177085 3.4486158
-1.1881654 0.50085479 2.6214607
-2.2307653 0.15953492 3.375957
-1.5249851 0.15418658 3.3845437
-1.0027437 1.1978406 2.0409269
-1.3184717 0.20194998 3.2125828
-2.3036802 0.30115882 3.2127032
-1.2978674 0.50780267 2.7229412
