# .PCD v0.7 - Point Cloud Data file format
VERSION 0.7
FIELDS x y z
SIZE 4 4 4
TYPE F F F
COUNT 1 1 1
WIDTH 207
HEIGHT 1
VIEWPOINT 0 0 0 1 0 0 0
POINTS 207
DATA ascii
3.5290892 0.25291011 2.6413653
3.5414343 0.43013704 2.6724665
3.2836139 0.31579641 3.1919873
2.845643 0.51739466 2.7208662
3.3372495 0.20265983 2.8101683
2.8740337 0.36652672 2.9977028
2.8956199 0.5469712 2.6831522
2.4650698 0.38166639 2.6565273
3.358073 0.30753684 3.2002506
2.8987887 0.56878138 2.7039499
2.650337 0.50559717 2.6983581
2.6413789 0.54398239 2.7140529
3.2936921 0.44666082 3.0443215
3.1205306 0.48729035 3.0181804
3.2761688 0.3270981 3.195653
2.8526616 0.5094406 2.7250943
3.1559827 0.54073286 2.9089034
2.898705 0.54323524 2.6842673
2.4868941 0.38003138 2.6187031
2.6445243 0.54273838 2.7161157
2.8152061 0.33938849 3.0127079
2.6326032 0.45735154 2.8291667
3.2186775 0.40853333 3.1041319
3.3553846 0.19059503 2.7848392
2.5676668 0.43682873 2.7703021
2.8603008 0.54423892 2.744756
2.6356177 0.44614592 2.7195847
3.3564799 0.18682456 2.7886302
3.3557599 0.18923354 2.7858057
3.5301142 0.39125836 2.9056802
3.2037482 0.4488233 2.9880795
3.355648 0.19037233 2.7846503
3.5315812 0.42309952 3.0689359
3.185668 0.41044417 3.0080078
3.4256327 0.43902904 3.0586455
3.5419049 0.4315353 3.0764029
3.5575426 0.33421171 2.7915092
3.4984424 0.41585889 3.0266459
3.5032105 0.4283843 2.8218951
3.5730128 0.30601713 2.6557171
3.5037582 0.4032532 2.849838
3.5179138 0.35148531 2.8148603
3.4409106 0.43693054 3.0836048
3.4931178 0.39005262 2.8571835
3.4000487 0.22241779 2.7629843
3.4854827 0.23366593 2.7102914
3.5446293 0.40594235 3.0063846
3.3946681 0.20493621 2.8249216
3.4824538 0.25959575 2.642745
3.4135804 0.28651941 2.8233941
3.3897357 0.23529917 2.6605108
3.4100342 0.27832514 2.8281934
3.5118318 0.41449222 3.0632739
3.5785081 0.41936508 3.0141163
3.5481174 0.3989439 2.9842899
3.4173911 0.36627102 2.9860089
3.562825 0.33401212 2.7639468
3.5405326 0.27872285 2.7147973
3.5610638 0.3831422 2.973649
3.4344201 0.4565492 3.0834656
3.2214901 0.39974594 3.1218715
3.6387055 0.34624463 2.7858565
3.5695195 0.43696925 3.0118694
3.3674603 0.23250023 2.7331033
3.3900373 0.21365504 2.8192708
3.5422752 0.27342996 2.7178521
2.8771417 0.56293386 2.6742947
3.1550937 0.52239317 2.9062738
3.3466277 0.2345579 2.7083449
2.9047353 0.52543253 2.7658229
3.5108948 0.42627788 2.8161967
3.2240038 0.44506443 3.0416739
3.2126639 0.48074284 2.8751912
3.2029934 0.4777129 2.9253554
2.8369994 0.53951287 2.7226319
2.654789 0.47477618 2.6941102
2.5071416 0.46735924 2.7362781
3.3399763 0.30519336 3.2004569
3.4733868 0.42856827 3.065372
3.2381594 0.30399448 3.1552985
3.3458955 0.27933076 2.8402467
3.4915149 0.2444659 2.7589982
3.3615026 0.23574455 2.73436
3.4649928 0.44542855 3.0501113
3.4401157 0.44660819 3.0658381
3.3569336 0.46192461 3.0601063
2.5326226 0.45435235 2.721103
3.9049938 1.6018527 2.5186965
2.6735375 0.40594959 2.9120698
2.6735263 0.51576132 2.7225204
2.4956434 0.44272062 2.8137691
3.3837862 0.24091637 2.6502485
3.4227512 0.25780278 2.7995434
3.3872912 0.35729954 3.1885948
3.5588393 0.30360734 2.7616987
3.3773963 0.25048691 2.6268184
3.4733307 0.24607964 2.671104
3.5423725 0.27652788 2.7183313
3.5482612 0.30451828 2.7683458
3.6260147 0.36931869 2.7649295
3.340174 0.18565327 2.7780375
3.199158 0.43646753 3.0492468
3.4852567 0.26734313 2.6596866
3.5543754 0.30025989 2.7311962
3.4236524 0.43183053 3.1651127
3.5595424 0.30207568 2.7631519
3.500773 0.40155154 2.8483429
3.2117603 0.42382213 3.0918031
3.5437987 0.37885514 2.6737478
3.286325 0.37917364 3.1488974
3.2024913 0.43609598 3.0474296
3.2237329 0.46390152 2.8761451
3.1964273 0.49596348 2.845294
3.4722054 0.46301448 3.1271324
3.3401451 0.19796249 2.8017905
3.019588 0.7158671 2.6832986
3.4165397 0.40256554 3.1783152
3.6365399 0.35644296 2.8533463
3.3885491 0.23483276 2.6404362
3.4145339 0.24192493 2.7810068
3.6382356 0.35736418 2.8553135
3.5957417 0.43394533 2.947715
3.4834669 0.23627056 2.7082002
3.6375849 0.35679528 2.8536339
3.4918253 0.24348608 2.7583699
3.4081662 0.45056266 3.0588357
3.4791718 0.23579049 2.6791718
3.5503178 0.47076836 2.799845
3.5496962 0.46922061 2.7991579
3.5694954 0.28405753 2.6625574
3.3753717 0.36777014 2.9638369
3.4145501 0.36991811 2.9862094
3.555933 0.46688715 3.0876155
3.6033564 0.42679444 2.9557166
3.5518415 0.44037685 3.0815041
3.4684279 0.41555536 2.9984479
3.4958146 0.38961479 3.0601866
3.5640988 0.33351061 2.7645388
3.1711626 0.4960798 2.9737878
3.2220716 0.4684388 2.8803501
3.4157786 0.36688694 2.9876959
3.4315741 0.22308531 2.7256179
3.040606 0.66503227 2.6939683
3.5440824 0.43120605 3.0741699
3.4409728 0.20976847 2.7323396
3.5552108 0.40660921 2.6917906
3.3663223 0.27233616 2.6526587
3.3582294 0.30699793 3.201333
3.5595536 0.4512977 2.8085251
3.5401173 0.42034426 2.6936328
3.3431671 0.30288175 3.1978567
3.5366912 0.49514782 2.8617489
3.3539052 0.42729798 3.0586529
1.8739903 2.5342586 0.406261
1.0158314 2.4945962 0.30581436
0.79550683 2.4688897 0.39291683
1.9196131 3.5609734 -1.0598978
1.4907451 2.5467584 0.29656523
0.90695918 2.5133839 0.12241144
0.58812249 2.4053419 0.59793556
0.66057265 2.3488836 0.65316844
0.80832607 2.3449893 0.34696323
1.4202201 2.5041831 0.18102948
2.6469831 0.43732432 2.7229693
2.0660493 2.8702407 -0.21802025
0.83484805 2.1292198 0.61238891
2.0684674 2.9060154 -0.15653679
0.7321794 2.3854959 0.51686829
1.5636626 2.5190744 0.24983495
3.5429375 0.40083033 2.9093335
2.121747 3.4283075 -0.63883853
3.2974665 0.27320954 2.6953526
0.45752293 2.5178664 0.77020478
3.1807063 0.3620007 3.137624
0.85657167 2.4972351 0.21194161
1.9844191 2.8036757 -0.15037283
1.8673058 2.5843041 0.15906654
0.87015259 2.5764797 0.20397045
1.8475428 2.5214183 0.39099777
-1.5277975 2.5328734 0.41656327
0.6740433 2.2588952 0.4807069
0.76986283 2.4525807 0.32562062
1.8215419 2.5497446 0.36148164
0.67551416 2.1838312 0.78969002
2.2249045 2.9497569 -0.22694665
2.0481613 2.5628898 -0.18945639
1.9298038 3.8719394 -0.80301446
2.1542542 3.5535545 -0.672934
2.1236291 3.1052718 -0.45395845
0.91489398 2.4872043 0.13730918
2.1190886 2.4442902 -0.050334271
2.2329726 3.3410919 -0.57133585
1.7348168 2.5827324 0.34581071
1.5014637 2.9202464 0.0268014
0.63770419 2.2844234 0.4555887
1.8487017 2.5713265 0.37772864
0.67488295 2.2619257 0.47887897
-1.3171178 2.3473194 0.55990207
-1.3914992 2.4725695 0.48904318
1.9516616 2.7776542 0.021073636
2.0418315 2.631813 0.15943949
2.1564076 3.0618474 -0.36501899
1.4404799 2.4953618 0.19769594
1.8914303 2.5076864 0.43522909
0.52576244 1.9953595 0.79859382
1.8654758 2.522229 0.27296302
0.57749593 2.3668056 0.9535287
