# .PCD v0.7 - Point Cloud Data file format
VERSION 0.7
FIELDS x y z
SIZE 4 4 4
TYPE F F F
COUNT 1 1 1
WIDTH 405
HEIGHT 1
VIEWPOINT 0 0 0 1 0 0 0
POINTS 405
DATA ascii
-1.276886 0.11976507 3.1447434
-1.0704579 0.1453207 3.0196333
-0.88021529 0.2236561 2.8380737
-1.2783247 0.014697901 3.3184047
-1.0846984 0.078316227 3.2641599
-1.0873401 0.024426846 3.3551672
-1.4143319 0.095797487 3.2692423
-1.1327183 0.061662275 3.2565315
-1.9404643 0.1414853 3.182718
-1.9341831 0.14546819 3.1421926
-1.118389 0.36044249 2.5974748
-1.1524045 0.27362055 2.8491151
-1.239683 0.024393922 3.3032994
-1.6629758 0.028877998 3.42156
-1.1046414 -0.39950499 3.4283836
-1.3637239 0.071754746 3.2750738
-1.1542939 -0.13415051 3.6634705
-1.0219657 0.17646047 2.9883049
-1.1126177 -0.43897691 3.4466205
-1.1413314 0.29255971 2.8084109
-0.8837359 0.16388635 2.9502497
-1.1272721 -0.49900246 3.4414635
-1.1142373 -0.46766046 3.4429014
-1.0970703 0.3741667 2.6455655
-1.7006831 0.0095083406 3.4704704
-0.95519823 0.26797715 2.7937849
-1.1730295 -0.36091471 3.1871495
-1.0977321 -0.4824262 3.3844976
-1.0833105 -0.39968815 3.4289906
-1.2327604 0.30433705 2.799237
-1.0021747 0.33633181 2.5705113
-1.1541504 0.29128495 2.8012173
-1.127835 0.329743 2.6104789
-1.0674626 0.14393134 3.070199
-1.0832546 -0.40072694 3.4306259
-1.3454965 -0.13844056 3.6502564
-1.3590035 0.085244365 3.2789128
-1.8136388 0.14117837 3.2417097
-1.6331196 -0.018277859 3.4731321
-1.95395 0.10308247 3.1308112
-0.87092596 0.28980574 2.7380543
-0.99914449 0.0437865 2.9948099
-1.9500299 0.081106655 3.1373367
-0.87884635 0.93657309 1.8927028
-0.8569802 0.95070457 1.8729618
-0.69755644 0.81291234 1.8547206
-1.420391 0.091955006 3.2664599
-1.362941 0.079149619 3.2824032
-1.3107738 0.033918004 3.2882898
-1.0870525 -0.39986935 3.4267969
-1.3398145 -0.004443218 3.4573028
-1.2938726 0.079299755 3.2620356
-1.2567031 0.028389331 3.3760338
-0.71253729 0.5407083 2.1978207
-1.2002653 -0.32176116 3.5493922
-0.80951118 0.43618181 2.3947647
-0.86398524 0.44354689 2.3918207
-0.62171161 0.53339392 2.1988533
-0.56683666 0.020832827 2.7552335
-1.0789983 0.31899554 2.7347078
-1.0461771 -0.056648135 3.4959388
-1.2189739 -0.088127553 3.3707168
-1.0282099 -0.055477504 3.4956067
-0.90956408 0.094153859 3.0575833
-0.96501273 0.53764576 2.3235781
-2.0400381 -0.047956731 3.002336
-1.9188534 0.17633548 3.1884575
-0.4590916 0.53649396 2.0718794
-1.9362285 0.16237669 3.1831346
-0.77536756 1.0060583 2.0557475
-0.22485484 0.85255331 1.7415831
-1.828398 0.16688001 3.2689173
-1.9847234 0.10012558 3.1166956
-1.8326365 0.17591941 3.2790008
-1.6576717 0.011012399 3.412756
-1.2110819 0.15040208 3.0983441
-0.68490428 0.55325526 2.1851349
-0.69108427 0.55271822 2.1845195
-0.59772778 0.62809175 2.0736718
-0.68349272 0.5801639 2.1128862
-2.046468 0.083664596 3.0668039
-0.40693042 0.65809619 1.957346
-0.37873387 0.48565188 2.1161749
-0.40102908 0.50897026 2.0405834
-1.0979612 0.083268896 3.2043133
-0.81017578 0.43815324 2.3991389
-0.64585727 0.69277245 1.9610927
-0.72503078 0.2385581 2.8182337
-1.0299686 0.1357094 3.1198056
-0.54430401 0.26955634 2.735435
-0.41012418 0.50612324 2.0453193
-1.6641698 -0.016299248 3.4474981
-1.3169539 0.093318261 3.1983564
-1.2670753 0.050495099 3.3304796
-1.1648158 0.36407775 2.6019425
-2.0526841 0.071626544 3.0718687
-0.87732422 0.15357783 2.9809861
-0.97621572 0.55232882 2.2668819
-1.9704316 0.086699605 3.12988
-1.4271694 -0.12616748 3.6967156
-1.8374254 0.13012433 3.2229619
-1.8374734 0.12497589 3.2218595
-1.9700085 -0.090503447 3.0767038
-1.8654201 0.11643248 3.2752464
-1.8444343 0.1166663 3.2033017
-1.2286001 -0.092691131 3.3306077
-1.2238398 -0.090019628 3.3305025
-1.1205925 -0.4386149 3.4705763
-1.834214 0.45329237 3.2325191
-1.9235215 0.16468975 3.1704378
-1.7291214 0.19855134 3.1982458
-1.3623673 -0.16595258 3.7449281
-1.3169703 -0.32875958 3.5902057
-1.8406042 0.16288464 3.2815132
-1.4925343 -0.072384089 3.7124367
-1.2691901 0.052321609 3.3271475
-1.2744631 0.048945788 3.3269219
-1.2266489 0.010766013 3.3804622
-1.2150769 0.095780507 3.1529655
-1.036508 0.040683754 3.3580439
-1.1888655 0.036243536 3.2461817
-0.98503888 0.036006909 3.1459389
-1.0713849 0.12099762 3.1234658
-2.0115371 -0.048401851 3.0426502
-1.1764385 0.1235991 3.0917182
-1.1248664 0.073462293 3.212728
-1.1771421 0.1606376 3.0440934
-1.706971 -0.010363045 3.5837417
-1.3489535 0.067547925 3.2451344
-1.823354 0.13481317 3.2282538
-1.2694529 0.041369025 3.3281546
-1.2215303 0.14638533 3.0877862
-1.2635884 0.020247841 3.3146279
-2.0018446 0.013107546 3.1023126
-1.3339585 0.15922983 3.1413577
-1.22537 0.16518442 3.0730624
-1.1380943 0.21077678 2.9563286
-1.9426086 -0.079525925 3.0943007
-1.7803881 0.16304077 3.2157109
-0.98730326 0.22311528 2.803617
-0.57695651 0.11137094 2.8100376
-1.9283566 -0.077472307 2.9940252
-0.91063434 1.0179173 1.8979466
-0.56541735 0.28195202 2.6244309
-1.8662918 0.21242514 3.2429945
-1.1352608 0.05859169 3.2602766
-2.0578065 0.063035622 3.0741508
-1.1609685 0.13638003 3.0672369
-1.9609431 0.1718417 3.1859808
-1.1582828 0.29981458 2.7762353
-1.0148197 0.17692544 2.9768059
-0.90856689 0.16111016 2.9569142
-0.84517038 0.18010809 2.9281025
-0.95003462 0.52222133 2.2475712
-1.0670198 0.36695245 2.5249772
-1.0986689 0.26836157 2.7880659
-1.9686946 0.16181985 3.1826093
-1.4823813 -0.096385993 3.6641133
-1.2305992 -0.30500445 3.2730029
-2.04684 0.0020629554 3.0464637
-1.0724831 0.25813323 2.8015816
-1.0347935 0.1811457 2.9718239
-0.92888302 0.15346469 2.9881039
-0.91085011 0.17731556 3.0119445
-1.0558984 0.30479932 2.608691
-1.9226469 0.033087116 3.4617884
-0.90358359 0.14563918 2.9819202
-1.9104041 0.04119245 3.4641995
-1.9057336 0.049201343 3.1388979
-1.9859802 0.32374078 3.0558984
-0.80637479 0.33242565 2.5822182
-0.85222113 0.87107384 1.8049891
-1.927861 -0.069231629 3.0417314
-2.0173609 -0.055902403 3.0457485
-2.046066 0.080396235 3.0706487
-1.3202153 -0.12053373 3.6553528
-1.3324556 -0.27124083 3.6751773
-1.3733214 -0.093307003 3.5396492
-1.4085797 -0.10246184 3.5327556
-1.3288153 -0.10819676 3.5933855
-1.3075318 -0.099855527 3.5960808
-1.4070861 -0.12483028 3.5385492
-1.3820541 -0.11235201 3.551481
-1.8894643 0.069572389 3.1300144
-1.1794134 -0.10722015 3.655648
-1.2039818 -0.11928318 3.6508844
-1.275045 -0.32300377 3.6248493
-1.2171553 -0.12503082 3.6477449
-1.8218911 0.12273981 3.23752
-1.2103118 -0.37009296 3.2329073
-1.4628065 -0.14836587 3.613627
-1.1307213 0.21915804 2.945436
-1.2990799 -0.15695398 3.6318738
-1.2186285 -0.095891468 3.32093
-1.2251252 -0.089501902 3.3313115
-1.2880877 0.045381404 3.2645984
-1.2374407 0.040619921 3.2667725
-1.1068007 0.16902521 4.0665512
-1.1665055 0.14914925 4.0486412
-1.0835125 -0.062636711 3.3628409
-1.2025852 -0.095305875 3.3787086
-1.4144741 0.095066212 3.2617016
-1.1922463 -0.037596818 3.3280387
-1.1383792 -0.022704212 3.3263304
-1.8959014 0.56231648 3.1802578
-1.2594235 0.11868436 3.1258879
-1.0832057 -0.011325459 3.2055449
-1.0576988 -0.060979001 3.4901359
-1.9171178 0.5280534 3.1838684
-1.0101717 -0.057946004 3.4961996
-1.1311997 0.11043236 3.1177266
-1.1188332 0.12327525 3.0746129
-1.061492 0.086249419 3.2042096
-1.7804893 0.93234247 3.051512
-1.9609262 -0.092055187 3.0869315
-1.1225336 0.093679801 3.1245663
-1.5030351 0.68497467 3.5082717
-1.1023825 0.11349626 3.0992241
-0.99190897 0.11454469 3.1290352
-0.91389054 0.17431715 3.0134194
-1.0783126 0.17348012 2.9749184
-1.0960622 0.35238957 2.5375187
-1.9169227 0.13491371 3.1692171
-0.97512728 0.28603375 2.8217533
-1.905496 -0.021725968 2.9273472
-1.1025733 0.42290631 2.5164609
-1.0466441 0.46647698 2.4708867
-0.90687871 0.30016354 2.6884451
-0.91948998 0.20406435 2.8524673
-0.58720177 0.25749502 2.7476051
-0.81620342 0.5186311 2.29686
-0.95538425 0.52237976 2.243274
-1.95648 -0.055265412 3.0464418
-1.9577179 0.17690417 3.1702685
-1.9147606 0.052776344 3.4683487
-2.054759 0.18661025 3.0351238
-1.9592296 0.17297655 3.1833262
-1.3488464 -0.15802906 3.7513049
-0.58973068 0.65853935 2.010457
-0.94097948 0.66202283 2.1119437
-1.812001 0.15285994 3.2078681
-2.0528188 0.036637422 3.0722046
-0.65838677 0.24528785 2.5789621
-0.57695073 0.23740456 2.8282924
-0.62877363 0.23410855 2.804713
-1.9366677 -0.080753699 3.0291471
-0.54194486 0.49544269 2.3466196
-1.4886842 -0.071538776 3.7127852
-2.0465357 0.1930382 3.0513484
-0.44734102 0.52157861 2.2588744
-0.41159731 0.45121872 2.3234708
-1.6915137 0.012307716 3.4493735
-1.6821313 -0.013378038 3.6096828
-0.25183275 0.83573574 1.7596776
-1.7079964 0.00014330361 3.5952442
-1.5136728 -0.075968981 3.6181436
-1.5229622 -0.082890697 3.619247
-1.2267907 -0.3732228 3.2361438
-1.3264471 -0.17241348 3.807266
-1.458138 -0.12428678 3.5467122
-1.3500082 -0.27167699 3.6723495
-1.1225624 -0.50038588 3.441144
-1.2726291 0.13003719 3.1367133
-1.0394959 -0.075149134 3.5233827
-1.4011422 -0.050775371 3.5225754
-1.1986945 -0.38690695 3.243314
-1.1169775 -0.46605715 3.440587
-1.1011217 -0.4934828 3.3789885
-1.4624305 -0.096680328 3.7344279
-1.2198383 -0.075867638 3.3457367
-1.3485775 -0.34584373 3.6132009
-1.9086039 0.039737601 3.1434798
-1.0451075 -0.088299282 3.5824711
-1.8576585 0.11943094 3.4794917
-1.7254683 0.19830683 3.2201259
-1.1383981 -0.018948218 3.3368535
-1.9113575 0.041009892 3.1410871
-1.1601892 0.13432573 3.0680804
-1.5503979 0.74962282 3.4797394
-1.9372208 0.14750497 3.146862
-1.1728619 0.16490869 3.0415766
-1.1123793 0.075439863 3.2006736
-1.0979738 -0.40933025 3.4532063
-1.3918915 -0.15278114 3.7683208
-1.2181532 -0.3314603 3.5720255
-1.6407945 0.27680981 3.0857446
-1.7005867 0.21475999 3.1028705
-1.628953 0.28412116 3.0828826
-1.8048316 0.026483778 3.5229821
-1.0520639 -0.28826129 3.5760269
-1.0648569 -0.3837477 3.4238791
-1.0874239 -0.38554737 3.4242573
-1.7584505 0.91320199 3.066725
-0.98174179 0.10674601 3.1945179
-1.2326032 0.23875161 2.8315153
-1.8125628 0.14235364 3.2388952
-1.3967329 -0.15229604 3.7648165
-1.9615259 0.089854352 3.1294243
-1.6060534 -0.076093324 3.6476159
-1.1098965 0.33809659 2.5983975
-1.1250656 0.33294761 2.5956156
-1.1080654 0.34222272 2.5902977
-1.0898359 0.30916035 2.7534549
-0.92975575 0.15396123 2.993861
-1.4644089 -0.090747647 3.7316101
-1.0407611 0.30973995 2.6056917
-1.3711518 -0.30585548 3.6046352
-0.8395806 0.15544654 3.0173099
-1.9126313 0.037540291 3.1441557
-1.0059693 0.09531951 3.076432
-0.88146144 0.12889406 3.0734289
-1.0028244 0.45810518 2.4367023
-1.9232868 0.028445568 3.4608133
-0.86721122 0.61313832 2.1994286
-0.88517749 -0.00027070349 2.930398
-0.79294425 0.47595936 2.3617017
-1.9371645 -0.05113427 3.1268814
-0.8057099 0.33454031 2.577862
-0.83622116 0.31453559 2.6034675
-0.47819149 0.36504418 2.5670252
-0.97106564 1.0194354 1.9925461
-0.56515425 0.67129296 1.9359399
-0.3897073 0.55371094 2.2350702
-0.54254103 0.60558438 2.0620837
-1.0400202 -0.079232603 3.5518599
-1.0404209 -0.079214111 3.5379109
-1.2169365 0.035794567 3.2809472
-1.2291514 0.24067554 4.0682774
-1.0227557 0.035641965 3.167269
-1.0102116 -0.056023672 3.4974902
-1.2371298 0.30598432 2.819032
-1.0721145 0.068617731 3.2157309
-1.1232761 0.29019666 2.813287
-1.0936269 0.37309805 2.6439967
-1.0234808 0.4129068 2.6162088
-0.95056665 0.12483948 3.0235872
-1.0922672 0.050869092 3.1049762
-0.93783081 0.13633807 2.9512126
-0.83270514 0.18305205 2.9199779
-0.90265441 0.11119807 3.0654039
-1.0453746 0.4373993 2.4544261
-0.87346619 0.21327449 2.8399718
-0.75716227 0.22033562 2.8331137
-0.59315515 0.22777641 2.8298204
-0.60893911 0.63124484 2.1392646
-1.9173788 0.1090518 3.1277499
-0.55451763 0.4877308 2.3546696
-0.58160019 0.64388162 2.0568264
-0.47569332 0.44942102 2.0427575
-0.28759974 0.64600551 1.9664872
-1.0956511 -0.46876875 3.3978257
-1.6451905 -0.087780453 3.6328831
-1.0617467 -0.092459887 3.5780544
-1.0423909 -0.078164883 3.5521073
-1.0735823 -0.034758471 3.4637959
-1.6783488 -0.027113734 3.6032064
-1.1820254 0.27942833 2.7838905
-1.3113407 0.067572035 3.2708716
-1.279248 0.2115567 4.0056953
-1.1130539 0.15038481 3.0262771
-1.1539775 0.068529524 3.1641066
-0.8421995 0.20332634 2.8550594
-0.90562177 0.36726469 2.6541595
-0.89064729 0.29798377 2.6882179
-0.82471436 0.50591314 2.280364
-0.72238886 0.57582366 2.19591
-0.63219255 0.52380711 2.2321241
-0.52395207 0.65845549 1.9912297
-0.47908911 0.73532832 1.9250351
-0.64744312 0.51467818 2.1963739
-0.58353472 0.55500108 2.1510413
-1.1396645 0.10824472 3.1178162
-1.0979598 -0.46862319 3.3930507
-1.1193919 -0.44124386 3.4508116
-1.0953965 -0.46792194 3.3950086
-1.2601851 -0.27830204 3.3048677
-1.0891502 -0.43972358 3.4038911
-1.0913522 -0.44199646 3.4052999
-1.0696709 0.4453347 2.493438
-1.8352377 0.17151527 3.2775578
-1.9225379 0.033132471 3.4632287
-1.9375811 -0.072639108 3.0432892
-1.9367828 -0.054841477 3.1338167
-0.97957522 0.55464381 2.2675328
-0.84774309 0.12928553 2.8850768
-2.017844 -0.054978218 3.0472891
-1.8149455 0.16635333 3.2752268
-0.7775743 0.34643346 2.5517936
-0.49296021 0.49263284 2.2913868
-0.44391033 0.50300127 2.2900889
-0.97034413 0.040597111 3.0387976
-0.97945112 0.11927753 3.1249571
-0.91402775 0.2871094 2.6937702
-1.3290538 0.086913846 3.2044663
-1.9816166 0.10467768 3.1167128
-1.2764094 0.12328103 3.1404812
-1.6750504 -0.02124143 3.4456003
-0.82568485 0.5225895 2.3095522
-1.0678048 0.17300242 2.9716277
-1.8202437 -0.002314985 3.5280094
-1.3603798 -0.11016896 3.5870109
-1.7799243 -0.018460982 3.5509863
-1.0463935 0.46521038 2.4737568
-1.1513796 -0.0085098315 3.4235463
-1.1269132 -0.13190401 3.6436279
