# .PCD v0.7 - Point Cloud Data file format
VERSION 0.7
FIELDS x y z
SIZE 4 4 4
TYPE F F F
COUNT 1 1 1
WIDTH 144
HEIGHT 1
VIEWPOINT 0 0 0 1 0 0 0
POINTS 144
DATA ascii
-0.067466028 0.21714991 2.0899563
0.057998925 0.013110061 2.3482409
-0.12481042 0.081101127 2.1479838
-0.080466948 0.29003236 2.0004253
-0.087648481 0.28483659 2.0024385
-0.080545135 0.29325354 2.0031388
-0.0069915317 0.32723647 1.9301462
0.17711346 -0.1425947 2.2472782
0.24388486 -0.1872378 2.2134018
0.066188633 -0.24098797 2.2164483
-0.50999653 -0.19649088 2.0953934
-0.50726116 0.086840414 2.1788619
-0.50581169 0.085605741 2.1803572
-0.66616911 0.38738725 1.2868501
-0.015369404 0.46034783 1.6586534
0.13420063 0.092799865 2.3273787
-0.82659471 -0.23250972 2.3463392
0.12686042 0.094375081 2.3172131
-0.50878572 0.089899018 2.1808765
-0.36817044 0.19338644 2.2434611
-0.010922275 0.36882609 1.835826
-0.71753168 0.33359376 1.2774683
-0.5251168 0.29226986 1.4890585
-0.0082672406 0.32892159 1.9330269
-0.37233734 0.31594327 1.9766705
-0.3735328 0.31823328 1.9778291
-0.74993104 0.093538888 2.4244854
-0.41870761 0.67012882 1.4315001
-0.65487379 0.57196957 1.3459466
-0.17100707 0.2155861 2.0993524
-0.11023964 0.091016188 2.1484196
-0.34775907 0.10527794 2.2915261
-0.67379838 0.39078477 1.2835052
-0.73838979 -0.23069473 2.3327127
-0.82461417 -0.034905907 2.2472594
0.047059651 -0.22070163 2.1774318
-0.083860472 -0.22130817 2.1451161
-0.59671509 -0.39554125 2.1971924
-0.65270114 0.5721693 1.3479576
-0.61050504 -0.51806939 2.5462549
-0.50014406 0.61071712 1.342061
-0.80888569 -0.44117999 2.2424874
-0.59843206 -0.39681813 2.3168104
-0.2955749 0.61639428 1.5771128
-0.74418682 0.54200715 1.4295292
0.50141305 0.13712099 2.2320242
-1.0150645 0.43142852 1.8039446
-0.58532107 -0.27095002 2.2969258
-0.51233923 -0.19581561 2.0988092
0.1408035 0.48323241 1.7033877
-0.25590149 0.59201199 1.6301868
-0.12165046 0.069907561 2.1579459
0.022189694 0.17871913 2.1847775
0.17992176 -0.14919041 2.2449071
-0.02264915 0.36499849 1.8355652
0.15031329 0.29329941 1.9064084
-0.58961427 -0.27426386 2.2928174
-0.82792664 -0.27780715 2.3215411
-0.41170833 0.77239138 1.541512
-0.47434074 0.62936515 1.411208
-0.53288555 0.29460311 1.4450545
0.058257777 -0.31261379 2.1393483
0.067021482 -0.26965582 2.1546552
0.065657914 -0.27040404 2.1524229
-1.0144966 0.43001679 1.8125674
0.19657908 0.12957203 2.2066491
-0.50946331 -0.19226401 2.0861661
0.337089 -0.27121556 2.1387086
0.048702285 -0.35777184 2.0853028
-0.53182673 0.28839362 1.456465
-0.58061969 0.4846237 1.3815715
-0.80092639 -0.047456469 2.2651949
0.26013589 0.25109595 1.9819024
-0.58383185 -0.22893246 2.3203652
-0.56941539 -0.21660337 2.3144643
0.69688541 0.27891853 2.1370883
0.84361631 0.18857884 2.0782967
0.21047279 0.36511669 1.8109542
0.1802565 0.46530834 1.6724434
-0.64937931 0.72617269 1.488386
-0.72798055 0.33809501 1.2676673
-0.71654707 0.30021456 1.3100601
0.30946252 0.29637215 1.8426312
-0.26698992 0.5265879 1.6039286
0.22456278 0.13425724 2.1870162
-0.59098536 -0.41622221 2.2420633
-0.59348273 -0.42062172 2.2572486
-0.7445994 -0.33623368 2.2900832
-0.59813404 -0.27839059 2.2908475
-0.73966575 -0.32562977 2.2804565
-0.82758236 -0.27695754 2.3251915
-0.37812829 0.75896287 1.5569197
-0.67382181 0.38872561 1.2782716
-0.82877433 -0.23386519 2.3452113
0.17106208 0.46861553 1.6525536
0.15621603 0.45255229 1.6862375
0.16232613 0.45815644 1.6614137
0.23318867 0.47329864 1.6417657
-0.95206362 0.70636106 2.0087004
-0.94783616 0.70271331 2.0183177
-0.98982686 0.64352703 2.4151504
-0.99365109 0.64787292 2.4282956
-0.83932012 -0.26321319 2.3695638
-0.5720365 0.44111201 1.3531796
-0.74894822 0.081343487 2.5028443
0.31573465 -0.25907749 2.1015079
0.21501294 -0.20794694 2.1253042
0.24278568 0.25049058 1.9268887
0.14684549 0.77177203 1.7624669
0.51299322 0.38197082 1.7682834
-0.91200644 0.21256353 2.2668769
-0.556741 0.40303573 1.3683414
-0.31305411 0.65896916 1.5804493
0.58043504 0.20674604 2.1126864
-0.89580613 0.12660973 2.3334875
-0.98589206 0.64015627 2.3931794
0.31032953 -0.073363185 2.1747692
-0.82986099 -0.26667932 2.3292069
0.30657157 -0.11405212 2.3397417
-0.74422932 0.53628343 1.4178274
0.50679684 0.12328454 2.1728771
-0.73596162 0.10548948 2.3556697
0.17923644 0.48494479 1.674965
0.18217473 0.46568599 1.6701018
0.160981 0.45803577 1.6552615
0.3358593 0.01985525 2.2877419
-0.83615375 -0.032922722 2.2467797
0.39386275 0.35058179 1.7220351
0.30620384 0.33073661 1.750178
-0.83508718 -0.033413917 2.2466719
0.51903874 0.38281307 1.7876797
0.33294353 -0.21995434 2.1765537
0.34423321 -0.092338122 2.2386549
-0.19007562 0.21579495 2.084686
0.71821886 1.0694927 1.9087181
0.83186185 0.1863004 2.0684679
-0.65093923 0.57177269 1.3490525
-0.25805002 0.59607083 1.6219616
0.11805503 0.1036802 2.2931352
-0.49782518 0.081078008 2.185328
-1.0114594 0.43147781 1.8005173
-1.0097202 0.42857218 1.782313
-0.95276815 0.70805615 2.0171149
0.12623024 1.0450375 1.9762412
