# .PCD v0.7 - Point Cloud Data file format
VERSION 0.7
FIELDS x y z
SIZE 4 4 4
TYPE F F F
COUNT 1 1 1
WIDTH 82
HEIGHT 1
VIEWPOINT 0 0 0 1 0 0 0
POINTS 82
DATA ascii
0.39118594 0.17033803 1.987816
0.45789164 -0.035026204 2.2661333
0.31225014 0.043329831 2.0407586
0.15426478 0.07888215 2.2102323
0.52542144 0.26593277 1.8247017
0.48420629 0.26715264 1.8352067
0.78216887 0.38575214 1.6043569
-0.089796759 -0.1950949 1.9422528
-0.06692268 0.088247962 2.019767
-0.45752907 0.053135738 2.0682762
0.61767566 0.24657135 1.8515545
-0.43929213 -0.00052791735 2.1729395
0.53863752 0.037427954 2.2429142
-0.48505986 0.048395548 2.0376425
-0.4818798 0.045018896 2.0329096
0.029868433 0.26800612 1.3274555
-0.13346508 0.28753895 1.1196272
0.18300654 0.63032794 1.2756392
-0.14582051 0.28813457 1.1592735
0.075805165 0.096003853 2.1512766
-0.07816691 0.37298167 1.1008016
-0.35056904 -0.19613817 2.146337
0.2959882 0.48140156 1.4951785
-0.15105414 0.53635079 1.2317356
-0.15884267 0.4001025 1.130949
0.92368114 0.038023975 2.2095213
-0.48043445 0.4692429 1.5675844
-0.19927333 -0.25330588 2.1331966
0.18581404 0.61537915 1.2717116
0.46252716 0.1267194 2.0951192
0.45885521 -0.290782 2.1342747
-0.44229981 -0.23421021 2.1240387
0.028427182 0.26936463 1.2827541
-0.091527954 -0.19582473 1.9501077
0.73402959 -0.35772234 2.1150169
0.34120128 0.068858452 2.0269201
0.72935802 -0.30686176 2.1510429
0.027258392 0.26354024 1.2943553
0.010393322 0.46059418 1.2084405
0.6290189 0.38816172 1.5707802
0.71860802 0.27769408 1.7464538
0.71835518 0.37484366 1.6025839
-0.046437871 0.71471429 1.3015549
0.29912975 0.48143536 1.4849052
-0.13358504 0.28841725 1.1234568
-0.44180399 -0.18583903 2.1477075
0.80444402 0.20046367 1.7933137
0.63705295 -0.25567326 2.168077
0.65678388 0.061824601 2.1265793
-0.21186846 -0.25962752 2.1255887
-0.44236404 -0.23325525 2.1276789
0.21551661 0.71946377 1.4031781
-0.077701963 0.37072831 1.0956695
0.69143951 0.36518681 1.6132249
0.70142126 0.36913684 1.5893559
0.79953331 0.2324874 1.6845907
-0.41662338 0.74421 1.7720429
-0.41415352 0.74053448 1.7822437
0.018025635 0.41533104 1.1826328
-0.41495034 -0.15965028 2.0180421
0.62022382 0.18695007 1.9136064
0.61902833 -0.27977887 2.0728679
0.72243553 0.16508028 1.8686321
1.0251478 0.094335586 2.1005847
-0.46739471 0.1751934 2.1161439
-0.50912285 0.69725138 2.1496542
0.72064805 -0.15383206 2.1316528
-0.44404978 -0.22264504 2.1310759
0.69023627 -0.18729325 2.2954855
-0.19017728 -0.20138408 2.1851716
0.93551123 0.021354718 2.1520669
0.069115929 0.10596573 2.1980999
-0.31522444 0.13866478 2.1608458
-0.051430449 0.54086518 1.1434361
0.80964822 0.23117624 1.7023963
0.05604735 0.1219339 2.1772845
0.61277956 0.12032995 2.040823
0.30750549 0.54782647 1.4883939
0.53422409 0.046618741 2.2176175
-0.060215268 0.083125897 2.0259125
-0.48522839 0.046787117 2.0370913
-0.47254699 0.46499032 1.5469847
