# .PCD v0.7 - Point Cloud Data file format
VERSION 0.7
FIELDS x y z
SIZE 4 4 4
TYPE F F F
COUNT 1 1 1
WIDTH 135
HEIGHT 1
VIEWPOINT 0 0 0 1 0 0 0
POINTS 135
DATA ascii
1.5116395 0.3438271 2.4510701
1.7241762 0.46924791 2.298789
1.3937485 0.23793478 2.4437623
1.1847883 0.40884051 2.393836
1.5744103 0.4167105 2.3858941
1.1570115 0.46738297 2.2551627
1.6823328 0.67545581 2.0416918
1.2342298 0.57914191 2.1427608
1.0865014 0.37602368 2.2599537
1.0863754 0.37441844 2.2617617
0.72066551 0.4335216 2.1242025
1.7343966 0.47004616 2.2983859
1.4310117 0.37726605 2.3999777
1.6469413 1.1789265 2.4209526
0.76611096 0.35553628 2.1550298
0.77355164 0.48375297 2.3284881
1.2850077 0.35304576 2.4722698
1.655622 1.1183785 2.4520421
1.1198196 0.505373 2.2535627
0.65114617 0.19212736 2.1669207
1.4114752 0.24329516 2.4430988
0.71475089 0.43288895 2.0809097
1.3573201 0.38385949 2.3872752
1.5177627 0.47859931 2.3100917
1.1389084 0.46675417 2.2716074
1.6115808 0.71315098 1.5348405
1.5667988 0.68617594 1.4834203
1.5995532 0.7724728 1.6452693
1.6000913 0.75795776 1.6566907
1.7295948 0.81482172 1.8097142
1.5656452 0.68730891 1.487689
1.6495631 0.79627454 1.7903908
1.5980656 0.78352165 1.6344986
1.5426211 0.63656044 1.680644
1.550096 0.6703015 2.0613155
1.6949795 0.96054697 1.9958228
1.7584345 0.86679852 1.7970685
1.5670137 0.68345493 1.4803699
1.7496905 0.84357405 2.0091746
1.7503551 0.8496604 2.0087843
1.5982032 0.85300213 1.580586
1.6170915 0.79252988 1.9095558
1.7476423 0.78562719 2.0416558
1.5699471 0.60528326 1.5676357
1.6329801 0.79911542 1.6998922
1.5479035 0.87897277 1.6052122
1.3343248 1.4408116 2.0304542
1.7534502 0.83513981 2.0029404
1.544951 1.1213409 1.8690394
1.4866092 0.85625029 1.5742587
1.7182319 0.98057097 1.752872
1.5275856 0.71823454 2.0799131
1.7112701 0.86249042 1.6863427
1.7525599 0.8289876 1.8620553
1.4075751 0.24223803 2.4538176
1.7076126 0.86117905 1.7777144
0.83213627 0.47036609 2.2953649
1.5984513 0.76096576 1.655865
1.6607606 0.79692155 1.788541
1.6926453 0.80277127 1.9607618
1.5698861 0.68282932 1.4663336
1.4304456 0.6254003 1.4608612
1.7501529 0.74910933 2.0286891
1.7623124 0.75760263 2.0201302
1.7519115 0.75595844 2.0286613
1.7765523 0.57753909 2.1492565
1.4888906 0.85195822 1.5666114
1.5659182 1.0861067 1.8742523
1.5430783 1.1009834 1.8994812
1.7504208 0.74210626 2.0176349
1.4112585 0.62901163 1.4754374
1.5728809 1.0490724 1.8323164
1.7741336 0.9355467 1.8466613
1.7774837 0.84916389 1.8281057
1.7103159 0.81388366 1.8342987
1.757234 0.83741969 1.7915163
1.7611096 0.85855585 1.7989854
1.5566956 0.63599402 1.6710085
1.6573919 1.0668443 1.8841484
1.5648806 1.0886375 1.8750577
1.6758136 1.2005628 2.4819374
1.6743705 1.1058059 2.4170513
1.6144667 0.70665002 1.5330803
1.4489224 1.3034261 2.2039423
1.3048766 1.4393307 2.11729
0.79754043 0.56314898 2.283226
0.75088423 0.34716353 2.1210728
0.78596741 0.28651404 2.2181008
0.78586221 0.42653337 2.0338397
0.72786868 0.48518965 2.2649736
1.843807 0.91367924 2.6402309
1.2210312 0.532345 2.1887081
1.4012928 0.37778696 2.3366981
1.6638038 0.93899876 1.8250955
0.73830765 0.16420855 2.2023532
1.6950513 0.92185152 1.7963284
1.7300576 0.81572503 1.8117868
1.7197623 0.9070338 1.7777309
1.0117475 1.4813344 2.1410158
0.64960641 0.19510604 2.1663234
1.5926571 0.85566896 1.5800307
1.5291986 1.3297987 2.1509137
1.4923511 1.2505622 2.1445622
1.1207477 0.35540116 2.4701071
0.78506243 0.29789439 2.2320797
-2.3512461 1.3267136 1.976951
-2.4307709 1.1119951 1.4896338
-2.4634979 1.1069131 1.4723741
-2.365248 1.3172246 1.9726672
-5.1399097 0.3157241 4.201993
-5.0142603 0.29738602 4.1321092
1.7491499 0.74865115 2.0284255
1.544591 0.68218148 2.0668278
-4.2355633 1.046312 2.9294374
-2.501591 1.6303934 1.5017062
-2.5058041 1.233092 1.5723348
-2.5406711 1.2331003 1.4689561
-3.2252419 1.1412543 2.186219
-4.7258811 0.43140844 3.8128989
-5.8972178 -0.17042682 5.0698733
-0.74735343 1.6296483 1.6174158
-2.3109365 1.0770806 1.236564
-2.7436502 1.251516 1.591206
-2.3032701 1.554037 2.059593
-1.7101458 1.4158903 1.9136256
-2.9043636 0.93567526 1.7501662
-2.9699368 0.94452691 1.7578948
-5.3070836 0.1834062 3.9811049
-1.3149447 1.798442 1.7310798
1.561834 0.68339586 1.484373
-2.345088 1.3210075 1.9720615
-2.4897158 1.0828962 1.8145636
0.68186402 0.44075605 2.1443202
-1.9874518 1.5779098 2.2396853
0.71025354 0.43526119 2.0833538
