# .PCD v0.7 - Point Cloud Data file format
VERSION 0.7
FIELDS x y z
SIZE 4 4 4
TYPE F F F
COUNT 1 1 1
WIDTH 256
HEIGHT 1
VIEWPOINT 0 0 0 1 0 0 0
POINTS 256
DATA ascii
-1.1163836 -0.25077817 2.6219549
-1.0563861 -0.2447861 2.6142135
-0.10949002 -0.020605152 2.2434971
-0.78395325 -1.0541677 2.7757545
-1.3580675 -0.83579081 3.1026261
-1.2705839 -0.82958376 2.8749878
-1.3698568 -0.73078036 3.1370468
-0.058643438 -0.50253832 2.7783349
0.53636318 -0.45213068 2.674427
0.3540321 -0.46769115 2.8301609
-1.0564623 -0.30028319 2.5845211
-1.0564623 -0.30028319 2.5845211
-0.58207339 -0.21338767 2.6592712
-0.7391212 -0.19715676 2.6297412
-1.0542859 -0.24281515 2.6225326
-1.2885728 -0.45855597 3.0670202
-0.74734485 -0.61383563 2.7520943
-0.74616063 -0.86474901 2.8240993
-0.020348724 -0.20672378 2.5523236
0.53295004 -0.34417987 2.7578139
0.29854476 0.62538743 2.5750968
-0.32086411 -0.069269046 2.4523518
-0.8814075 -0.63238186 2.7847385
0.74548918 -0.64063132 2.5431604
0.078206338 -0.16625312 2.4813497
0.55757284 -0.27113971 2.6931968
-0.3423481 -0.31411725 2.8328123
-0.87509918 -1.1070943 2.8628874
-0.93647707 -0.35117826 2.89011
-0.58360791 -0.14156541 2.5282989
-1.0498883 -0.87962234 2.7578578
-0.34998706 -0.67983407 2.6352198
-0.34954849 -0.32090601 2.8172622
-0.7614702 -0.61382383 2.7483685
-0.73438054 -0.20088656 2.6328132
-0.75196368 -0.86621052 2.783098
0.56587225 -0.27538511 2.6923144
-0.95426142 -0.92942005 2.9622884
-0.9309172 -0.63266617 2.7893884
-0.39596236 -0.87093794 2.913532
0.3381303 -0.39521116 2.898133
-0.20262428 -0.12516989 2.4978054
-0.42401478 -0.24676317 2.7202079
-1.1148638 -0.30420077 2.5937617
0.55745864 -0.28090617 2.6859801
-0.20368011 0.54532766 2.7158248
-0.20368011 0.54532766 2.7158248
-1.2924088 -0.46681765 3.0549335
0.33962503 -0.46763733 2.843951
0.51510751 -0.28494543 2.7703273
0.89463264 0.70468134 2.7432344
0.51402479 -0.5376035 2.748929
-0.92743707 -0.62943715 2.796437
-0.95532954 -0.86387938 2.725426
-0.37917554 -0.96496594 2.8425412
-0.0099416729 -0.30986226 2.8043928
0.054130904 -0.16737731 2.4852493
0.15430158 0.48455125 2.6132963
0.48892334 -0.58805937 2.7695961
-0.048385181 -0.21312784 2.5469453
-1.1330802 -0.28663 2.7357626
-1.359053 -0.42797092 3.5210133
0.095016122 -0.25425336 2.6797094
0.1355577 0.48122656 2.7346613
-1.5292492 -0.26582345 2.7725701
-1.4414502 0.059260495 3.6173966
-1.4474472 0.042364303 3.5688522
-0.01532683 -0.68758327 2.8924012
0.53389788 -0.079180874 2.4586377
-1.4152955 -0.74318647 3.4573982
0.34893703 -0.47399333 2.8387089
0.29224452 -0.39009765 2.8938909
0.49013981 -0.40332693 2.8234518
-1.2890871 -1.0591544 3.1905205
-1.3255085 -1.0108261 3.0565956
-1.1434262 -0.35619748 2.7162337
0.35731706 -0.52375734 2.823874
0.54192239 -0.3938978 2.6763842
0.68264431 -0.26564062 2.6825154
-1.6494824 -0.054679092 3.7243438
0.35194874 -0.46895307 2.8315434
-0.87654346 -0.78816354 2.8007267
-0.92263722 -0.40639782 2.8607714
0.07053604 0.31381792 2.3830922
-0.0269296 -0.16600017 2.4531543
-0.45600137 -0.26292276 2.7686243
-1.0458065 -0.29377478 2.6037798
-0.028586376 -0.21300201 2.5630193
-1.1009202 -0.3913559 2.656132
-1.3842469 -0.57009029 3.2517793
-0.63162947 -0.17310238 2.5902669
-1.2569739 -0.88377649 2.7653649
-1.2624879 -0.88129956 2.7650347
-1.0896199 -0.38839471 2.6720719
0.014562104 -0.17196049 2.4931931
-0.11008214 -0.10119011 2.4195194
-1.3406441 -0.97873724 2.9960811
-0.090994604 -0.30779144 2.8120511
0.54166657 -0.52202517 2.6469908
0.50699645 -0.20864488 2.6249976
0.50348669 -0.54223615 2.7268214
0.44694656 -0.33477831 2.8633389
-1.4188304 -0.73178172 3.4402587
0.055120572 -0.15158801 2.4698522
-0.50977784 -0.19086185 2.6527374
-0.32949954 -0.24075904 2.7024629
-0.44378898 -0.35363859 2.8449135
-0.0047818269 0.66065919 2.4654548
-1.1867194 -0.63537151 3.4036298
-1.3700727 -0.714562 3.1532097
-0.0050497241 0.6590848 2.4586461
0.063644975 -0.26703501 2.6296515
-1.3888385 0.036123842 2.621223
0.29985008 0.62443835 2.5832939
-0.58198959 -0.1413426 2.5290158
-1.1536462 -0.30114636 2.711447
-1.4121211 0.069050737 3.4934549
0.12725408 -0.55051965 2.8629932
0.12725408 -0.55051965 2.8629932
-0.97210681 -0.40510485 2.8188756
-0.11012265 -0.20274797 2.6140718
-0.13131849 -0.21732047 2.6514518
-1.4364361 -0.94029039 3.3627555
-1.4187925 -0.73441464 3.4211986
-1.3319452 -0.20765579 2.6633003
-1.3319452 -0.20765579 2.6633003
0.66911817 -0.67671055 2.6815288
-1.1473603 -0.30696538 2.7280357
-1.6399547 -0.12321033 3.5905027
-1.0496407 -0.35835412 2.6002269
-1.1688602 -0.8399868 2.7703662
-1.7857896 0.14511131 3.4158692
-0.00121802 -0.37491325 2.830092
-1.4072063 -0.9562037 3.3702834
-1.3249259 -1.0448585 2.7651358
-0.12963277 -0.41709155 2.8585181
-0.091379441 -0.42212263 2.8726313
0.51392186 -0.28590178 2.7705903
0.48551977 -0.40213335 2.8243589
0.48551977 -0.40213335 2.8243589
-1.468434 -0.2933031 3.7546852
-1.2855401 -0.8302598 2.8645127
0.088734694 -0.036642931 2.3593278
0.060749676 0.3108176 2.3708382
-1.4569864 -0.021023987 2.3756862
-1.1475393 -0.35808849 2.6993458
-0.43858808 -0.63111305 2.6873515
-0.12139972 -0.16322063 2.5036576
-0.32226574 -0.94289821 2.6973648
-1.499549 -0.077561736 3.584219
0.33972922 -0.12771682 2.4960001
0.09107288 -0.2704072 2.6771791
-0.91021866 -0.48641512 2.8340459
0.11640364 -0.53699559 2.8656306
-0.31925911 -0.066934943 2.4538341
0.26458678 0.39600378 2.772434
-1.6564136 -0.24003698 3.6783357
-0.23590755 0.13132119 3.4629915
-0.23919949 0.13252082 3.464576
-1.2717921 -1.0940259 2.753264
-0.81937307 -1.0336232 2.7455585
-0.47453782 -0.26638067 2.7526097
0.60596114 -0.5745042 2.5498788
0.32165039 0.42296314 2.814496
-1.3525916 -0.8313508 3.0865664
0.1827275 0.51131958 2.7613175
0.52381754 -0.37202191 2.7985535
-0.80746233 -0.90168518 2.9159868
0.35418487 -0.47406921 2.8389037
0.35384992 -0.52053493 2.8170547
0.677248 -0.26166293 2.6445215
-1.4724295 -0.28317803 3.7320223
-0.29058161 0.47537416 2.8243277
0.71350479 -0.6853624 2.7190585
-1.24774 -0.88111532 2.7570746
-1.3578525 -0.82470959 3.0871658
-1.3483627 -1.0095779 3.4769289
-1.4015756 -0.82213283 3.6963768
-1.3618959 -0.69538057 3.3774819
-1.3289939 -0.95554745 3.0050716
-1.1918057 -1.1254843 3.320565
-1.3778294 0.39070883 2.9667444
-0.54274869 -0.74558866 3.6111619
-1.1660681 -1.0936298 3.5818076
-0.61503875 -0.85734183 3.8046873
-0.51381844 -0.86292237 3.8089783
-0.10732923 -0.79429352 3.0507846
0.90856165 -0.39794916 3.0275621
-0.063878953 -0.77958083 3.5648329
-0.21354738 -0.71636313 3.1192415
0.56923586 -0.64703679 3.5085375
0.84552872 -1.095269 3.7986751
0.72228205 -0.83182508 3.9758892
0.67894959 -0.6097883 3.4063728
0.92937696 -0.62896663 2.7899151
-0.024130763 -0.81466872 3.6487119
-0.75607556 -0.90868747 4.2905684
0.92920929 -0.54413563 3.19225
0.68809253 -0.22497235 4.1287951
1.0482926 -0.35981908 3.0208137
0.65247816 -0.60513073 3.1904674
0.93118674 -0.54069686 3.1902003
0.80647743 -0.35792369 2.9951055
0.99956077 -0.43049815 2.8173671
0.98249644 -0.41895989 3.1188369
0.55436343 -0.073826611 2.4616227
1.1340297 -0.5305177 3.4195666
0.51265252 -0.14048007 2.3864183
0.3207649 0.61944908 2.561816
0.86093885 -0.83634329 3.7904134
0.88529193 -0.021908829 2.6612124
0.88772237 -0.31948403 2.7484958
-0.57450473 -0.30009124 2.8212602
0.058419731 -0.17952283 2.518739
-0.068520613 -0.44306493 2.7922204
0.78092158 0.10190976 2.2084191
0.37622222 0.43774191 2.841548
0.68250644 -0.363363 2.6315634
0.60066748 -0.31278419 2.6705906
0.55191743 -0.53429329 2.6522596
0.51943976 -0.25296682 2.7355678
0.45210612 -0.3703438 2.8426678
0.64676577 -0.36388505 2.6417482
0.64816254 -0.609667 2.5616951
0.55113101 -0.26087099 2.6879165
0.95458913 -0.26159748 2.7854974
-0.34178826 -0.31241909 2.8303604
-0.20529342 -0.12062036 2.4964638
-0.08492849 -0.307502 2.8181143
-0.66005695 -0.24970011 2.7187672
-0.88227808 -0.97309941 2.9297976
-0.85694325 -0.88455528 2.8579118
-0.11248709 -0.026078045 2.2180073
0.54197747 -0.45476243 2.6798723
-1.2993431 0.18708742 3.4275367
-1.6602428 -0.25083211 3.6531713
0.11237814 -0.045747183 2.5426819
-0.045581955 0.70373869 2.4186153
0.30133903 0.6260246 2.5831389
-1.0629059 -0.30130085 2.5729475
-1.1472507 -0.35986131 2.700906
-0.066970527 -0.50459713 2.7685406
-0.066970527 -0.50459713 2.7685406
0.12938644 0.49553499 2.6252801
-0.020858278 -0.44277769 2.8110907
-0.021339362 -0.027976034 2.2733138
-1.4422594 -0.93919343 3.3519533
-1.3581848 -0.83235508 3.1061735
-0.81432837 -1.0290011 2.7675104
-0.36758265 -0.82197231 2.9170063
5.176796 0.21906775 3.1669612
3.9757643 0.86710292 1.8298568
3.8332114 0.84225452 1.6363368
0.43163207 -0.40476918 2.8432887
-0.75319231 -0.97795248 2.8090813
-0.37812987 -0.96205795 2.8574743
