# .PCD v0.7 - Point Cloud Data file format
VERSION 0.7
FIELDS x y z
SIZE 4 4 4
TYPE F F F
COUNT 1 1 1
WIDTH 173
HEIGHT 1
VIEWPOINT 0 0 0 1 0 0 0
POINTS 173
DATA ascii
-1.2244384 0.24885543 3.177099
-1.1893009 0.10307239 3.2288437
-1.1450016 0.34560022 2.9944115
-1.3127127 0.3151581 3.1408815
-1.3240131 0.36864048 3.0465162
-1.8942202 0.1156728 3.6586108
-1.0891656 0.64187461 2.4664588
-1.1374226 0.3512105 2.998394
-1.3231961 0.36991084 3.0497541
-1.2858633 0.21543628 3.254051
-1.1816628 0.11702831 3.2212479
-1.5285628 0.15994234 3.4294891
-1.2262646 0.39528498 2.9392326
-2.1275117 0.054879911 3.2412891
-1.1358182 0.65630591 2.4688504
-2.230468 0.36876506 3.1362607
-1.2709709 0.46963704 2.8201523
-1.3280544 0.36713052 3.0427339
-2.2255158 0.32772693 3.2340784
-1.2039043 0.57346284 2.665823
-2.1688576 0.23253836 3.2968659
-1.2078278 0.14617507 3.3983219
-1.2078246 0.41284323 2.8084145
-1.1453048 0.65616089 2.4725978
-1.0370055 0.39655858 2.8631337
-2.0632768 0.18078862 3.5598209
-1.2995828 0.2092078 3.2613671
-0.81957239 0.69378716 2.2961409
-1.207374 0.0085877283 3.6800768
-1.3952359 0.3997612 2.9996943
-0.78994155 0.79400092 2.1668634
-0.60095972 0.428469 2.7572806
-0.40031186 0.92547047 1.9762908
-1.4047174 0.39603442 3.0010316
-1.8571846 0.13106996 3.5999162
-1.2167317 0.0021006418 3.6873941
-1.2620655 0.46684563 2.8417764
-1.4582112 0.10207871 3.5002108
-0.82443553 0.30010659 2.9372535
-2.2345946 0.32852906 3.0078206
-0.77727932 1.2309949 2.194715
-0.898709 0.61634791 2.411499
-2.155817 0.20253104 3.3123012
-1.0370517 1.1646237 2.1545949
-2.1201241 0.26714095 3.358175
-2.2383783 0.20974112 3.2471859
-0.78656656 0.61625981 2.4058661
-2.2058866 0.41813427 3.1248932
-2.2561243 0.1530785 3.1362243
-0.36429569 0.94797802 1.9549931
-2.2371118 0.20952055 3.2510741
-1.8516067 0.11190654 3.5936406
-2.2262068 0.33200565 3.2338693
-2.0053065 0.29888093 3.4634233
-1.4645575 0.11018774 3.5522048
-2.2671847 0.11383431 3.1850731
-1.1241865 0.37289304 2.9824281
-1.4891747 1.0465592 2.4091263
-1.4580601 0.10248447 3.497987
-1.3774064 0.046336599 3.5095232
-1.4481136 0.19308147 3.3438182
-1.3699117 0.18283318 3.3345733
-1.2368414 0.16876282 3.3879967
-1.3035676 0.4481715 2.7922921
-1.0672768 0.22922279 3.1611581
-1.2250191 0.424146 2.9233408
-1.0662302 0.38598123 2.8857129
-1.5304794 0.15880083 3.4293144
-1.9956905 0.28059012 3.4566441
-2.1103146 0.057332084 3.2034192
-1.0025975 1.051551 2.1029453
-0.84015578 0.90561092 2.050858
-2.119729 0.26409796 3.3598866
-1.995079 0.10435694 3.0983179
-2.0532582 0.27258107 3.4267359
-2.1491032 0.055084657 3.2938645
-0.78969294 0.29952601 3.0035398
-0.7771616 0.79828191 2.1589665
-1.8418063 0.11625054 3.5958405
-1.0262525 1.176787 2.1459703
-0.97080171 1.1924685 2.071259
-1.4614245 0.10823856 3.55533
-1.3948147 0.13923489 3.4113333
-1.4682263 0.096482724 3.4978256
-1.4283611 0.2227875 3.293087
-1.2466954 0.08580029 3.3418915
-2.2062652 0.081681997 3.2199314
-1.22569 0.15636438 3.3828127
-1.1818472 0.1185184 3.2199607
-1.0662798 0.38480788 2.885469
-0.92903417 0.25569263 3.0859587
-1.3358996 0.061304081 3.3786275
-1.1745341 -0.0035599242 3.1676974
-2.1625648 0.19734539 3.3110611
-1.1748924 0.11872954 3.2201421
-1.1878963 0.27310959 3.1600552
-1.3015664 0.42928797 2.7948244
-1.2264302 0.38864917 2.9177427
-1.3009055 0.38456699 2.9553878
-1.0936302 0.23403627 3.1812315
-1.063676 0.30067739 3.0325243
-2.121201 0.26464644 3.3589072
-0.82749015 0.32513827 2.7738898
-1.9132497 0.089523628 3.7663238
-2.0875785 0.28921795 3.4308605
-1.1108512 1.0047996 2.0175817
-1.0011393 1.05712 2.1021914
-0.84734732 0.64425683 2.393539
-2.2184479 0.10021424 3.1066706
-0.89460009 0.55978805 2.4555986
-1.9114721 0.090834983 3.769058
-2.2492309 0.21045128 3.2062685
-1.8249309 0.078079529 3.6508145
-2.2084258 0.080492057 3.2200155
-2.0989685 0.16823094 3.3229306
-1.3486543 0.9750632 2.4986362
-0.91509724 0.63881058 2.495337
-1.1001809 0.63170046 2.4387999
-0.78686255 0.30623674 2.996012
-2.1229606 0.051672306 3.1689203
-0.9916209 1.0615978 2.0909524
-2.1498287 0.21991399 3.3083448
-1.2506568 0.38867581 2.819742
-1.0761665 0.25283271 3.2049894
-0.96812886 0.62592685 2.4971747
-1.8514721 0.10227413 3.5974193
-0.86108017 0.63679022 2.3971684
-0.68410552 0.3915337 2.7824633
-0.81844252 1.1904796 2.219734
-1.8868827 0.11657219 3.6495965
-1.8806199 0.33800992 3.3853161
-1.6141164 0.029026633 3.7147288
-1.5989325 0.030821264 3.7149708
-1.4245033 -0.0069522467 3.5108948
-1.4184442 -0.0076697371 3.5087731
-1.5321382 0.15775245 3.4307833
-2.0695145 0.30790338 3.4362681
-1.0939409 0.23715468 3.1714694
-1.0738944 0.22258565 3.1688895
-1.0544876 0.23018429 3.1694164
-1.1323822 0.23138508 3.2013075
-1.0906918 0.63786113 2.4414048
-2.2262809 0.093699768 3.1093562
-1.9952042 0.27927101 3.456537
-1.4470738 0.21975684 3.3291934
-0.96050024 0.42681116 2.7687707
-1.5986062 0.19350462 3.4329138
-1.2131344 0.25148636 3.1808679
-1.1253259 0.61717916 2.4720542
-0.90619338 0.30635574 3.0181141
-0.68599164 0.39684147 2.7858894
-1.0747063 0.56551182 2.5656502
-1.0786728 0.55815178 2.569577
-1.0341499 1.0229132 2.3678634
-0.79088867 0.79870296 2.1636536
-0.63193309 1.242413 2.1191764
-0.61509693 1.2421821 2.1091542
-0.58519483 1.2635777 2.093755
-1.282908 0.57075745 2.7584496
-1.0530131 0.93609703 2.0687273
-1.4062095 0.4094947 3.0035188
-1.1808838 0.42757747 2.7821074
-1.2462003 0.39092261 2.8050039
-1.4270641 0.085385896 3.5602529
-1.4943643 1.191878 2.4688692
-1.4766066 1.0617923 2.4039288
-1.0031304 1.0486807 2.0990577
-0.6801452 1.5058614 1.9050155
-1.4696913 0.11402161 3.5479929
-0.84936351 0.64427865 2.3933825
-1.8045167 0.88983041 3.5081434
-2.1299927 0.23911637 3.3071654
-1.6859885 0.030371681 3.7523077
