# .PCD v0.7 - Point Cloud Data file format
VERSION 0.7
FIELDS x y z
SIZE 4 4 4
TYPE F F F
COUNT 1 1 1
WIDTH 154
HEIGHT 1
VIEWPOINT 0 0 0 1 0 0 0
POINTS 154
DATA ascii
-1.2568191 0.23437719 3.0261681
-1.2324867 0.087540179 3.0810468
-1.1546359 0.32821515 2.8535488
-1.3383132 0.3035866 2.9806833
-1.4981501 -0.016874894 3.3375139
-1.4958546 -0.017642302 3.3375704
-1.5322996 0.091032103 3.3196898
-1.2368181 0.39008737 2.8002687
-1.0080514 0.29240918 2.901557
-1.4986877 -0.014384996 3.3405554
-1.1473542 0.33357024 2.8583529
-1.0800036 0.36622047 2.7526529
-1.3369015 0.35857639 2.8891077
-1.5766931 0.24150345 3.1409295
-1.5773568 0.24335244 3.1429682
-0.75682646 0.15181462 2.877003
-1.1290016 0.20619929 3.0228148
-1.5895828 0.15601313 3.2434824
-1.121788 0.22324754 3.0383692
-1.2276464 0.3805618 2.7899387
-1.106577 0.22306266 3.0116208
-1.1564864 0.3312977 2.8608537
-0.59652823 0.45983323 2.467514
-1.2597288 0.45619634 2.6687131
-1.0774796 0.63794094 2.3330166
-2.2477114 0.38812512 2.8757169
-1.1889834 0.51956868 2.5159936
-1.3410523 0.355955 2.8815899
-2.2548895 0.34703502 2.9733744
-1.1694843 0.55762714 2.521117
-2.0574813 0.29778585 3.2232091
-2.2086859 0.25004786 3.0417268
-2.2926519 0.22667995 2.9373922
-1.2486984 0.45919132 2.6866994
-1.1944046 0.39736512 2.6619766
-1.087319 0.63811958 2.3357022
-2.2667565 0.14371583 2.813283
-1.0312541 0.37537742 2.7350309
-1.5427446 0.1059495 3.3697121
-1.474353 0.21530756 3.118911
-1.3801643 0.5614593 2.5938785
-2.2251403 0.23612773 3.0340106
-2.1151905 0.3417851 3.1494977
-1.138925 0.14248735 3.1170442
-1.5852067 0.15967238 3.2471113
-2.0931582 0.28197321 3.2001081
-1.4486513 0.25179282 3.0921247
-1.5283759 0.098840594 3.3182309
-1.401978 0.3907935 2.8315415
-0.69809377 0.75934231 2.0759718
-0.58541077 0.39245752 2.6776636
-0.28379938 0.88167298 1.9247267
-0.2517657 0.88853431 1.913003
-1.6206211 0.16423608 3.2772923
-1.9356827 0.13840525 3.3768094
-2.198503 0.058858577 3.0002091
-1.2647753 0.2325592 3.0219009
-2.1646121 0.30285838 3.1161227
-2.2894614 0.22929074 2.9377613
-2.2932184 0.21833701 2.8762798
-0.93643039 0.99054557 2.2789321
-0.96968919 0.44161835 2.5389004
-1.2501266 0.45319819 2.6893458
-1.3588088 0.37225032 2.8231397
-0.77930212 0.61752474 2.2834764
-0.59594494 0.46324316 2.459538
-1.0702409 0.3633821 2.7524977
-2.2346294 0.092794247 2.9612572
-2.2939982 0.21787912 2.875052
-1.1609313 0.32373261 2.8548265
-1.0220958 0.26063791 2.8835459
-2.248487 0.38580114 2.8737702
-2.253068 0.11324877 2.8576813
-0.83145022 0.27187747 2.8317206
-0.74360436 1.1376462 2.1311314
-0.69208097 1.4486729 2.2733319
-2.2733731 0.19533671 2.7864778
-2.2474647 0.11962955 2.8419778
-0.69826859 1.4373665 2.2743957
-2.2688091 0.11162303 2.910002
-1.9386148 0.13669525 3.3745954
-0.92783332 1.1423417 2.0328765
-1.5205343 0.12618889 3.2236547
-2.1677206 0.28401765 3.1186309
-1.1981438 0.042768262 3.0064533
-1.0366362 0.18516554 2.9884725
-1.0070735 1.0501574 2.3232331
-0.84822303 0.82382202 2.0606046
-0.72497576 0.58607429 2.3085544
-2.2066948 0.065419659 2.9261508
-2.2804506 0.1734271 2.8722742
-0.24492998 0.90293252 1.9075644
-2.2722478 0.22930321 2.9886711
-0.92552346 1.1062837 2.3427014
-1.9300985 0.11905866 3.3711298
-1.5411179 0.10424236 3.3723321
-1.9197139 0.14356595 3.399641
-2.1057103 0.48028195 2.8109481
-1.3452398 0.060803957 3.2279501
-2.2513146 0.082150668 2.9220457
-1.610781 0.16018116 3.2783329
-2.2824862 0.18108989 2.8737719
-2.2162428 0.08661785 2.8776696
-1.3612962 0.57158291 2.5493734
-1.3323303 0.20110749 3.104609
-2.2779977 0.19065292 2.7870579
-1.298525 1.1402981 2.1853697
-2.2439826 0.088526346 2.9429646
-1.4076366 1.0424306 2.2393591
-1.4088356 1.0398387 2.236028
-2.1628954 0.25973684 3.1038032
-1.5915061 0.15493678 3.2430956
-2.2700994 0.19009385 2.8464673
-2.0525486 0.2923792 3.2196426
-1.1051183 1.1492909 2.2576795
-1.0634816 0.36343214 2.7476985
-2.1461847 0.072878443 2.9547703
-2.2015278 0.057818722 2.9997678
-2.1651039 0.1014744 2.8578334
-1.0319135 1.0859019 2.0864625
-2.1837656 0.27025631 3.1403692
-2.2266593 0.090321198 2.8806634
-2.1657238 0.27999091 3.1098363
-2.2298577 0.097438455 2.9494505
-1.0518738 1.0832021 2.3073027
-0.80421847 0.27018714 2.9014118
-0.68245882 0.76744372 2.0646746
-1.4554235 0.13078758 3.2400279
-1.3333999 0.29910541 2.9738431
-1.234833 0.40253308 2.7887392
-1.1358539 0.22564986 3.0633609
-0.89003271 1.0336384 1.9844247
-0.80035627 0.27679148 2.8942578
-0.87919503 1.037782 1.9743084
-1.5023791 0.14032109 3.2744389
-1.1269584 0.21827465 3.0348337
-1.1072514 0.20303512 3.0344245
-1.0877746 0.20997509 3.0370948
-1.4476299 1.0013753 2.2641027
-1.3997079 1.0491862 2.2196167
-0.75019455 0.91545588 2.2401483
-1.0302639 0.61795831 2.3106282
-1.0706682 1.1817268 2.2480607
-2.2353289 0.10542427 2.9629292
-1.245914 0.23662876 3.0311599
-1.0304302 0.54522741 2.4356763
-1.0350482 0.53800905 2.4391246
-1.4156477 1.1853057 2.2952447
-1.3952684 1.054634 2.2322803
-1.6064097 0.076697014 3.4624379
-2.2368343 0.10520072 2.9635518
-0.8919512 1.0252682 1.9810685
-2.25122 0.095578946 2.8841918
-0.7850486 0.61618435 2.2893453
