# .PCD v0.7 - Point Cloud Data file format
VERSION 0.7
FIELDS x y z
SIZE 4 4 4
TYPE F F F
COUNT 1 1 1
WIDTH 366
HEIGHT 1
VIEWPOINT 0 0 0 1 0 0 0
POINTS 366
DATA ascii
-0.89461368 -0.12773916 3.4822731
-0.89035052 -0.12748015 3.4889436
-0.98695105 -0.12697506 3.4845376
-1.0554413 0.04564444 2.9447169
-0.99377489 -0.12289544 3.4766159
-0.93992299 -0.45547909 4.2544274
-0.88305688 -0.32102677 3.9737017
-0.82360715 -0.31784099 3.9605014
-0.76456583 -0.055896606 3.1933367
-0.98185092 0.29972073 2.4671226
-1.0031446 -0.08282683 3.2356305
-1.0002744 -0.45023888 4.2238255
-0.6981222 -0.41745722 4.1700897
-0.95403522 -0.45331159 4.3868933
-0.89117622 -0.10184984 3.4458833
-0.67004281 -0.45811257 4.3939524
-0.051510051 -0.42544615 4.354218
-0.99873942 0.25789085 4.2353258
-0.32114872 -0.53244483 4.384933
-1.1346052 -0.45069307 4.3844743
-1.0084405 -0.44260672 4.2614617
-0.92026979 -0.4473944 4.3980265
-0.75688732 -0.46644285 4.325151
0.024646116 -0.53073275 4.3856659
-0.25665376 -0.52580148 4.3656721
-0.65616822 -0.47258317 4.3967919
-0.32732987 -0.12105827 4.5473218
0.0096720131 -0.39486593 4.4356952
-0.17510234 -0.51157731 4.3092217
-0.65465868 -0.46126851 4.4032493
-0.82020897 -0.33105233 3.9368198
-1.2282296 -0.28785238 3.9633386
-0.65919262 -0.45633242 4.4017901
-0.96489561 -0.040395908 3.2752566
-0.93191248 0.13487491 2.7455597
-0.32149687 -0.52722812 4.3867173
-0.24766389 -0.39815608 4.4221835
-0.32085231 -0.49444199 4.3940544
-0.26798081 -0.44456333 4.3752122
-1.0132339 -0.46368739 4.2661304
0.24553487 -0.42694178 4.1220431
-0.46257511 -0.44635096 4.4130507
-0.66896677 -0.50287795 4.2394567
0.020021109 -0.37840787 4.4203601
-0.3992469 -0.23515309 4.5006728
-0.124696 -0.48846734 4.2516527
-0.33013538 -0.15556327 4.5338459
-1.1552352 -0.4570173 4.3890462
-0.24670911 -0.39688325 4.4216595
-0.5684576 -0.50229323 4.4035559
-0.24367258 -0.38886225 4.420362
-0.64860737 -0.49786672 4.2946401
-1.2397001 -0.35773629 4.1809335
0.016347848 -0.48322204 4.3930283
-0.33708531 -0.14321189 4.5416541
-1.0018584 -0.44256258 4.2816005
-1.0647813 0.28065291 4.2451973
-0.19299912 -0.44803569 4.3608642
0.03393035 0.0552174 4.6058726
-0.27382973 -0.42067608 4.3864679
-0.47608009 -0.49281484 4.3095722
0.20240006 -0.49141559 4.0770116
0.22199738 -0.47446808 4.0964313
-0.19619082 -0.668787 4.1369038
-0.61715543 -0.45179281 4.3256192
0.2462035 -0.42962804 4.1265197
0.28226319 -0.43479988 4.1390409
-0.87499619 -0.11539612 3.3274729
-0.59922153 -0.64036864 4.2880969
-0.24847695 -0.40006933 4.422555
-0.40385294 -0.4771139 4.3796697
-1.0718102 0.28985777 4.240407
-1.0507301 0.34255067 4.265583
0.57635629 0.24418645 4.2751241
-0.5703432 -0.48920935 4.396832
-0.51981372 -0.55183578 4.2793474
0.00860212 -0.37522143 4.4428501
-0.62860543 -0.46957624 3.9936483
-1.1422391 0.199238 4.5943685
0.27089491 -0.49755281 4.0773244
-0.47712943 -0.50064093 4.2927155
-0.24815221 -0.81251204 4.2192121
-0.6691128 -0.090809785 4.7781849
-0.18579851 -0.41868857 4.3986778
0.26882416 -0.50926107 4.0580297
-0.36460295 -0.59345871 4.3493671
-0.27532306 -0.78254896 4.2298579
-0.21990724 -0.80635679 4.0422888
-0.2965064 -0.58574039 4.3304348
0.12107359 -0.40567502 3.9260173
-0.27677935 0.065972671 4.5906248
-1.0485321 0.37006468 4.249547
-0.24332456 -0.73043334 4.0482726
-0.30804875 -0.51750511 4.3773184
-0.18514717 -0.75775158 4.0767884
0.28610146 -0.28274348 3.7505264
-0.14205107 -0.62591445 4.1542978
-0.074614272 -0.45333773 4.3720536
-0.36767504 -0.78595984 4.2700853
-0.46548942 -0.44583759 4.4127569
-0.07573735 -0.49213365 4.1802921
-0.3391799 -0.97475666 4.2519422
0.26523083 -0.50687242 4.0586014
0.28802195 -0.50461376 4.0575576
-0.11921743 -0.7389034 3.9579575
-1.3185059 -0.14742205 3.7477014
-1.1961036 -0.23776284 3.7962797
-0.45527592 -0.32647517 3.7508438
-0.295158 0.092535883 4.6037078
-0.51943201 -0.55348933 4.2773261
-0.77719319 -0.50806344 4.3972945
-0.60228974 -0.48246825 4.3454962
-1.2009352 -0.24657784 3.8124704
-1.0245969 0.29575709 4.2796965
-0.23385064 -0.61926472 4.3057108
-0.036039196 -0.54405278 4.0579309
0.30577576 -0.34215528 3.8724217
-0.96686089 -0.4090687 4.36342
-1.2303635 0.36178082 4.0995016
0.30420646 -0.27913034 3.6214507
0.3672033 -0.19005407 3.614177
0.24810399 -0.30935001 3.6702397
0.58284849 0.28046879 4.2668281
0.55902487 0.22323306 4.2310858
-0.35761771 -0.64069378 4.3197885
0.46591774 -0.065189265 3.3112183
-0.24212331 -0.78301042 4.1303701
0.82480162 0.31406957 3.977977
-1.663149 0.44970003 2.6134605
-1.6431636 0.42608052 2.6393511
-0.49333835 -0.49548039 4.3115587
-0.23406366 -0.75429726 4.0402136
0.52085549 -0.10481875 3.3288159
0.53032988 -0.073471971 3.2788355
-1.1598668 0.15670404 4.6416907
-0.41534621 -0.47315601 4.2787695
-0.59944111 -0.50571519 4.3237982
-0.76224542 -0.59633118 4.363822
-0.41285896 -0.50616306 4.3964763
-0.49972582 -0.50099409 4.4016447
0.0069642486 -0.40936941 4.4353118
-0.35802618 -0.66049552 4.3232865
-1.1303943 0.46946707 3.9304771
0.56223983 0.21403214 4.2432995
-0.41292235 -0.49386016 4.3819656
-1.2693336 0.2772747 4.0990753
-1.2748975 0.29166004 4.0863314
-0.65774101 -0.44429833 4.2973714
-0.5208413 -0.66075504 4.2543511
0.54800445 0.26493168 4.1729789
0.77721316 0.34212017 3.9879422
-0.48125458 -0.46704552 4.2976208
-1.2885305 -0.37737444 4.0526185
-0.1789654 -0.43073085 4.353086
-1.2986656 -0.36164394 4.0069742
-1.311676 -0.39391288 4.0076098
-0.04685773 -0.44796628 4.1455617
-1.2340913 -0.3372944 4.0983415
-1.2150389 -0.2974216 3.977659
-0.52675623 -0.0025833095 4.5708699
-0.99672991 -0.44012755 4.2159967
-1.3247101 -0.48796138 3.9167635
-1.3307506 -0.42528725 4.0476027
-1.3152993 -0.50989938 3.9621119
-1.3285919 -0.484153 3.9350238
-0.39826125 -0.19424912 4.5143118
-1.2249328 -0.042840824 4.4873509
-0.47559956 -0.14026707 4.6639013
-0.33422628 -0.97757798 4.2384534
-0.3250019 -0.93389982 4.2156701
-0.18169157 -0.68915302 4.2103958
-0.01226258 -0.37747085 4.4152079
-0.73357892 -0.50412726 4.2310915
-0.34977117 -0.65172702 4.3303928
-0.4131518 -0.50333124 4.3927388
0.21662177 -0.49092734 4.103425
-1.1938007 -0.32907355 3.9891481
-0.25005069 -0.81541252 4.2277527
0.24322887 -0.49821267 4.3074079
-0.46226427 -0.44612637 4.4132199
-1.0420227 0.34207574 4.2558494
-1.0751086 0.29001653 4.2405505
0.19308479 -0.37544972 3.9528434
-0.65765077 -0.46977517 4.3942361
0.1741928 -0.48337638 4.2677426
-0.1803906 -0.44030815 4.3587165
0.27293864 -0.49604779 4.0703759
-0.48228607 -0.46570468 4.3061891
-0.48007423 -0.46804485 4.3015032
-0.04553983 -0.43901542 4.1414003
-1.2767332 -0.33982959 4.0077915
-0.27507016 0.059039321 4.590394
-0.74141383 0.11037736 4.6762576
-0.42518428 0.14722128 4.6597862
-1.2796263 -0.21753936 3.9363012
-0.81795239 -0.32022649 3.9451303
-0.11880326 -0.65190053 4.1211762
-0.71232343 -0.40010315 4.0213633
-0.23358844 -0.55304146 4.3421755
-0.52007473 -0.51863927 3.7683022
0.07728558 -0.35501829 3.9710143
0.12620187 -0.39630461 3.9177401
-1.137066 0.19002348 4.6331558
-0.74202067 0.10448234 4.6779571
-0.52221423 -0.53015035 3.7603219
-0.31376803 -0.47910473 4.3895249
-0.44350627 0.10276017 4.6507955
-0.76048762 -0.0035388481 4.6685853
0.21151108 -0.3579286 3.966958
-0.77392977 -0.041142367 4.6330075
-0.27547672 0.077222675 4.5946741
0.089150272 -0.36819828 3.9510028
-0.45670781 -0.3302604 3.7628405
-0.73629481 -0.13869871 4.6872511
-0.35231221 -0.65285653 4.3325596
-0.47087026 -0.43190122 4.2118602
-0.26484871 -0.53692669 4.2532406
-1.3255877 -0.095946886 3.6809516
-0.53811085 -0.48266965 4.4025326
-1.3139576 -0.14964379 3.7442732
-0.52121449 -0.58916479 4.2567878
0.29647216 -0.33576316 3.8503468
-0.050557412 -0.56640857 4.0764513
0.29441494 -0.29214782 3.634753
0.29302642 -0.25471014 3.5797498
0.25325751 -0.29214385 3.6112616
0.2296969 -0.28929412 3.6050065
0.28732669 -0.24330886 3.5964622
0.34438789 -0.25996295 3.6425037
-1.0121247 -0.0068638646 3.2578485
-0.6771369 -0.4262546 4.3691864
-1.2890208 0.18754742 4.0714245
0.52098757 0.28340062 4.0166373
0.37639505 -0.03480313 3.2775068
0.41140738 -0.11557438 3.3853796
0.78723139 0.34869388 4.0083909
-0.6668613 -0.47781265 4.4116001
0.53804839 0.2691173 3.9821367
0.53561622 0.23980856 3.9918067
-1.1676555 0.10468008 2.9505882
-0.53733778 -0.45502922 4.3768911
-1.5349756 0.38026291 3.0007071
-1.1952212 -0.40152919 4.4240856
-1.5982974 0.32749429 2.3690758
-1.5857331 0.49029711 2.675081
0.49066541 -0.13670713 3.3632565
-0.089596838 -0.58277655 4.1735711
-1.2470381 -0.33302858 4.0931821
-0.5825246 -0.73911399 3.8550553
-0.47662407 -0.13073362 4.6664577
-0.41294178 -0.48491147 4.3747253
-1.2343308 0.36548135 4.1011553
-0.29488045 -0.60974628 4.3155613
-1.1508334 0.41129044 3.9756711
-0.76506281 -0.50038344 4.2983398
-0.25131646 -0.63907766 4.3319106
0.46326002 -0.18191551 3.499718
0.56939632 0.22327222 4.2378802
0.8195399 0.30886999 3.9804182
0.78483826 0.35060701 3.9834831
0.77467126 0.33726183 3.9913406
-1.5681798 0.48985252 2.7815635
-0.099007882 -0.623124 4.1226335
-1.2142924 -0.40762782 4.2215719
-1.2249801 -0.39659923 4.2079978
-0.66009396 -0.42833677 4.2062998
-1.2220647 -0.34998968 4.1167364
-0.12211398 -0.51604867 4.2099075
0.23632835 -0.49284953 4.2522984
-0.18841085 -0.63061702 4.3090677
-1.137569 0.14486124 4.6322961
-1.1334963 0.18058357 4.6331863
-0.45054969 -0.58681983 4.0951347
-1.1390157 0.1882405 4.599628
-0.32463312 -0.60408622 4.3511019
-0.28034809 -0.5827592 4.3503408
-1.222726 -0.28478622 3.9749348
-0.088794567 -0.61563563 4.0547566
-0.30666354 0.12009707 4.6417756
-0.47158629 -0.48543578 4.2838316
-1.3577758 0.21933463 4.4426365
-1.3561463 0.22201684 4.4370785
-1.3637342 0.24494316 4.4295177
-1.235045 -0.36170024 4.0329833
-1.2474587 -0.32278711 4.0128393
-1.3106018 -0.14226778 3.7271349
0.39368796 -0.17682408 3.5219624
0.14815766 -0.3773436 3.7540176
-1.2540022 0.28417131 4.1349282
-0.20764762 -0.5626002 4.2864656
-1.2072752 -0.20600799 4.4700327
-1.2832896 -0.40994596 4.1415009
-1.3125873 -0.3915424 4.0062976
0.3413758 -0.37910634 3.7259133
-1.2043997 0.32577342 4.1189313
-1.1558964 0.41129118 3.9863718
0.51749098 0.28005704 4.0182309
0.80268282 0.37959009 3.9667983
0.28048608 -0.10089021 3.2870057
0.30079484 -0.06752944 3.2360382
-1.4086756 0.19548571 3.2536705
-1.4239762 0.24385762 3.200212
-0.74476606 -0.058081474 3.0825377
0.54481161 -0.12771989 3.3715699
1.0710964 0.22784901 2.7801735
1.0829241 0.28716043 2.7987268
0.080321729 -0.38701069 3.7448218
0.4201152 -0.25020006 3.6448944
0.44555449 -0.16257772 3.5345955
-0.98071474 -0.11583813 3.289968
-0.77734083 -0.060838714 3.137248
-0.39119729 0.10431106 4.6554751
-1.3379526 -0.5424242 3.8324223
-1.3326091 -0.5489071 3.8401785
-1.2975093 -0.35599887 3.9867613
-0.7257188 0.06940981 4.7032237
-0.83931726 -0.2844575 3.8901861
-0.46015561 -0.39885205 3.7249973
0.17091328 -0.48764041 4.287322
-0.39912635 -0.30923447 4.4641156
-1.1416664 0.18578833 4.6277471
-0.1855894 -0.72014689 4.0314054
0.56192142 0.25215065 4.0821767
-1.2491338 -0.26943105 3.9819357
-1.0665535 0.30108285 4.2621036
-0.95218521 -0.14836961 3.5631804
0.54481083 0.25466713 4.0674987
0.28463915 -0.093421176 3.2761202
-0.97155219 -0.02118854 3.2574017
-1.0917263 0.38814026 3.92049
-0.6777879 -0.00097490719 4.4676895
-1.0091499 -0.44234458 4.2846813
-1.2120785 -0.25876379 3.868439
-0.52318293 -0.55688643 4.2875381
-0.13555291 -0.49961513 4.2750001
1.0634077 0.14066502 2.7777739
1.1190557 0.17271337 2.6956203
0.85931051 0.3229225 2.3254385
-0.25789216 -0.52941322 4.3642483
0.77234274 0.073846936 2.8898547
-0.12216141 -0.49054813 4.2505536
-0.76472431 -0.12932983 4.6074986
-1.2942024 -0.36452696 4.0393233
0.90189213 0.42647567 2.453423
3.1826608 2.3126349 -2.1240058
-0.36597219 -0.68044555 4.3132915
0.84483624 0.075694315 2.8634341
0.79818392 0.011556576 2.5862117
0.78262305 0.27003503 2.68207
0.86250615 0.33370641 2.3075616
0.53651893 -0.006640262 3.0751066
0.55566221 0.011750786 3.0458848
-0.013160747 -0.37860662 4.4153094
-1.2737992 0.19954154 4.0812063
0.4261511 -0.17721674 3.7019639
0.95056164 0.14696535 2.344641
-0.82750511 -0.25519788 3.760627
-0.27283114 -0.66620851 4.2964959
-0.27998331 -0.68317378 4.3096766
0.82916814 0.30138522 2.3539424
0.56892061 -0.002399436 3.0675812
-0.26602724 -0.52013361 4.3615313
-0.75453192 -0.10252192 4.6665716
0.20871274 -0.37264538 3.9821441
-0.25595227 -0.52582622 4.3624444
0.21065915 -0.23777653 3.6397913
