# .PCD v0.7 - Point Cloud Data file format
VERSION 0.7
FIELDS x y z
SIZE 4 4 4
TYPE F F F
COUNT 1 1 1
WIDTH 173
HEIGHT 1
VIEWPOINT 0 0 0 1 0 0 0
POINTS 173
DATA ascii
-1.2979704 0.21072416 3.1786327
-1.2633423 0.065737933 3.232898
-1.3859568 0.27659279 3.1409521
-1.3967406 0.3285521 3.0456798
-1.6846998 0.15111834 3.4511607
-1.494787 -0.042469494 3.5174236
-1.4370255 0.55777186 2.7236574
-1.5363488 0.064708367 3.5018158
-1.3068048 0.36270136 2.9495013
-1.0656625 0.27384594 3.0275376
-1.2200925 0.58294606 2.5317807
-1.2099754 0.3099924 2.9986703
-1.2385854 0.12483697 3.4020841
-1.4759587 0.36397657 2.989903
-1.3959352 0.3298735 3.0489001
-1.6045667 0.21226829 3.328511
-1.6263324 0.042900659 3.6376293
-2.2962625 0.35074294 3.1247013
-1.6033679 0.1265015 3.4310944
-1.37187 0.17351101 3.2646809
-2.3009655 0.29192224 3.229744
-1.3455173 0.42561507 2.8200974
-2.3035777 0.33183026 3.1314156
-1.0156268 0.22185756 3.0312192
-2.2991328 0.29238161 3.2299089
-2.261234 0.016646782 3.1599317
-1.2745706 0.52692217 2.6622355
-1.4331027 0.33187851 2.9990911
-1.279426 0.36865395 2.8074043
-2.3213003 0.085832044 3.0751359
-2.2596581 0.18357305 3.2887702
-2.1057332 0.33563733 3.4353282
-1.5987531 0.13035777 3.4341834
-0.87054819 0.6460371 2.289922
-0.87342852 0.64135385 2.2957447
-0.8542853 0.6426124 2.2960114
-1.5328506 0.072602324 3.4998298
-1.4667603 0.54081452 2.7221036
-0.85800219 0.73853117 2.1615806
-0.83614403 0.64599425 2.2987669
-0.68565172 0.51968205 2.4968152
-0.88095343 1.1167789 2.2425778
-0.46728843 0.86615181 1.9706117
-1.4771919 0.35535216 2.9994001
-1.9327877 0.10102219 3.6005192
-1.3062695 0.20858863 3.1752591
-2.3280563 0.095155612 3.0526841
-1.3337076 0.42329371 2.8396432
-0.91365296 0.59403127 2.3837795
-0.68352747 0.5245927 2.4927821
-2.2721829 0.038680539 3.2196553
-1.2235283 0.2996875 2.9967515
-0.72605574 0.36904839 2.7820425
-2.2975876 0.041904446 3.1450012
-2.3020554 0.056627121 3.1183045
-2.2425165 0.19712342 3.2952979
-0.85446453 1.4270854 2.3516057
-2.30722 0.28951538 3.0036304
-0.83563572 0.29398569 2.8225882
-0.96818304 0.56508952 2.4085944
-1.9358805 0.09918379 3.5986543
-2.2300198 0.16834651 3.3104661
-2.1944025 0.23362829 3.3554387
-2.1952085 0.23474206 3.3660944
-1.2703903 0.95039362 2.4757082
-1.1496245 1.0203059 2.4406905
-1.0121614 0.79395318 2.166276
-2.1576157 0.050112039 3.2344053
-0.85601741 0.56470037 2.4034579
-2.2472396 0.011502823 3.1822202
-0.73956907 0.51166683 2.5029073
-2.2788508 0.38096181 3.1193542
-0.9216994 1.5170625 2.2810643
-2.3296514 0.11621998 3.1347771
-0.97094488 1.4628737 2.2971792
-0.43113589 0.88824224 1.9491094
-2.3110323 0.17448957 3.2487757
-2.2605188 0.32322749 3.0773289
-2.3078432 0.035113942 3.1952906
-1.9272194 0.081748724 3.5945811
-2.3354897 0.15146065 3.1561191
-2.1721804 0.42697477 3.0505791
-2.2977335 0.29700562 3.2294149
-1.3947836 -0.26957607 3.2861359
-2.3317609 0.123845 3.1363628
-2.2625036 0.031492319 3.1346977
-1.4626925 0.53564501 2.710392
-2.3367248 0.13191083 3.0495229
-2.3024604 0.03855725 3.1439548
-2.3410013 0.077797331 3.1842091
-1.1966276 0.33138728 2.9824119
-1.3226222 0.49920949 2.6809933
-1.5563382 0.99899536 2.3997619
-1.5577979 0.99630648 2.3966169
-1.5332772 0.07003542 3.5008285
-2.1912 0.21034317 3.3512173
-2.0703752 0.24844722 3.4542232
-1.2571239 1.1152071 2.3843424
-1.1391997 0.34027687 2.8793201
-2.1843228 0.021308728 3.2041638
-1.2003558 1.0508435 2.2073476
-0.78472495 0.37907013 2.5707066
-2.3159237 0.13945095 3.1061001
-2.1278272 0.24005957 3.4241958
-2.223511 0.020607131 3.2944617
-0.86237246 0.25774965 3.0061889
-0.84517962 0.74265909 2.1536715
-1.9174203 0.086109675 3.5967529
-1.969126 0.082606949 3.6531239
-1.0376698 1.1357255 2.0587063
-1.5368811 0.076728985 3.5580549
-1.4695821 0.10525147 3.4138675
-1.5024488 0.18692951 3.2941301
-1.3212643 0.050416555 3.345958
-1.9524772 0.99678707 3.2577882
-1.9519409 1.0002738 3.2561243
-1.2558198 0.081023268 3.2237976
-1.9459697 1.0251209 3.1921771
-1.0131463 0.17067419 3.161237
-1.1382743 0.3416132 2.8855278
-1.4106755 0.026688477 3.3826947
-2.2950768 0.069186963 3.1022217
-1.2485148 -0.041903533 3.1735613
-1.2488656 0.08122436 3.2240064
-1.2613071 0.23462924 3.1613574
-2.3272381 0.1589886 3.073894
-2.2244606 0.0048349448 3.2603004
-1.3730755 0.38505009 2.7931354
-1.2985567 0.34627855 2.9170289
-1.3732036 0.34294909 2.954407
-1.1735481 0.20632836 3.2029595
-2.1954877 0.23114805 3.3562067
-2.2783437 0.048068196 3.1209371
-0.89911485 0.27968857 2.7759881
-1.0492754 0.36157724 2.7672048
-0.91668928 0.59260631 2.3904088
-2.2919486 0.062811144 3.1062543
-0.70360124 0.44737396 2.549166
-1.4178091 0.92601568 2.4878972
-1.1697422 0.58126068 2.4347537
-0.85949618 0.26433158 2.9985654
-0.82793653 0.27469182 2.9950471
-2.1968288 0.015111407 3.1697059
-0.99354225 0.79836023 2.0936699
-0.94148964 0.83407289 2.0684834
-1.0588286 1.0052321 2.0804358
-0.88187689 1.1213534 2.2449474
-1.0970142 0.45312989 2.6297374
-0.9928019 0.80970114 2.1757689
-1.4939222 -0.040002253 3.5135808
-1.1674725 0.19868973 3.1737695
-1.1280241 0.1916132 3.172004
-1.206055 0.19347864 3.2035279
-1.5921807 0.95722985 2.4292274
-1.5507491 1.0056143 2.3791897
-0.89875585 0.8918367 2.3330102
-2.069891 0.24712563 3.4541397
-1.224926 1.1484758 2.3706343
-1.6733605 0.16024578 3.4336636
-1.286678 0.21339504 3.1824081
-1.148949 0.50981182 2.5668042
-0.87277794 0.28872755 2.765471
-0.65202796 1.2064719 2.0817406
-1.5629672 1.1425885 2.4539628
-1.5451777 1.0114293 2.3912272
-2.274528 0.051056121 3.2219775
-1.0703984 0.9924702 2.0886993
-0.94368213 0.82792294 2.0443981
-2.0729587 0.25064993 3.4582698
-1.150565 1.0664942 2.1827178
-2.2905977 0.35895988 3.1285136
-2.0960026 0.17698078 3.5136864
-0.91870469 0.59262937 2.3902433
