# .PCD v0.7 - Point Cloud Data file format
VERSION 0.7
FIELDS x y z
SIZE 4 4 4
TYPE F F F
COUNT 1 1 1
WIDTH 213
HEIGHT 1
VIEWPOINT 0 0 0 1 0 0 0
POINTS 213
DATA ascii
-0.99252671 0.35759553 2.584372
-1.0285062 -0.3906109 3.3571427
-0.80661845 0.35154414 2.5311077
-0.99171317 0.35907122 2.5875225
-1.1811581 0.23489986 2.8777509
-0.98457849 -0.36164558 3.2850282
-0.9043203 -0.35345456 3.1442351
-0.81848353 0.34756097 2.5375266
-1.0339683 -0.43625027 3.3335671
-1.0313464 -0.43494982 3.3359339
-1.0302707 -0.39271453 3.3577096
-0.9006837 -0.3524113 3.1426244
-1.1655594 0.1569249 2.9853909
-1.0932742 0.10626879 3.0501759
-1.0671742 0.38124743 2.5385263
-0.51691347 0.77921963 1.6700534
-0.94392937 0.45040447 2.3735995
-1.093528 0.10339738 3.0535042
-0.8194136 0.340206 2.5299745
-0.33625442 0.43975732 2.2953756
-1.483723 0.088962033 3.1589801
-1.1865007 0.15663706 3.0198939
-0.92742234 0.52699053 2.2199965
-1.4529289 0.068136171 3.2209082
-1.4846065 0.078247063 3.3484764
-1.7484046 0.10500199 3.2144876
-1.227046 -0.04013988 3.2799904
-1.5246352 0.072899908 3.3297856
-1.3918551 0.82114756 3.2201142
-1.145358 -0.25297984 3.3650336
-1.0917478 0.11146315 3.0588455
-0.96786821 -0.43081418 3.4671102
-0.99585688 -0.43552941 3.2871189
-0.89793313 -0.3100062 3.1677318
-1.0029588 -0.22915608 3.2933908
-0.99751401 -0.47119626 3.2430961
-1.0358289 -0.3882221 3.3716342
-0.90826523 -0.37771836 3.1322582
-1.0355927 -0.3946588 3.3611126
-0.90324211 -0.35037366 3.1419721
-0.93582028 -0.33281103 3.2215865
-1.2695435 -0.007880507 3.4771709
-0.99261177 -0.36419085 3.2887709
-1.1485827 -0.089820392 3.5425148
-1.3084859 0.0097464221 3.4551678
-1.3769057 -0.049083233 3.3751585
-1.4853165 0.084146537 3.1636715
-1.0613275 0.0083304849 3.0954111
-0.91720819 -0.047578696 3.6806078
-0.91627067 -0.044932876 3.680851
-1.1577849 -0.2610009 3.3676527
-1.0455166 -0.0026547704 3.0656409
-0.97373968 -0.35871658 3.2759662
-0.96979582 -0.3738842 3.2581453
-0.92177701 -0.43832242 3.1158271
-1.0727733 -0.10720431 3.5803208
-1.0784112 0.11812311 3.0380139
-0.47057673 -0.26731661 3.7860043
-0.49053562 -0.23463646 3.711369
-0.87771404 0.086573288 3.0818996
-1.0335318 -0.25395119 3.0270731
-1.7380837 0.12721106 3.2232802
-1.1763291 -0.17369871 3.3830383
-1.1415672 -0.026451876 3.3967006
-1.0435667 -0.38900515 3.3744578
-1.1294169 -0.25557342 3.3552935
-1.2012689 -0.037979834 3.440773
-1.0350019 -0.28691143 2.9725635
-0.89364129 -0.23958257 3.5939395
-1.2734195 -0.018625164 3.4719007
-1.0096618 -0.43853822 3.2850621
-1.2465452 -0.024174128 3.4116013
-1.0018495 -0.44606924 3.2634459
-1.2116166 -0.035159077 3.3162377
-1.2259827 -0.035909574 3.2759259
-1.1424556 0.11340118 3.0302594
-1.0722276 -0.11088381 3.5764024
-0.98492968 0.18650647 2.8529956
-0.97613382 0.11399693 2.9770863
-0.87228167 0.18445174 2.9346988
-0.97031868 0.21341743 2.8084233
-0.37039459 -0.24866538 3.5729859
-0.40883881 -0.25948909 3.559962
-0.33130807 -0.30820897 3.612541
-1.4926921 0.081127122 3.1653671
-0.99060965 -0.12336266 3.6154742
-1.2260549 -0.04013969 3.284344
-1.1790867 0.14731875 2.9994464
-1.2078768 -0.062274918 3.5076675
-1.0224569 -0.27164033 3.5275211
-1.2048905 -0.06519714 3.5087152
-0.71530807 0.30325431 2.5606475
-1.4623876 0.049642008 3.2191601
-1.041757 -0.43803373 3.3415642
-1.2392635 -0.04016709 3.4396787
-0.70003772 -0.083263613 3.8174026
-1.0474974 0.23801957 2.7965412
-0.95251292 0.15308522 2.9901924
-0.97020835 0.19828923 2.8452137
-1.070639 -0.10846267 3.5812759
-0.52739775 -0.24242757 3.7221105
-0.95061374 0.27886578 2.7520366
-0.50932872 -0.23279193 3.719841
-0.90173209 -0.23916444 3.5942397
-0.33189702 -0.21006037 3.6542389
-0.33015013 -0.30957118 3.6159821
-0.68462878 0.37347496 4.0290089
-0.94292235 0.43486434 2.2836392
-0.88315547 0.26065862 2.7070456
-1.2403783 -0.045060914 3.357249
-0.91124862 0.34690028 2.4635046
-0.68246102 0.34102806 2.5468791
-0.30900466 0.27388752 4.2263002
-0.27336353 0.51063877 2.013659
-1.0363541 -0.43650296 3.3312879
-0.47287688 0.62982178 1.9086547
-1.181604 -0.17283408 3.3733144
-1.0605284 -0.36905375 3.4540632
-0.994515 -0.13494171 3.6134527
-1.0672257 -0.55075413 3.344954
-0.82910192 0.59203106 1.9804647
-0.6524682 0.31017804 4.0072227
-0.63935429 0.3138313 4.0071759
-1.5234485 0.079849713 3.3413727
-1.1589898 -0.068788029 3.4893112
-0.56901282 0.48309046 2.2395933
-1.0649992 -0.54934371 3.3453739
-1.3039219 0.0036352305 3.4512994
-1.2450576 -0.023571849 3.4113402
-1.2079196 -0.068584502 3.5110037
-1.0916166 0.13914634 3.0591447
-1.1478043 0.10620548 3.0349617
-0.67773879 -0.14507477 3.7914221
-0.68500876 -0.14914024 3.7914124
-0.89604384 -0.004028352 3.2647669
-0.80421412 0.027949084 3.0241251
-0.81019133 0.06532187 3.048692
-0.93280399 0.19151059 2.9568474
-1.0271143 0.15356584 2.9557095
-0.9682197 0.12558301 2.9739132
-1.0787235 0.39032555 2.5422657
-1.3177962 0.00054003979 3.45803
-0.39308214 -0.31428552 3.6054318
-0.74531597 0.25004816 2.7965927
-1.0954502 0.31697306 3.7558136
-1.0994236 0.21510151 2.8714702
-0.89192182 0.16164622 2.944581
-0.80428153 0.15847115 2.746907
-1.2771436 -0.018706109 3.4681177
-1.3077601 0.00042625988 3.4536824
-0.38068116 0.58849752 2.0539191
-1.019559 -0.27052069 3.5294499
-1.3005816 -0.00099840306 3.4494333
-0.30015764 0.5856421 1.7757095
-0.91399652 -0.040290155 3.6830599
-0.68986428 -0.18788572 3.7628291
-0.68989134 -0.19012386 3.7643888
-1.0376878 -0.45425287 3.3263512
-1.0345448 0.14455391 2.9591348
-1.0973878 0.21689396 2.8723834
-1.1350507 -0.25638205 3.3568056
-1.0876135 0.32529923 3.7599862
-1.0358689 -0.39390898 3.361166
-0.98461956 0.21123949 3.7602987
-0.98809093 0.22674853 3.7717791
-1.0255201 -0.25117457 3.0203123
-0.97791898 0.19175276 2.8500862
-0.91111803 0.16968228 2.9401479
-0.99941063 -0.18721195 3.5869925
-1.1179624 -0.23741412 3.3236096
-1.0397658 -0.43650848 3.3417275
-0.9105944 0.3568449 2.4561832
-0.82107216 0.34092876 2.5301862
-1.6821089 0.16469051 3.2504203
-1.0078322 -0.22741269 3.3072109
-1.0172234 0.1237273 3.1086967
-0.48889571 0.30498239 2.3488455
-0.3058058 0.27795509 4.2311578
-0.51481616 0.32407087 2.3047216
-0.22627674 0.78332233 1.9298182
-0.55786991 0.56642991 2.0687172
-1.3377216 0.0073363725 3.3429611
-0.26783612 0.46286523 2.2517154
-1.1779267 -0.034124043 3.4264455
-0.90068942 0.24043989 2.7471557
-0.2951833 0.31847799 4.2554264
-0.26717916 0.30314478 4.2099495
-0.26294065 -0.28852287 3.5517015
-0.56841183 0.49542883 2.2240772
-0.73873502 0.28609079 2.5785747
-0.51400995 0.32477954 2.3061988
-0.32980052 0.26633784 4.1862664
-0.29343814 0.2924642 4.1851053
-0.3936539 0.70200819 1.83266
-0.19763067 0.52707183 2.1790996
-0.96136856 0.26677591 2.7936502
-1.0475695 0.10168194 3.1207502
-0.05975588 -0.19136301 3.5635104
-0.35180798 -0.19856101 3.6222088
-0.34594586 -0.20229624 3.6212575
-0.37400201 -0.29036793 3.571455
-1.5014569 0.082340598 3.3392096
-0.83477837 0.042116858 3.0503368
-0.70176983 0.30042008 2.7123387
-0.30965653 -0.27970853 3.6554379
-0.92110443 -0.39723045 3.1260633
-1.0598764 -0.36929807 3.4539616
-0.97802871 0.21372911 3.76895
-0.96234345 -0.11346862 3.6206501
-1.1361485 0.17659594 2.9370854
-1.7439333 0.11830905 3.2250757
-0.88747346 -0.15916802 3.600337
-0.74495685 0.24241078 2.7207088
