# .PCD v0.7 - Point Cloud Data file format
VERSION 0.7
FIELDS x y z
SIZE 4 4 4
TYPE F F F
COUNT 1 1 1
WIDTH 615
HEIGHT 1
VIEWPOINT 0 0 0 1 0 0 0
POINTS 615
DATA ascii
-0.024939781 -1.1190369 2.848989
-0.0052805929 -0.3955811 2.8875768
-0.75111413 -1.0803355 3.0777974
0.13341677 -0.23647112 2.6203463
-0.1825598 -0.45838031 2.9906108
0.0030801827 -1.1984268 2.9428439
-0.42361742 -1.140746 3.208704
-0.38886145 -0.36253244 2.8425598
0.14037421 -0.36888602 2.8038311
0.019262055 -1.2604862 2.9037657
-0.86361462 -0.50641656 2.9654317
-0.93286413 -0.85924411 3.6136858
-0.46804032 -1.0587645 3.0661836
0.24246746 0.42636809 2.8190651
0.49267408 0.52088875 2.6086686
0.29247642 0.43204153 2.7415669
0.94818181 -0.66692126 2.5021889
0.91628325 -0.50087988 2.5969849
-0.0044590873 -1.0450503 3.0754619
0.82664984 -0.60238212 2.646138
-0.041157193 -0.40616927 2.8898463
0.21509326 -0.45152122 2.9422162
0.81139475 -0.52710938 2.6749504
-0.43028039 -0.40672544 2.9067307
0.76794696 -0.46529394 2.848805
-0.29788932 -0.40403679 2.9016902
-0.26758048 -0.48566246 3.0246937
-0.43401685 -0.54066712 3.0923207
0.037342779 0.36115438 2.9415565
-0.020910857 -0.48712963 3.0162258
-0.75183141 -1.0805101 3.0783796
-0.34757006 -0.33601096 2.7966366
-0.8271938 -0.4904277 2.9675581
0.91539663 -0.092270918 2.4057424
-0.86847478 -1.1437802 3.1041172
-0.90329123 -1.2513487 3.3636334
-0.52974212 -0.85565186 3.0580463
0.025906114 -0.26524517 2.6689157
0.79038924 -0.68006963 2.7216303
0.80053031 -0.35381958 2.7705541
0.29722926 -0.57751971 2.9089789
-0.46291688 -1.0674176 3.0470397
0.78741032 -0.20395555 2.4127505
0.81656808 -0.39768159 2.7000604
0.71030688 -0.46941027 2.8813698
0.35638091 -0.36557075 2.7598295
0.77306032 -0.2386881 2.4822609
0.099891052 -0.23006848 2.5674906
0.27310145 -0.27112752 2.5859609
0.058726192 -0.94580489 2.9519055
0.8275044 -0.60072571 2.6487732
0.67205977 -0.6165356 2.8453569
0.81243926 -0.39002728 2.7724881
-0.0032331271 -1.1356958 3.0036407
-0.0013544993 0.3918891 2.8987846
-0.86003327 -0.4641611 3.0106051
-0.021657567 -0.48454154 3.015552
-0.45807093 -0.40365696 2.9042659
0.66226172 -0.64880133 2.904597
-0.82929891 -0.54442716 2.9278638
0.040047824 -1.1989665 2.8269832
0.027862471 -1.1069914 2.8445802
0.027862471 -1.1069914 2.8445802
0.21535793 0.35919812 2.8610559
0.098839313 -0.23518696 2.5669651
0.99266964 -0.4615441 2.6360276
-0.22335526 -0.40007013 2.8978984
0.23186906 -0.32408664 2.6548047
0.83676678 -0.48519957 2.6868551
0.82350963 -0.34559944 2.6986408
0.79340136 -0.35580868 2.7285624
0.0044011297 0.39186534 2.9031062
0.30757868 0.35736287 2.7438967
-0.41563094 -0.82207042 3.0021031
-0.53188729 -0.85258037 3.0584626
0.02370809 -0.2697143 2.6670182
0.92012888 -0.50338292 2.5979524
0.23947074 -0.43188497 2.914505
-0.45539424 -1.1995593 3.1936157
-0.012053569 -0.95934439 2.9029853
-0.0048463796 -1.0086269 2.9263697
0.86328971 -0.43979779 2.6515679
0.85001117 -0.64942235 2.5787768
0.36554575 -0.39233118 2.7812371
0.28907436 -0.58058667 2.9073448
-0.56361431 -0.86088133 3.075393
0.26967925 0.25807592 3.1284547
0.27638912 -0.28218392 2.5899005
-0.92283416 -1.2754823 3.0713799
-0.43746194 -0.54513484 3.0938332
0.45627505 0.5622102 2.6440907
-0.4679696 -1.1682674 3.0070672
-0.040382389 -0.40546614 2.885546
-0.33282852 -0.32948351 2.7753277
0.67241532 -0.57039219 2.8735058
0.74960279 -0.24046557 2.4678257
0.795555 -0.65495491 2.7797563
0.12321615 -0.40502214 2.8919506
0.34187075 -0.44237557 2.9465072
0.80231571 -0.61681235 2.739126
0.79298663 -0.36370516 2.7733023
0.66014177 -0.51237935 2.9118438
-0.040035002 -0.8401702 2.8046451
-0.46344501 -1.3434011 3.116601
-0.5755319 -0.85970354 3.0737107
-0.76900786 -0.48417264 2.9481843
-0.32979745 -0.33226404 2.7793767
0.68040413 -0.57120895 2.8894618
0.82258707 -0.6509912 2.5645177
0.81158346 -0.53420305 2.6752501
-0.90159476 -1.1607761 3.2375534
0.0012938575 -1.1358006 2.999413
0.82018304 -0.35228863 2.6930351
0.80130011 -0.65965128 2.7794933
0.8057555 -0.36474082 2.7861927
0.29112309 -0.58183897 2.9146943
0.65320456 -0.4938769 2.9354982
0.10303921 -0.23461704 2.5762632
-0.63220519 -1.2176 2.9718757
-0.050654624 -0.37875149 2.8417096
-0.466194 -1.1713889 3.0083058
0.082234085 -0.29766467 2.6868126
-0.82884318 -0.49548101 2.9617505
0.69851345 -0.15182345 2.4616063
0.71020055 -0.50985336 2.8444571
0.67133158 -0.62174797 2.8506656
0.20137545 -0.45057809 2.9240134
0.73681951 -0.23832726 2.447767
0.87014985 -0.46404833 2.6412747
0.33469066 -0.7439878 2.9848342
0.017201815 -0.27612278 2.6549394
0.82343823 -0.53707343 2.6793466
0.81194133 -0.59433675 2.6462235
0.35790217 -0.48028967 2.9276595
0.25468352 -0.3275972 2.6445463
0.23212379 -0.4445768 2.8906822
0.66627949 -0.62423867 2.8509643
0.0066687111 -1.1389718 2.9956684
0.0066687111 -1.1389718 2.9956684
0.79291743 -0.61496246 2.743
0.7400375 -0.36284631 2.7236135
0.76864004 -0.44096956 2.848726
0.74158347 -0.15407524 2.4664536
0.21373649 -0.13156861 2.5059121
0.79410464 -0.67610365 2.7688403
0.097233243 0.026292142 2.5670056
0.097233243 0.026292142 2.5670056
0.33599329 0.35660458 2.7287731
-0.29649666 -0.4117319 2.8986011
-0.75214016 -1.2150996 2.9977541
-0.89213312 -1.1631173 3.0927584
-0.81889343 -1.2320275 2.9921627
-0.38537771 -0.37921521 2.8723896
0.23074049 -0.45486712 2.9391189
-0.90076178 -1.2441556 3.3691227
0.31488943 -0.43758279 2.9151521
-0.83254886 -0.55839318 3.0711823
-0.92697376 -1.3092704 3.1070416
0.80659854 -0.58133483 2.8042681
-1.2091628 -0.5563724 3.1754918
1.0929496 -0.3099589 2.6684248
-0.35227859 -0.34275022 2.8009493
-0.34614983 -0.34876665 2.8356168
-0.4865182 -0.84268171 3.0397322
-0.79076791 -0.73101449 3.3626261
-0.28715566 -0.45691836 2.9804165
-0.82925934 -1.3302135 3.0716448
-0.40983585 -0.56192881 3.0800364
0.12482199 -0.25188455 2.6039844
-0.42269588 -1.2689385 2.9579041
0.22705117 -0.3492066 2.697298
-0.82950222 -1.1028678 3.1052759
-0.23991193 -0.40016448 2.8956711
0.0015432877 -1.195691 2.9393008
-0.037760399 -0.49091363 3.0114672
0.011053288 -1.062705 3.0437284
-0.75630343 -0.43486711 2.962049
-0.44130361 -1.1676449 2.970587
-0.46164891 -0.40181139 2.9022977
-0.76175439 -0.48395681 2.9443738
0.24677759 -0.32356986 2.6492393
-0.90627778 -1.1655195 3.1710522
0.043128923 -0.94882852 2.9569223
0.3445735 -0.38820478 2.7711766
-0.78343862 -1.0934024 3.1050181
-0.11819224 -0.53579342 3.0423765
-0.0081691835 -1.1907454 2.8077927
-0.92574364 -0.50111634 3.9213262
0.049013503 -1.1328049 2.9388044
-0.82962662 -0.6065169 3.0443959
-0.030537862 -0.23511399 2.6168141
-0.119271 -0.80719215 2.8774378
-0.27083436 -0.38700923 2.8800676
-0.59185797 -0.64895594 3.1471114
-0.5297879 -0.84964079 3.0629356
1.1202834 -0.70605528 2.5780571
0.80426967 -0.47230276 2.768482
0.61775815 -0.6036213 2.8814626
0.75669962 -0.42413366 2.8879514
1.1751122 -0.43138522 2.6453702
-0.52037871 -1.1534511 3.2077701
-1.0592676 -0.44644397 3.9522407
0.80800349 -0.47969618 2.7272384
0.2253034 -0.5673272 3.007169
-0.62594044 -0.64338231 3.1227014
-0.87645358 -1.1429701 3.1042044
-0.74337512 -0.58956534 2.9339657
0.6645897 -0.4457958 2.9427679
-0.78696036 -0.62839711 2.9879961
0.79385489 -0.50990123 2.8625965
0.91281968 -0.53275669 2.7086105
-0.8100028 -1.154593 3.0097737
-0.68942761 -1.182484 2.9775081
-0.87597966 -1.2002295 3.0358419
0.62147093 -0.53236389 2.9166377
-0.75757015 -1.0898153 3.0478711
-0.43283066 -0.83416653 3.024492
-0.8245483 -0.57989007 3.0150948
0.37114099 0.35471657 2.875133
0.71154219 -0.45205593 2.9115071
-0.67516905 -0.63966727 3.0588536
0.19235925 -0.34780851 2.6830983
0.80146319 -0.48167673 2.721211
0.83356118 -0.32190561 2.6728504
-0.016404128 -0.87385231 2.8288977
-0.036522932 -0.84342176 2.7966578
0.80183756 -0.21859919 2.4513152
0.78349918 -0.21564597 2.4869394
-0.85853714 -1.4111751 3.1803319
0.32195505 0.44767344 2.7397811
0.26071441 -0.51900351 3.0092747
0.4619424 0.52795106 2.6944256
-0.89436865 -1.0839382 3.1747706
0.90753317 -0.50285578 2.5961175
-0.75620019 -0.59376287 2.9284692
0.81136924 -0.43005475 2.7534847
-0.88862294 -1.1443318 3.129055
-0.88862294 -1.1443318 3.129055
0.77307057 -0.69829661 2.7629945
0.97979903 -0.7089389 2.5961225
0.7320829 -0.45286915 2.9191332
0.5750289 0.32691452 2.9182677
-0.4675695 -1.0674999 3.039542
-0.81967872 -1.3296083 3.4992552
-0.87256086 -1.294763 3.0031059
-0.42123869 -0.38606814 2.875931
-0.68189651 -0.67348319 3.3797932
-0.43248868 -1.353243 3.1500907
-0.85446477 -0.56297779 2.9895821
0.10495522 0.030914277 2.6155362
0.12746122 -0.30560437 2.6875296
-0.76160729 -0.53872138 2.9199815
0.37484545 -0.20803395 2.5716825
0.36468488 -0.20753351 2.566704
0.14857331 -0.34340718 2.7590837
0.05210134 -0.911991 2.9132872
0.075014547 -0.35085967 2.7089837
-0.46820316 -1.1758541 2.99106
-0.93939775 -0.81033343 3.6099286
-0.93594629 -0.81407553 3.6176913
0.22730628 -0.53880906 2.9618359
-0.86522001 -0.49408102 3.0016949
-0.75367922 -0.59467638 2.9325733
0.3540177 -0.39249352 2.7750518
-0.86983049 -0.72719193 3.8777833
0.77940828 -0.56538343 2.777549
-0.83078402 -0.5344888 3.0455964
0.63267058 -0.50979096 2.9149539
0.96553832 -0.72177732 2.7339706
0.94758701 -0.73481172 2.6215832
0.28945386 0.14205569 2.6926966
-0.083143331 -0.93435997 2.9057298
0.020276152 -1.0514636 2.9366257
-0.12935461 -0.42236808 2.9266465
-0.45077407 -1.1640764 3.2065742
-0.11965944 -0.42086419 2.9305992
-0.45655218 -1.1019779 3.035239
-0.91863602 -1.1950535 3.1894469
-0.81991923 -1.2304337 2.9897897
-0.01593994 -1.0109966 2.8936119
-0.84032309 -0.54059184 3.0445683
0.63543367 -0.19980249 2.585361
-0.90810537 -1.1129225 3.4426439
0.30432782 -0.38349834 2.7518492
0.23268665 -0.33818287 2.6969001
-0.057806939 -0.88437063 2.8753836
-0.44660684 -1.2655485 3.1410277
-0.84237528 -1.2155509 2.9560943
-0.46669811 -1.062739 3.0673029
-0.31269327 -0.31653333 2.7549849
0.66941112 -0.561553 2.8981261
0.97397238 -0.72158015 2.7354002
0.67592818 -0.47229809 2.8924124
0.030098507 -0.2584565 2.638036
0.030098507 -0.2584565 2.638036
0.93628126 -0.28377441 2.7214663
0.14848439 0.21750782 2.5362265
-0.87155735 -1.3087811 2.9669824
-0.90632474 -1.2710387 3.0425715
1.0733224 -0.31832951 2.6557629
0.068206526 -0.21919188 2.5966558
-0.44426313 -1.0190793 3.1062746
-0.94758415 -0.80652022 3.5950952
-0.85192776 -1.1460131 3.2612178
0.11023012 -0.30414119 2.6561399
-0.26949692 -0.45788097 2.9647455
0.0089000911 0.38395244 2.9383705
0.57619321 -0.28230661 2.6134782
-0.93289888 -1.2248253 3.1366343
-0.35201204 -0.41656548 2.9231286
-0.84057528 -1.4087409 3.1252279
-0.4600186 -1.14209 3.0120358
-0.85093331 -1.1408151 3.2553511
-0.94187951 -0.73259062 3.6896391
-0.76280397 -0.53504187 2.9110534
0.82663828 -0.44645521 2.6888256
0.35011217 -0.3961837 2.7747836
0.016555887 -0.9911052 3.0722861
-0.74059016 -0.9030813 3.667881
-0.87504512 -0.91689593 3.3047762
-0.84328336 -1.2240554 3.5395751
-0.60986692 -0.55457544 3.0140085
-0.92354876 -0.84282488 3.5998924
-0.45078564 -0.74627715 3.0719795
-0.30433449 -0.93879819 2.9473462
-0.8154552 -1.3821453 3.0765462
-1.21158 -0.55030477 3.1777408
-0.71734375 -0.90862346 3.6963232
0.23973335 -0.36655098 2.7549648
-0.87224537 -1.0073414 3.6025527
0.13306396 -0.40710333 2.8912148
-0.020703664 -1.1570913 2.8261211
-0.79338133 -0.62915236 2.9764972
-0.94416308 -0.75276119 3.6976511
-0.95792824 -0.75038165 3.6565657
-0.46727759 -1.262063 3.1252663
-0.9898389 -0.77769858 3.5259757
-0.80556387 -1.3363739 3.1030803
-0.44351098 -1.1628237 2.9857056
-0.39463997 -0.97856927 3.0276468
-0.94387573 -0.6048556 3.7695105
-0.31346184 -0.4095225 2.8964479
-0.019810846 -1.034741 2.891583
-0.51648325 -1.089447 3.1980581
0.14489236 0.08485961 2.5849278
-0.90447497 -1.2409152 3.0457752
-0.7164529 -0.27541244 2.6370659
-0.57755852 -0.63714796 3.2579591
-0.58873659 -0.63972384 3.257885
-0.94245088 -0.60583985 3.7824614
-0.016682172 -1.0387448 2.9205618
-0.91702372 -0.98867118 3.5370615
-0.79067171 -0.84905082 3.5938978
-0.86605769 -1.296862 3.0113323
-0.87272555 -1.2620922 3.3959441
-0.7250737 -0.62259495 2.9790936
1.0017036 -0.70112252 2.6883073
1.0931598 -0.73701942 2.6820803
-0.4452464 -1.1388739 3.0160286
0.95362425 -0.70152783 2.68277
-0.93495828 -0.59658867 4.1291366
0.54592246 0.31609887 2.893647
1.0332453 -0.70586461 2.5081577
-0.87250084 -1.2001354 3.0386693
0.11918356 -0.31338471 2.6945167
-0.90857822 -0.54984736 3.9665554
-0.060733978 -0.4712972 3.0103498
0.092662096 -0.35383454 2.6085756
-0.90389633 -1.340957 3.1591291
0.37002802 -0.20780601 2.5696509
-0.82422543 -1.1035455 3.112272
0.23147424 -0.56436431 3.0082304
0.23517948 -0.44764972 2.9035373
0.70852733 -0.15880214 2.480175
0.5941534 -0.2744616 2.6806762
0.87252975 -0.61688918 2.5727565
0.99237645 -0.58698791 2.6536474
-0.90142024 -1.1854514 3.1234245
0.47503582 -0.69111073 2.9524899
0.63336408 -0.48934373 2.9232769
0.30503109 0.35206133 2.7417319
0.41887748 -0.53778309 2.9450543
0.87933391 -0.71053886 2.5306785
0.96045172 -0.6997062 2.5399761
-0.92739505 -0.85916519 3.6039109
-0.46701118 -1.0869666 3.0498171
-0.93385482 -0.81231284 3.6165838
-0.48399878 -0.84464455 3.0403297
-0.61182445 -0.76537162 3.1327939
0.046884149 -1.113818 2.852545
-0.90176994 -1.3084214 3.0434668
-0.7924251 -1.0014584 3.194309
0.27466005 -0.58333457 2.9303212
0.36846772 0.37157437 2.8706393
-0.0087328292 -0.53620356 2.9670606
-0.86552691 -0.60549712 3.9695776
-0.86561054 -0.59161747 3.9770403
-1.0014243 -0.47568601 3.0192196
-0.8641699 -1.1793594 3.1200817
-0.85268348 -0.53296393 4.1047425
0.79000014 -0.62623322 2.5572946
-0.4385882 -1.1473877 3.0009556
0.29221079 0.30926874 2.8403132
-0.97857738 -0.64727348 3.3024178
-1.1207271 -0.50384194 3.1674919
-0.53889269 -1.0012509 3.0399966
0.017557817 -1.2513072 2.9022195
-0.71101987 -1.110605 3.0160275
-0.8934989 -1.3326246 3.0484726
-0.97240949 -0.36217189 3.9160972
-0.0065786759 -1.207087 2.7765362
-0.82745248 -1.381451 3.1118333
0.4276306 -0.19451459 2.5893624
-0.87964839 -0.92405009 3.2998409
-0.96169019 -0.50078374 3.8425758
-0.90223897 -0.57420081 4.1108894
-0.91056353 -1.2509166 3.0153484
-0.95117766 -0.60081828 3.9809477
-0.73163724 -0.62010878 2.9748495
-0.44544199 -1.022179 3.1382544
-0.40342274 -0.39320159 2.8801835
-0.52226681 -1.0280856 3.1233592
-0.46200913 -1.1695769 2.9969101
-0.86560327 -0.71875829 3.8954525
-0.44886026 -1.1653595 3.2105474
-0.36301178 -0.4513306 2.9682636
-0.62608576 -0.64789164 3.1981804
-0.4570145 -0.55769479 3.0815923
-0.25847033 -0.41399968 2.9850986
-0.85748339 -1.1682125 3.2039123
-0.9264726 -0.99548048 3.5240738
-1.060868 -0.44456285 3.9459448
-0.40091321 -1.2629035 3.0063629
0.051344357 0.049950261 2.5030313
-0.2269427 -0.44171289 2.9488437
0.24109517 0.14949746 2.5569673
-0.43087342 -1.2403876 3.0026116
-0.25171655 -0.50525123 3.0511525
-0.76861984 -1.2014159 2.9749415
-0.029625271 -0.90310234 2.9484556
-0.012335048 -1.1604489 2.9620135
-0.81592482 -1.1534815 3.0047424
-0.77757096 -0.43144742 2.9511273
0.30285498 0.28696188 3.0938437
0.67102051 -0.57235914 2.8745298
0.60058159 0.34699351 2.9197648
0.88569599 -0.44518897 2.6268415
0.8091023 -0.66126978 2.79966
0.94716579 -0.74392593 2.6467059
1.3240565 -0.68407923 2.564182
0.59168071 0.33409166 2.9170992
0.87191832 -0.53042781 2.8608758
0.22596993 -0.33886313 2.6907482
-0.87871408 -0.72956878 3.4282198
0.13940686 -0.37073481 2.8046699
0.12843937 -0.40743309 2.8902171
-0.77396411 -0.53663343 2.9115942
-0.78608882 -0.628012 2.9876955
-0.16221622 -0.44737935 2.971138
-0.86840987 -0.5822475 3.9892554
0.15510502 0.086324893 2.5927806
-0.091276817 -0.41651171 2.911423
0.19961859 -0.29831541 2.6237063
-0.0013964816 0.38727367 2.9318764
0.01675977 -1.1205254 2.8274066
0.23953839 -0.5464077 2.9540007
0.81860209 -0.52843589 2.6804223
-0.43764508 -1.1025763 3.0392869
-0.81641364 -0.54313713 2.9308236
-0.21496554 -0.41217375 2.8936527
0.091731749 -0.24135637 2.5579762
-0.0090552028 -0.37346211 2.8485327
-0.25351197 -0.50171739 3.0504878
-0.17727728 -0.45373458 2.9863262
0.078470781 -0.29753807 2.6900322
0.76264578 -0.4923768 2.8318903
-0.0352173 -0.37535524 2.8272369
-0.90615088 -1.2333922 3.0656044
0.2417094 0.41619647 2.8126323
-0.92887342 -1.3331169 3.1245804
-0.92210752 -1.2071559 3.0943363
-0.81957036 -1.3261753 3.49663
-0.88950521 -1.0992293 3.2115207
-0.93695712 -0.81249624 3.614572
0.14724037 -0.34462878 2.7583361
0.0081167864 -1.1775912 2.9811184
0.16803201 -0.32611358 2.6652277
0.23046336 -0.3253994 2.6532917
-0.95307326 -0.69889379 3.5089061
-0.91228008 -1.1169611 3.4344149
-0.85472161 -1.0144451 4.0594091
-0.79202163 -1.3828883 3.9450297
0.10179343 -0.2723389 2.6908913
0.41052827 -1.0676206 3.8702912
-0.83811975 -1.072207 4.0649524
-0.38497108 -1.1256335 4.0764222
-0.0021024719 -0.92374563 3.7599719
0.27374882 -1.0168014 3.9254878
0.072254345 -1.0459108 3.9133272
0.081954673 -1.0151739 3.8597159
0.01784529 -0.81494498 3.573087
0.43895879 -0.95334029 3.6791031
0.39770809 -1.0003901 3.7519138
-0.01647957 -0.94677609 3.7905023
0.13953863 -0.82043654 3.6047428
0.42388293 -0.68377179 3.2925048
0.8078205 -0.78064948 3.4912002
0.7409395 -0.75138891 3.4231591
0.60033941 -0.86075145 3.6901915
1.0524087 -0.67719895 3.142895
1.1055329 -0.6496824 3.2679815
0.56311387 -0.87178618 3.6742783
0.70696682 -0.79335088 3.2967443
1.1734591 -0.82311565 3.7450933
1.1700622 -0.69331145 3.3937869
1.290544 -0.89431006 3.8655756
1.4309639 -0.56857359 3.1189299
1.0597227 -0.74283421 2.7661393
1.1923949 -0.73644966 2.6808105
1.1211644 -0.67041594 3.3616393
-0.081845619 -1.164278 4.4959292
1.4728329 -0.80035549 3.5580144
0.68699944 -0.89115226 3.6806848
1.5865088 -0.88974214 3.6992998
1.3603275 -0.42458624 2.9556735
0.75276023 -0.14259827 2.4844344
1.2277158 -0.18424137 2.8045139
0.57987249 -0.91488713 3.6496263
1.0785766 -0.32905492 4.0772696
1.2324708 -0.33034831 4.0767584
0.49142876 0.51001787 2.6623411
1.2780615 -0.40633255 4.0483327
1.462783 -0.65100574 3.3020384
1.0201056 -0.76977879 2.7751701
-0.1455317 -0.96776915 3.8069096
1.0810903 -0.4559783 2.6585464
0.9289028 -0.14766073 2.4499562
0.30018196 -0.59851211 2.955759
0.55527025 -0.18050613 2.5490613
0.61612147 -0.23198339 2.5892625
0.74953949 -0.46464178 2.8635638
0.63449478 -0.49014717 2.9229062
-0.38324711 -0.37019792 2.8378413
-0.41590872 -0.84016436 3.0308609
-0.2175743 -0.45516422 2.9823503
0.82657397 -0.38686907 2.8154128
-0.43335605 -1.1894944 3.0264504
0.64468783 -0.53621215 2.9651744
-0.085749634 -1.0712124 3.1234558
-0.018813811 -1.1452574 2.9594395
0.2062443 -0.3102608 2.6407998
0.81076205 -0.61843199 2.7339935
0.32796678 0.3780033 2.764179
-0.97499722 -0.74638534 3.6408961
-0.93397093 -0.86376405 3.6181757
-0.58463627 -0.87554836 3.0924747
0.73962748 -0.23706143 2.4419966
-0.85500234 -0.51937622 3.0134387
0.84800571 -0.44469327 2.645196
-1.2196779 -0.53923112 3.1692538
-0.34177056 -0.50219548 2.9384732
-0.90379792 -0.76258206 3.9850407
0.2108874 -0.34791294 2.7051008
-0.82911444 -0.55766976 3.0746431
0.011247949 -1.0350441 2.864816
0.0029927914 -0.89743495 2.8705752
0.11445099 -0.15633176 2.5899038
1.0218269 -0.67357767 2.5129354
0.96875095 -0.71990156 2.5005374
-0.87003523 -1.2017409 3.0427966
-0.88850212 -0.73629832 3.4197454
-0.93295151 -0.8771835 3.5842652
-0.38179204 -1.0556241 3.0388403
0.21279502 -0.76489985 2.910068
-0.55945235 -0.86639404 3.0991008
-0.82017851 -0.49196899 2.9554307
0.28072169 -0.15028495 2.5061898
0.13437608 -0.34819597 2.7513077
0.91293228 -0.70792842 2.6608293
0.79872692 -0.41407147 2.7811074
-0.34446144 -0.33885852 2.8020782
0.30445299 -0.67957586 2.8751795
0.88995224 -0.34275773 2.6718953
0.03629934 -0.39451241 2.8685977
0.33269677 -0.37238175 2.781178
0.96143293 -0.39629835 2.67624
0.6717779 -0.61399716 2.8415372
-0.58594596 -0.87610185 3.0891273
-0.4044109 -0.70575964 3.0305376
-0.78418082 -1.1067624 3.143163
5.7895504e-05 -1.1560074 2.9833264
5.7895504e-05 -1.1560074 2.9833264
0.09649305 -0.31987631 2.692163
-0.40232047 -1.1929682 2.9648423
-0.43175575 -1.2369323 3.0099335
-0.40863338 -1.1989726 2.9660542
-0.41762415 -1.2600008 2.9941454
-0.72449744 -1.3015723 2.9811795
-0.44822323 -1.2423753 2.9652324
-0.44536838 -0.974213 2.9755459
-0.012884659 -0.37393236 2.8389378
-0.018237464 -1.0746243 2.8756454
0.49505848 0.3618077 3.0933738
0.57066488 0.36859372 2.956372
-0.92559963 -0.60774189 4.1668353
-0.89030832 -1.1411326 3.1174257
5.7405363e-05 -0.4826526 2.9965644
0.23965055 -0.1191273 2.5318499
-0.46795169 -1.3764726 3.1342928
6.3103127 0.25154638 3.0483596
0.003820345 -1.0652957 3.0220804
0.69651997 -0.2449943 2.4210176
3.5318644 1.2062966 1.210319
-0.041047409 -0.90767604 3.7075908
1.1525955 -0.32302421 2.6815038
