# .PCD v0.7 - Point Cloud Data file format
VERSION 0.7
FIELDS x y z
SIZE 4 4 4
TYPE F F F
COUNT 1 1 1
WIDTH 125
HEIGHT 1
VIEWPOINT 0 0 0 1 0 0 0
POINTS 125
DATA ascii
-1.0634711 0.28411424 2.7897563
-1.0699509 0.33764419 2.6958706
-0.88054311 0.32410187 2.6587648
-1.1542686 -0.39210302 3.3804507
-1.0617601 -0.38531536 3.2473068
-0.85719317 0.61331952 2.1208892
-1.2084262 -0.4640252 3.4256866
-1.2074263 -0.42222634 3.4482925
-1.057955 -0.38441104 3.246037
-0.77389729 0.36826059 2.5279517
-1.2337319 0.091895625 3.1981821
-1.8695425 0.18241163 2.9257963
-0.979693 -5.0616902e-05 3.3458381
-0.49861979 0.75178266 1.834463
-0.071609072 0.89687175 1.6481653
-0.98927242 -0.0065814001 3.3528221
-0.98279226 0.22221953 2.8316925
-0.80861497 0.27240488 2.708039
-0.89366943 0.31336758 2.6563096
-0.3913261 0.53320587 2.1847627
-1.6205469 0.082336351 3.2205369
-1.3096789 0.13879164 3.1090026
-1.2221177 0.081263781 3.1472554
-1.7109126 0.29684588 3.0558059
-0.80462575 0.3549026 2.5427535
-0.48553333 0.75618917 1.8271595
-1.5962005 0.059185244 3.2844772
-1.2288656 0.088614039 3.2041154
-1.8862875 0.10830117 3.2519784
-1.6462922 1.0192183 2.8036184
-1.6384138 0.068708703 3.409003
-1.0577673 0.28289515 2.7853839
-1.8881171 0.1093509 3.2532635
-1.0421697 0.35151717 2.6057167
-0.8192724 0.58885729 2.0936475
-1.3778943 -0.057518426 3.3583355
-1.3812289 -0.060015347 3.3607397
-1.3782208 -0.058446258 3.3649473
-1.6836519 0.075074486 3.3951685
-1.3165572 -0.27760643 3.4483628
-1.553233 0.91328108 3.1153264
-0.96498603 0.34948066 2.5628917
-1.4996684 -0.011737459 3.4271867
-1.3346388 -0.093601651 3.5753007
-1.3821318 -0.090141281 3.5892465
-1.2222897 0.099557176 3.1576276
-1.2207278 0.088813223 3.1551099
-1.0555714 -0.34256971 3.2721093
-1.290958 -0.14754365 3.5456219
-1.2953953 -0.14819489 3.5487716
-1.1665624 -0.25810969 3.3884768
-1.2380291 -0.071556829 3.1953919
-1.168228 -0.50029463 3.3354321
-1.2139779 -0.41770774 3.4617693
-1.0665506 -0.41069958 3.2334046
-1.0656921 -0.40918764 3.2345636
-1.3912899 -0.0032125434 3.3515658
-1.3804202 -0.052270684 3.4541025
-1.328743 -0.11568198 3.6277063
-1.1627002 -0.39434397 3.3834348
-1.360963 -0.13303199 3.4871323
-1.3281806 -0.11726273 3.6280453
-1.0991949 -0.36352339 3.3207479
-1.659037 0.087652184 3.274272
-1.4753979 -0.0092761042 3.5291617
-1.3347307 -0.093332738 3.5774679
-1.4406394 0.016068883 3.3903418
-1.1802484 -0.027354114 3.1636515
-1.2047545 0.19375558 2.975765
-1.1667142 -0.47620565 3.3533061
-1.2567804 -0.13861565 3.671916
-1.1651615 -0.47767323 3.3548386
-1.5955141 0.27933848 2.8939359
-1.0282636 -0.32632551 3.2619891
-1.0683393 -0.41068199 3.2329466
-1.3806223 -0.060127676 3.3651619
-1.2342373 -0.073729932 3.4677658
-1.1219301 -0.075781025 3.5060651
-1.3009204 0.12947145 3.0890946
-1.3829621 -0.086546063 3.5887473
-1.2772622 -0.13880266 3.548152
-1.3765508 -0.29548842 3.4285111
-1.1941527 -0.050260689 3.6137335
-1.2252941 0.062607616 3.0854757
-1.1029977 0.22933449 2.8804979
-1.1045613 0.2282633 2.8800437
-1.3802078 -0.089615203 3.5899918
-0.79433244 0.27131251 2.6951394
-0.71286917 0.57448214 2.1792774
-1.6062623 0.041163135 3.2815583
-1.2194117 -0.46672717 3.430335
-0.9672119 0.35019383 2.5617995
-1.7740866 0.089570701 3.3257537
-1.2575306 -0.14289914 3.6717575
-1.2480075 -0.1356048 3.6747706
-0.29943627 0.5479669 1.9520193
-1.3321121 -0.067054205 3.6082177
-0.79209274 0.28503934 2.6990495
-0.84449512 0.57393909 2.1130276
-0.33543774 0.41924709 2.4347305
-1.4707829 -0.015524415 3.5255837
-1.2194252 0.11645465 3.1559587
-1.1761776 0.18849754 3.8755865
-1.1506501 0.37485865 2.6471181
-1.2259989 -0.13875355 3.6571755
-1.1181687 -0.074412145 3.5028284
-1.276292 0.28335458 3.8530202
-1.1746898 0.18603079 3.8746099
-1.0872267 0.16729428 2.9580514
-1.0097152 0.13177253 3.0595417
-1.2944273 -0.05133694 3.6203043
-0.96810675 0.54921001 2.3906932
-1.881991 0.11905518 3.2506771
-0.40476236 0.54916567 2.2248783
-0.3004854 0.54705715 1.9546661
-0.37675723 0.51660317 2.2257993
-1.2055184 0.1972948 2.970947
-0.8953073 0.31416056 2.6563911
-1.5627385 -0.023990113 3.4738622
-0.40717876 0.52221256 2.1843727
0.064884163 0.86789209 1.471735
-0.56087226 0.83342803 1.6823837
-1.8856144 0.19306123 2.9152036
-1.2514811 0.15776701 3.03126
-1.2128352 -0.41630727 3.4629071
