# .PCD v0.7 - Point Cloud Data file format
VERSION 0.7
FIELDS x y z
SIZE 4 4 4
TYPE F F F
COUNT 1 1 1
WIDTH 292
HEIGHT 1
VIEWPOINT 0 0 0 1 0 0 0
POINTS 292
DATA ascii
0.83644432 -0.5545727 4.1210556
0.45436287 -0.50533575 3.7774186
0.80309999 -0.59183413 4.1194234
1.0031313 0.015247675 4.5758977
0.092984498 -0.8319186 4.9548659
-0.26343971 -0.88366634 4.8704085
0.38506407 -0.74310178 4.7241297
0.38156188 -0.78805906 4.6320009
0.85367072 -0.52675724 4.190423
0.50786418 -0.71906883 4.6881924
0.80519277 -0.56815559 4.5373139
0.60283625 -0.72880691 4.5533113
0.72930586 -0.29356503 4.7047653
0.72617763 -0.28960723 4.7067728
0.15452373 -0.80092716 4.8014927
-0.15914941 -0.14523552 4.7998328
1.0975456 -0.4940336 4.0601058
1.1157812 -0.43980736 4.0752335
0.45305762 -0.78804189 4.655972
0.813398 -0.58235484 4.5349698
0.86987108 -0.74766368 4.2961068
1.1795574 -0.52208847 4.0458479
0.85349429 -0.77634567 4.4249296
0.75760132 -0.9007175 4.2235198
1.1275545 -0.51760393 4.0063081
0.60277462 -0.6688574 4.5705233
0.82569408 -0.50551063 4.5681195
-0.3887201 -0.1417242 4.7497187
1.1819463 0.3732295 3.7625291
-0.019613903 -0.22708702 5.1940937
0.87521982 -0.74466342 4.2912555
0.087769799 -0.76212543 4.9353867
0.60151786 -0.66553175 4.5696554
0.8644526 -0.53201926 4.4757743
-0.27974367 -0.99908811 4.6154547
1.0154963 -0.41485038 4.4453073
0.37534258 -0.78657013 4.6301799
0.19101417 -0.78976983 4.7488565
1.4665807 -0.41513035 4.2251363
0.90414888 -0.58822298 4.3970599
0.72417498 -0.062225603 4.7308078
0.60067987 -0.013153215 4.8629689
0.8867017 -0.45702741 3.9947877
0.45197916 -0.37089044 5.0338678
0.80409193 -0.34367123 3.6627927
1.0687101 0.25511119 3.8204293
0.65529037 -0.28896567 4.89288
-0.39252865 -0.13916722 4.7530541
0.65063477 -0.28712112 4.8875546
-0.0012899315 -0.23304939 5.1752687
1.1528451 -0.51340842 4.0010381
0.054326169 -0.74792463 4.9368687
-0.24279048 -0.88986129 4.7056837
0.9369092 -0.46368647 3.9965439
0.88371181 -0.62378818 4.25772
-0.3149727 -1.0436695 4.8636341
0.17964754 -0.7797482 4.7460284
1.0642715 -0.48477915 3.9119544
-0.23416851 -0.88843471 4.7086196
0.014194881 -0.86163926 4.9815292
0.90910721 0.18823834 4.1301169
0.58473158 -0.36626628 3.5839725
0.76047641 -0.969163 4.1951694
0.044748493 -0.76641166 4.9494386
0.95057666 0.25726867 4.1414981
0.6593715 -0.25414979 3.3194234
0.92723238 -0.22328098 3.4596066
0.94228423 0.24171051 4.0871158
0.93918103 0.24784252 4.0804911
0.97898805 0.25101611 3.8447607
0.89023662 -0.45968336 4.002625
-0.25606868 -0.98039639 4.8513236
-0.26459023 -1.0874107 4.6428847
0.85965353 -0.60294235 4.3610344
-0.21561314 -0.86284477 4.7089968
-0.39508751 -0.29502854 4.8476925
0.811791 0.29343286 3.8582482
0.20239833 -0.78756553 3.3806319
0.88417846 -0.75632274 4.2035494
0.84828246 -1.1595299 4.4034891
0.8588596 -0.99168777 4.1725316
0.64485526 -0.68611175 4.6690741
0.90048379 -0.63869268 4.2589903
0.91963291 -0.46515974 3.9881663
0.43354809 -0.65688187 3.4305992
0.85042804 -0.87504387 4.1471534
1.1680366 -0.48505294 4.006896
0.49368411 -0.23097192 5.0651526
0.88479131 -0.59816372 4.2037954
0.6471222 -0.68777341 4.6722608
0.84053391 -0.51551491 4.1784701
-0.16003074 -0.12385196 4.8155904
0.90935653 -0.310799 3.4573703
0.90355355 0.18967675 4.1333089
0.94254166 0.27334875 3.9095707
0.50527298 -0.69854671 4.7425046
-0.35196793 -0.26856533 4.9169683
-0.31534359 -0.30006802 4.9507666
1.1049507 0.2839101 3.8828135
0.63318169 -0.27740413 3.3819039
0.48757967 -0.083000749 5.0951405
0.87670052 -0.50069666 4.1285849
0.87762177 -0.57853192 4.1492186
0.97011232 0.24368961 3.8380225
0.45458034 -0.30121481 3.3445597
-0.41656762 -0.29328883 4.8477745
0.86160535 -0.90981328 4.1756377
0.47000808 -0.71424806 4.7540388
0.92066061 -0.31290883 3.4639399
0.50339097 -0.46480089 3.6484029
0.48360249 -0.51353687 3.6026213
0.59190392 -0.71737719 4.6629806
0.62205148 -0.27779087 3.3347781
-0.050676387 -0.31092975 5.083807
0.65544015 -0.24761571 3.3078747
0.52185285 -0.50172836 3.5543063
0.83712107 -0.73581123 4.3292217
0.59914297 -0.87823981 4.4873347
0.27910072 -0.12924524 2.9078155
0.82702184 -0.53603834 4.1104841
1.1427271 -0.51127815 4.0032763
0.78955704 -0.77947718 4.0245495
0.60537606 -0.03730293 4.8376675
0.63511026 -0.03435586 4.8345404
-0.25292382 -1.0959691 4.8737583
-0.28583932 -0.94139373 4.6938643
0.87780225 -0.59455639 4.3744583
0.74232203 0.31509295 3.8495388
0.53184152 -0.59644592 3.5346994
0.54081428 -0.60108978 3.5431902
-0.14141123 -0.091584317 4.7969317
0.77580214 0.16499659 3.9606898
0.81905144 -0.78382123 4.2779531
0.86379158 -0.93872285 4.11939
0.84739447 -0.60245562 4.1397066
-0.4202764 -0.28472781 4.8500533
-0.32453075 -0.96400607 4.8558373
0.54112744 -0.82522118 4.5941787
1.1447469 -0.44744405 3.9374628
0.89771235 -0.65964693 4.1919389
0.48360237 -0.23602268 5.0669031
0.83742213 -0.90301359 4.0407653
0.64524877 -0.67446733 4.6567206
0.82630968 -0.58470315 4.120358
0.83731908 -0.65626419 4.4295712
1.1496687 -0.51132238 4.2312884
0.56831056 -0.86907125 4.6195536
0.85890156 -0.7450273 4.4860249
0.59431434 -0.38535842 3.6562285
0.51351893 -0.46631736 3.6254325
0.5409798 -0.75194967 4.7556233
0.93131322 0.298547 3.8854895
0.2305831 -0.33298045 2.886698
0.26978594 -0.30496407 2.9189878
-0.10921247 -0.38364387 5.0509815
-0.26815331 -0.22514597 5.0809045
0.96439159 0.051774342 4.5828462
0.87561089 -0.74565303 4.2924047
1.461544 -0.43111703 4.2151699
0.1852776 -0.79071802 4.7481174
0.68432122 -0.88788348 4.5708799
0.42472744 -0.61396635 3.599369
0.52339792 -0.44194299 3.6209886
0.5266912 -0.41694707 3.6096647
0.58628923 -0.37024871 3.5820045
0.6983791 -0.39661166 3.6619108
0.61125004 -0.31773773 3.4845366
0.56587684 -0.54835564 3.8184221
0.61391258 -0.31774157 3.4812357
0.40867239 -0.48470959 3.6251717
0.73488796 0.31102037 3.8394945
0.42025518 -0.65990424 3.4109788
0.45682845 -0.61921263 3.4230943
0.60150027 -0.26248702 3.3567553
0.74725139 -0.91790032 4.5194893
-0.3438924 -0.73738706 4.4413204
-0.26000562 -0.24892201 5.0452743
0.40600505 -0.21031159 3.1236808
0.83929765 -0.74880332 4.1850467
-0.46249485 -0.30320692 4.8134437
0.60061157 -0.030869184 4.87854
0.61325294 -0.80916137 4.5422425
0.95082879 -0.26225051 3.447974
0.52193463 -0.72418749 4.6595011
0.81249702 -0.47979739 4.573307
0.86919773 -0.28626359 3.4270442
0.077001914 -0.83902502 4.9546199
0.90424585 -0.47047216 4.0144382
0.81100273 -0.71726805 4.4805603
0.47321415 -0.51060051 3.6013663
0.48969245 -0.48683137 3.6355479
0.17074715 -0.82572585 4.7943654
0.43482772 -0.7648505 4.7114544
0.58245754 -0.7562806 4.5614424
0.49169216 -0.6217044 3.5117986
1.1401076 -0.49404675 3.9854269
-0.20573086 -0.061575133 4.7890258
0.72494328 -0.83327514 4.0778742
0.72816396 0.25675219 3.838222
0.56580007 -0.8338598 4.5871906
0.55932325 -0.73520195 4.6615286
0.64125568 -0.27854607 4.8957505
0.52165449 -0.41108838 3.6053984
0.43137115 -0.66034073 3.4087605
0.49340266 -0.3558861 3.5783522
0.85792226 -0.93763459 4.1065445
0.48591092 -0.39158711 3.6473212
1.0933334 0.30490711 3.876174
0.59793305 -0.3877531 3.6459033
0.50325125 -0.44656298 3.616394
0.45497659 -0.50248814 3.7552547
0.43760046 -0.43797117 3.7719071
0.57430834 -0.51613736 3.8707581
0.48496765 -0.46337852 3.801106
0.4275865 -0.47379288 3.6897247
0.65417218 -0.29190359 3.4035373
0.92142546 0.46383721 3.5975378
0.78073478 0.25865737 3.8832285
0.23174724 -0.79079568 3.4053843
0.39592624 -0.61302298 3.5792358
-0.18070181 -0.14834684 4.8004189
0.72282439 -0.64700407 4.6318984
0.44650352 -0.23014963 3.1525109
0.20456246 -0.42509189 2.8056991
0.56924123 -0.002624718 4.8686376
0.77162302 -0.40931809 3.6624599
0.79468596 -0.35562906 3.6464489
-0.33663863 -1.0924559 4.8630829
0.93660057 0.27453518 4.1428838
0.78822666 -0.8335523 4.2849469
0.30104953 -0.71314293 3.1804569
0.45916814 -0.61223376 3.483355
0.54726601 -0.65018433 3.5734005
0.53819799 -0.63615727 3.5504568
0.52423847 -0.50188506 3.555387
0.54153973 -0.40390477 3.5859025
0.4685896 -0.52514172 3.5912786
0.45803019 -0.29551986 3.3079596
-0.3546972 -0.1777366 4.8458633
0.29404506 -0.46425641 2.9040244
0.46646893 -0.061655432 2.8316512
0.1443385 -0.61504871 2.5482323
0.098205924 -0.52570611 2.5338714
0.27578267 -0.77368557 4.860342
0.79227775 -0.66029644 4.5645437
0.46674618 -0.63948679 3.6398926
0.49912536 -0.54607433 3.5154047
0.57542348 -0.86715281 4.6257682
0.74440968 -0.91804695 4.5200219
-0.47801641 -0.70307195 4.4329863
0.63176662 -0.025479432 4.8321362
0.20047295 -0.18458766 2.6895888
0.02001247 -0.38729069 2.4276505
0.54836321 -0.39578813 3.6378961
0.41128153 -0.47159043 3.6918166
0.94207066 -0.36259526 3.5949953
0.04889293 -0.86872095 4.9812922
0.025348311 -0.86224842 4.9800091
0.00083074177 -0.852323 4.9790831
0.17222741 -0.78973359 4.7470593
0.63905865 -0.061942164 4.8465281
0.48846734 -0.8203761 4.6440763
0.85922462 -0.9206599 4.1501622
-0.31052703 -0.94675219 4.6889415
1.2065485 0.33134738 3.7925341
1.2506242 -0.47673431 4.2402949
0.4392724 -0.44077328 3.7757773
0.86136323 -0.51911932 4.5716319
0.847983 -0.59643126 4.3795452
0.62851685 -0.032863297 4.8348627
0.83746266 -0.64670217 4.5228024
-0.222028 -0.85367733 4.7261333
0.69537681 -0.0022329846 4.7894702
0.91112792 0.18664527 4.1368041
-0.36553475 -0.85138148 4.6129589
0.82656544 -0.89469713 4.1992197
0.90067232 -0.63446218 4.2593532
0.7837829 -0.38389567 3.6311436
0.84648031 -0.74124604 4.4324102
0.84192228 -0.63269919 4.4849224
0.39134127 -0.54102999 3.4362926
0.24183047 -0.19191054 2.6952443
0.51650643 -0.69092965 3.1920192
0.84757811 -0.7399646 4.4334764
0.93373615 -0.50305259 4.4608779
-0.26939613 -0.95057386 4.6923261
0.5242644 -0.69797605 3.2081561
-4.4721012 -0.92872357 5.1783729
0.50521737 -0.68932867 3.1906312
0.83310419 -0.64292419 4.5211778
0.84258109 -0.63281709 4.4863644
0.87669259 -0.64525807 4.4361062
