# .PCD v0.7 - Point Cloud Data file format
VERSION 0.7
FIELDS x y z
SIZE 4 4 4
TYPE F F F
COUNT 1 1 1
WIDTH 254
HEIGHT 1
VIEWPOINT 0 0 0 1 0 0 0
POINTS 254
DATA ascii
-0.9009555 -0.40496156 2.7789149
0.011672921 -0.20978364 2.4853842
-0.76666081 -0.80452359 2.9660611
-1.3680468 -0.43667024 2.9632778
-0.57544619 -1.2033026 2.8889561
-1.1219417 -1.0211614 3.2792227
-0.10670069 -1.1729249 2.7721457
-1.2482926 -0.28950936 2.2473521
0.85723418 -0.47480556 2.6193216
0.11946323 -0.61658323 2.8320591
0.74376005 -0.48074517 2.6429791
0.16714135 -0.41833472 2.8533294
0.7082352 -0.54240066 2.6743143
0.53319937 -0.56250131 2.8420055
-0.90334171 -0.40731707 2.7753012
-0.55588883 -0.50763553 2.9465511
-0.90152287 -0.4597041 2.7478583
0.021507351 -0.33124965 2.7201052
-0.42653123 -0.35111251 2.7756805
-1.1262653 -0.90944123 3.3527997
-1.1262653 -0.90944123 3.3527997
0.16997193 0.24600954 2.9976578
-0.89809364 -0.40307871 2.7870247
-1.0743345 -0.64023179 3.2471344
-0.56222624 -0.76127255 2.8738892
0.12003317 -0.31416711 2.6116095
-0.1689039 -1.0960819 2.9299963
0.69759351 -0.42865461 2.755055
0.4001298 0.5320012 2.6244879
-0.19539453 -0.18954577 2.5470142
-0.69113153 -0.78718257 2.9196551
-0.16554326 -0.44375235 2.9207125
-0.98670232 -1.1464822 2.8265712
-1.124274 -1.0130972 3.2664657
-0.58333391 -0.34473023 2.7636416
-0.44509366 -0.27649298 2.6476104
-0.8496992 -1.0417986 2.9034317
-0.17657259 -0.80480677 2.7148778
1.0171928 -0.20645382 2.540782
-0.58118576 -0.34558135 2.7654254
-0.55172759 -1.0142061 2.898181
-0.63548094 -1.1080805 2.8802104
0.72023481 -0.35683915 2.6884468
-0.73981762 -0.79002762 2.9293752
0.67680085 -0.15488611 2.4658098
0.52108997 -0.49246469 2.9132421
-1.0005894 -0.38527924 2.8329027
-1.0790184 -0.64839637 3.2352831
0.52032316 -0.56347591 2.8572037
-0.037479088 -0.26011157 2.5983067
0.67839193 -0.37067804 2.7709825
0.53346443 -0.61979115 2.8321545
-0.75988466 -1.0206516 2.8618727
-0.17054777 -1.0956793 2.9161022
0.16151521 -0.42237183 2.858299
0.18517762 -0.26965925 2.538332
0.26743355 0.38335213 2.6734293
0.26743355 0.38335213 2.6734293
0.09192045 -0.32182968 2.6089749
-1.098421 -0.62351859 3.7066486
0.26163149 0.37634107 2.7959406
-1.1015331 -0.48549601 3.7971637
-1.3532032 -0.45302191 2.9845388
-0.98176622 -1.0739745 3.20122
-1.1931028 -0.14329264 3.8245125
0.65487534 -0.15719542 2.4648538
1.0025098 -0.73015976 2.6033468
0.52932554 -0.56924134 2.8508549
0.52932554 -0.56924134 2.8508549
-1.0337539 -1.2427714 3.3532968
-1.0861788 -1.1932738 3.2252357
-0.97154748 -0.52284515 2.8862314
0.53843987 -0.61817801 2.8338585
0.53133321 -0.56389618 2.84356
0.055829525 -0.33302689 2.5954714
-0.88923335 -0.45311517 2.766089
-0.6784206 -1.2782809 2.9986241
0.11326038 -0.32108793 2.6229188
-0.97589213 -0.64270359 3.1929555
-0.19846781 -0.96471429 2.8314071
0.014123066 -0.20130797 2.4849246
-1.0544466 -1.0563874 2.932133
-1.0600752 -1.0541801 2.9324422
-1.0581186 -1.0007253 3.0301991
0.01207674 -0.21021879 2.491749
0.23481908 0.45879504 2.6696894
0.23481908 0.45879504 2.6696894
0.40106767 0.53611851 2.6345475
0.23944271 0.37872013 2.6720884
0.081696346 -0.42449805 2.8743286
0.70304227 -0.60328084 2.6390264
0.65076089 -0.24793832 2.4264078
0.67439139 -0.62717175 2.7217758
0.62272328 -0.42593357 2.8691058
-0.47713524 -0.37090629 2.8073637
0.69855183 -0.60281545 2.6388075
-1.0445856 -1.2116756 2.8418591
0.18381284 -0.25349402 2.5233598
-1.1957214 -0.3862246 2.8290887
-0.1698242 -0.36690003 2.7918217
-0.50323093 -0.39142376 2.8370712
-0.2528699 -0.97800219 2.7805603
-0.99751335 -0.48771325 2.8044884
0.085699223 0.55467248 2.5477285
-0.15997122 -0.95040369 2.9874053
0.084796645 0.55324209 2.5409429
-0.14242586 -0.95158732 2.9958708
-0.58626533 -1.1063808 2.8770843
-0.85748404 -0.54300028 2.8324506
-0.090056226 -0.33001944 2.7885258
-1.0605749 -1.100752 2.8882561
0.22512284 -0.49838668 2.9134939
-0.4434216 -0.27620655 2.6481626
0.31522614 -0.65720028 2.8957326
-1.077739 -0.87222201 3.5613229
-0.78834724 -0.56551903 2.9692628
-0.90215343 -0.51797658 2.7448559
-1.1371981 -0.76398039 3.4588702
-1.1713272 -0.38266945 2.8571656
0.72435981 -0.32996356 2.6609964
0.22896889 -0.37880132 2.717416
-1.1790477 -0.24939154 3.7589581
-0.98618716 -0.45575151 2.8673689
-1.1577755 -0.68400377 3.7800803
-0.89038014 -0.51770759 2.7611578
-1.1433855 -1.1321722 3.5362058
-1.1144112 -1.2205942 2.934437
0.66454291 -0.68832493 2.7160716
0.67728633 -0.37169775 2.7713394
0.66013938 -0.49038824 2.8245003
-1.1633579 -0.40457731 3.683816
-1.0443777 -1.052248 2.9258602
-1.1638861 -0.48729119 3.9902546
0.64527494 -0.16343105 2.4517527
-0.07150431 -0.32450187 2.5815072
-0.80099314 -0.57617021 3.145422
-0.55840355 -0.34968483 2.7692866
-1.0805563 -1.3099133 2.9695215
-1.3696837 -0.433696 2.962383
-0.59213942 -1.0845577 3.1122453
-1.151011 -0.93811053 3.6185777
-1.0424565 -1.061269 3.1012676
-1.1601392 -0.37861308 3.7390592
0.083745576 -0.16416189 2.5202048
-0.39395472 -0.44708079 2.9372067
0.026693022 -0.22640175 2.5254874
-0.66968501 -1.2834566 3.0067954
-0.97508305 -0.91811061 3.0309148
0.012525174 -0.27463278 2.5748498
0.028742215 -0.33867511 2.7302177
-1.103916 -1.1545099 3.2138572
0.19182676 -0.36547527 2.6892292
-0.97814333 -1.0736955 2.8546617
-1.0834152 -1.1950588 2.932647
-0.72146416 -0.64398414 2.9757061
-0.19375506 -0.18716928 2.5483875
-1.0605559 -1.2667831 2.9157887
-1.0429819 -0.70022923 3.3406847
-1.0658137 -1.0012394 3.0218725
-0.45484242 -1.3684132 3.2412481
-1.1054212 -0.6385709 3.6687598
-0.5914216 -0.77394599 2.8930933
-0.61474878 -1.1838582 2.8631556
-1.122673 -0.35999715 3.8602369
0.75383562 -0.63373983 2.5712812
-0.6391359 -1.1992555 3.0117445
-1.1314688 -0.90095365 3.3259699
-1.373016 -0.43270963 2.9551132
-1.0992827 -1.1655874 3.1977985
-1.0762972 -1.2507963 2.8854234
-1.1183859 -1.016091 3.2628136
0.66757637 -0.65808249 2.7781334
-0.16244295 -1.1539004 2.7242289
-0.77342659 -0.74557793 2.9842553
-0.00011036504 0.14392522 3.2554114
-1.0875249 -0.72953379 3.6531863
-0.13431288 -1.2211298 2.833035
0.70092624 -0.62748945 2.5575027
0.69794744 -0.54238999 2.6671748
0.036193132 -0.21742643 2.5194139
-1.1768327 -0.38858065 3.6835082
-0.88900036 -0.39859933 2.7977061
-1.1895303 -0.2525937 3.720433
-0.10180148 -1.1749183 2.771421
0.11040916 -0.32008705 2.6139698
-0.99472499 -1.1489561 2.8258431
-0.14628622 -1.1170822 2.7658501
-1.1657207 -0.50368911 3.5884867
-1.1017801 -1.1181642 2.9224069
-1.0727656 -1.048884 3.0449216
0.15962219 -0.6897819 2.8978245
0.53413266 -0.61497718 2.8275251
0.82524818 -0.33652633 2.6298242
-1.1958373 -0.48936579 3.9321637
-1.084875 -0.64147991 3.2413359
-0.39730707 -0.44710279 2.9346712
-1.0907822 -0.73078668 3.6524656
-1.0611194 -1.1218891 3.4094131
-1.0762484 -0.87649661 3.5564315
-0.96560961 -0.46475831 2.8977196
-0.55787855 -1.1108044 4.2132149
-0.81431818 -1.3634874 3.414068
-0.3174074 -1.0376583 3.9060326
-0.22035217 -0.85073131 3.6610961
-0.92215937 -1.3031919 3.4767909
-0.28215247 -0.86664397 3.6340528
0.32944965 -0.67987949 3.2826021
0.16795494 -0.97220033 3.7144959
0.86610609 -0.91905993 2.9753175
0.9683696 -0.71036357 3.425596
0.16696014 -0.92337793 3.6288927
0.83275443 -0.74783117 3.4881606
0.87675285 -0.78568172 2.7906158
0.89110613 -0.70319784 3.3799336
1.377552 -0.59430963 3.3504605
1.1148148 -0.69415164 2.7385933
1.1567508 -0.53176999 2.9691696
1.3203379 -0.015288486 3.1502967
0.18157244 -0.4033733 2.8547308
0.29008043 -0.48437351 2.9917951
0.71448112 -0.34858572 2.6953764
0.76416487 -0.71929657 2.5449302
0.84507585 -0.48087919 2.5965788
0.76531619 -0.48079664 2.6307826
0.6817252 -0.13106084 2.4379132
0.52041608 -0.61297995 2.8185146
-0.16532266 -0.44197315 2.9182642
-0.073568791 -0.23609285 2.5775309
0.038045812 -0.26494443 2.5504413
0.038045812 -0.26494443 2.5504413
-0.2458844 -0.37625727 2.8302889
-0.3675662 -0.33146855 2.7629817
0.1614807 -0.44185424 2.8753715
-0.60801262 -0.47366163 2.9814603
-0.95090336 -0.4617281 2.7568033
0.67667252 -0.48840585 2.7426629
-0.49608976 -0.39259219 2.8418682
0.15106577 -0.68782139 2.8981946
-0.12204216 -0.90474504 2.8624773
-0.66086048 -1.1307367 3.0545092
0.70362294 -0.53685111 2.6735563
0.63899118 -0.50117224 2.8538592
0.29474491 -0.1936608 2.5200198
0.7659269 -0.23390682 2.4529419
0.40371484 0.53259307 2.6322134
0.43796623 0.55784106 2.6628413
0.74355447 -0.36512899 2.6787176
0.28100654 -0.1959669 2.5143051
-1.1218494 -1.0178173 3.2828574
-0.60766387 -1.1794924 2.8845906
0.027662121 -0.31794375 2.6766984
5.2480326 0.22259496 2.5245962
-0.15797718 -0.95401818 2.9929185
2.925369 2.9984255 -1.6237166
