# .PCD v0.7 - Point Cloud Data file format
VERSION 0.7
FIELDS x y z
SIZE 4 4 4
TYPE F F F
COUNT 1 1 1
WIDTH 323
HEIGHT 1
VIEWPOINT 0 0 0 1 0 0 0
POINTS 323
DATA ascii
-0.15772201 -0.73784661 4.7302818
0.78700137 0.00044585654 4.6365242
-0.34228089 -0.060608409 4.6667619
-0.24005699 -0.7615816 4.8692036
-0.58494341 -0.77850306 4.7364779
0.087555468 -0.69797015 4.6819558
0.092483528 -0.74130565 4.5891175
0.83443183 -0.57755512 4.4668612
0.4665153 -0.24299106 4.7324877
0.80375528 -0.44403327 4.5160327
0.64215195 -0.52046674 4.2213526
-0.55943745 -0.83583444 4.6724343
0.56604654 -0.50668639 4.5933909
0.54342771 -0.56120688 4.5574942
0.6424827 -0.60128015 4.173933
0.47103474 -0.28268367 4.7199221
0.46803951 -0.27847266 4.7215881
0.24382471 -0.66181272 4.620708
0.46661428 -0.24747358 4.7328453
0.61369878 -0.71925604 4.4981084
-0.4046995 -0.052407451 4.6986012
0.77078658 0.015410914 4.65727
0.34427163 -0.66184461 4.5697832
0.9034276 -0.50933772 4.125752
0.92433995 -0.4572542 4.1445093
0.92760992 -0.45827532 4.1466374
0.56590635 -0.50868303 4.5940647
-0.41497636 -0.045588009 4.696373
0.32074076 -0.79994011 4.5160718
0.30907834 -0.73207915 4.5580282
0.80028951 -0.42448926 4.5226855
0.9472543 -0.52269983 4.0912609
0.55532718 -0.80739641 4.0427351
0.94184226 -0.53655815 4.0741634
0.12289511 -0.35446596 4.9708538
-0.60668588 0.025295533 4.4744444
0.37665832 -0.60298461 4.6617222
0.50856173 -0.88407207 4.2321148
0.32999402 -0.64276695 4.5607901
0.59467506 -0.73008877 4.4842238
0.5652191 -0.50114149 4.5922928
-0.62403882 -0.026681948 4.618259
0.32990208 -0.66810638 4.5777335
0.53944767 -0.88915199 4.2385182
0.54456937 -0.88903165 4.2385192
-0.32809803 -0.15169851 5.1058912
0.92402971 -0.52506912 4.2943044
0.94281673 -0.52110237 4.2935905
0.66416484 -0.70215309 4.234108
-0.63862789 -0.11735217 4.6332989
1.1965427 0.42089939 3.8443806
0.61355913 -0.53009242 4.5053582
-0.45415938 -0.7046417 4.6335201
-0.55810338 -0.885548 4.5167336
0.40797073 -0.045470145 4.857214
-0.11151154 -0.72642928 4.6792917
-0.41796741 -0.046162795 4.6976566
0.98253697 -0.50025386 4.0807438
0.40980479 -0.60340822 4.6219611
-0.32034281 -0.13080929 5.0743442
0.51445943 -0.61014301 4.59165
0.51514488 -0.60345954 4.5876474
0.70770073 -0.45185426 4.0336771
0.14567396 -0.3374083 5.0068774
0.61489058 -0.71405607 4.4613342
0.68169236 -0.32730213 3.6964755
0.97629035 0.24196889 3.9027641
0.96067333 -0.53158474 4.072505
0.3728995 -0.27335128 4.8964696
0.52826679 -0.86365122 4.2195759
-0.62801409 -0.023816964 4.6211152
0.079606965 -0.73553491 4.66043
0.66246295 -0.59006011 4.431262
-0.39455763 -0.74835205 4.7343249
0.65296626 -0.53343159 4.2374063
-0.33100346 -0.12093141 5.0585256
0.37867168 0.001775441 4.8417401
0.96422124 -0.53313935 4.0741763
0.50541466 -0.7905578 4.5509958
0.72085798 -0.29315463 3.583411
0.66357702 -0.55269206 4.1905637
0.5980072 -0.67135268 4.4558196
0.59346467 -0.68086565 4.4578686
0.65374243 -0.62068552 4.2896771
-0.28637341 -0.79377741 4.8891678
-0.26453215 -0.73490781 4.8592491
0.43968856 -0.64576888 4.6144028
0.58423662 0.063570134 4.7474642
0.880723 0.11347361 4.5888534
0.98341125 -0.35757887 3.8686748
0.56702709 -0.74518043 4.3196135
0.79400939 -0.43473408 3.9449475
0.96800733 -0.54479808 4.4373465
-0.43899989 -0.98884463 4.6794024
-0.4120568 -0.99572259 4.6898837
1.0148642 -0.55847764 4.3235359
0.43235773 -0.63769639 4.6119967
-0.12142056 -0.71534824 4.675211
0.79210067 -0.4765906 4.0768661
0.80001009 -0.43166524 3.9911394
-0.53453755 -0.78409743 4.5800071
-0.52046514 -0.69335157 4.5558701
0.43642467 -0.30330607 3.6000891
0.47392678 -0.32818818 3.5884254
0.21757425 -0.68111926 3.2085974
0.073618494 -0.68511873 4.6606164
0.26967031 -0.70563424 3.196722
0.099346824 -0.71075588 3.3442688
0.52319938 -0.67249614 4.579268
0.81635672 0.25145802 4.2050495
-0.60636133 0.026020618 4.485199
0.59376991 -0.22048834 3.3390946
0.51608092 -0.6481632 4.5823207
0.84180754 -0.21666229 3.5146406
0.81413263 0.2373943 4.149682
0.88648856 0.24866931 3.919785
0.8772217 0.25426486 3.8987818
0.65024418 -0.75270265 4.2378764
0.66615671 -0.55935752 4.195878
-0.58231717 -0.80655169 4.6985307
-0.58667189 -0.82279569 4.6594605
-0.58395958 -0.875265 4.7161946
-0.57388633 -0.97852969 4.5059409
0.38642409 -0.61085039 4.6636586
0.77183378 0.18553847 4.1840949
0.78608239 -0.23484944 3.5089235
0.35222486 -0.64389288 4.6432657
0.61237198 -0.86016655 4.1226249
-0.65769523 -0.17985037 4.7107158
0.72122788 0.3038862 3.906718
0.66271007 -0.76868331 4.2581816
0.65271807 0.30872816 3.8908443
0.6493929 -0.75202477 4.2328339
0.60710514 -0.53704697 4.5818338
-0.57819861 -0.97722065 4.5036178
0.53049076 -0.69828004 4.5024519
-0.54441077 -0.74892771 4.5515733
0.53122294 -0.70007992 4.5236926
0.69507605 -0.42252412 4.030654
-0.32342362 -0.12091215 5.0858431
0.77946609 -0.35477728 3.6301062
0.62212247 -0.61534005 4.3570991
0.071769081 -0.74572784 4.6353145
0.66874713 -0.6371184 4.29282
0.66844064 -0.63811922 4.2892609
0.601969 -0.25777808 3.5501077
0.31893748 -0.60142797 3.4091055
0.37823442 -0.073148228 2.6304626
0.98101467 -0.5064131 4.0827098
0.5753724 -0.94087738 4.1381288
0.30662355 -0.73298746 4.548172
0.19541024 -0.20242296 5.0468836
0.66448146 -0.59464157 4.2370272
0.66859001 -0.63444126 4.3013496
0.35819137 -0.66697925 4.6670618
-0.34770811 -0.49152613 4.7001047
0.63184774 -0.50789589 4.2080245
0.88874632 -0.49312758 4.2836275
0.61103666 -0.22544096 3.5311852
0.81644374 -0.30207327 3.5078883
0.7648772 0.18870062 4.1889787
0.46193248 -0.28803 3.5366969
0.84139824 0.27096274 3.9746022
-0.67778373 -0.15600246 4.7063456
-0.57366461 0.018263988 4.3970308
0.17934932 -0.66530776 4.7144966
0.31754357 -0.088298023 2.8953211
-0.62213612 -0.15838946 4.7857738
-0.59348786 -0.193601 4.8233972
0.86433685 0.23585863 3.9970751
1.0062137 0.26648474 3.9701297
0.55731595 -0.24190719 3.3969116
0.39699867 0.017861145 2.6521602
0.19889882 -0.054899849 5.0793915
0.67565894 -0.49596414 4.1638169
0.91885138 -0.5383606 4.1450319
-0.4708789 -0.5373888 4.7891088
0.6090706 0.29606017 3.8765419
0.61723113 0.35946521 3.8798068
0.52237421 -0.21358566 3.3728118
0.40085176 -0.45528093 3.5457015
0.27764228 -0.22316612 2.9073601
0.32014161 -0.07159555 2.9809747
0.0082722744 -0.64603746 4.6704602
0.042620365 -0.38730207 2.4514
0.16993815 -0.67760664 4.723681
-0.27334002 -0.71903282 4.8775311
0.17712189 -0.046497311 5.0773554
0.82650924 -0.30531663 3.5158608
1.0181786 0.20532963 4.0119863
-0.54964352 -0.67475712 4.5145173
0.38680992 -0.42389822 3.6193197
0.39062735 -0.3920556 3.6213593
0.35811502 -0.46548125 3.5897393
0.27440768 -0.24568559 4.7757344
0.33652523 -0.61240685 3.4057312
-0.5318231 -0.1638394 4.9243064
0.55269957 -0.24068634 3.3487239
0.56025118 -0.82917464 4.3286424
0.60777098 -0.71537542 4.2207932
-0.50564551 -0.98966765 4.6499066
-0.37148219 -0.77015948 4.7471066
-0.37938356 -0.770428 4.7517776
0.40877071 -0.1279805 2.5986886
0.18834567 -0.69159395 4.7320814
0.51584214 -0.82215315 4.2908616
0.56389344 -0.25013411 3.407537
0.80189997 -0.45259884 4.5109806
0.43622541 -0.46022671 4.6937385
0.59205961 -0.21347684 3.3272862
0.62439167 -0.84362859 4.1007352
0.58779043 -0.72865534 4.3515248
0.31848776 -0.84987742 4.4727707
0.4399156 -0.89971876 4.1856594
0.3027643 -0.083085194 2.8987617
0.95552218 -0.45938209 4.1465302
0.087833583 -0.74311846 4.6664996
0.30887696 -0.73333979 4.5450416
0.27089569 -0.84958875 4.5913982
0.35425738 -0.01746963 4.8412333
0.87072188 -0.53788882 4.3403969
0.38428465 -0.017301515 4.8421941
0.55554986 -0.80191749 4.0757532
0.36703822 -0.27104735 4.8887043
0.41198325 -0.36580405 4.7126184
-0.58836728 -0.83177245 4.5571666
0.58543599 -0.73222739 4.4854803
0.60441226 -0.74585921 4.1300068
0.6264165 -0.93183041 4.0721416
0.28564247 -0.31614986 2.9274781
0.28426886 -0.43274853 3.5107214
0.34255198 -0.57162738 3.401129
0.6503849 -0.94444031 4.1291385
-0.57840985 -0.13094479 4.8622618
0.41458637 -0.55732858 3.5363932
0.40764406 -0.5375995 3.5262499
0.58296341 0.31570712 3.9019942
0.33647123 -0.18360132 3.2441301
0.66002667 0.17821252 4.0002375
0.60209453 0.28177756 3.8674438
0.62396652 -0.93068421 4.1422658
0.67729753 -0.65713549 4.2359681
0.26730695 -0.22167477 2.8853199
0.63589859 -0.59463209 4.168417
-0.6819185 -0.16724998 4.7099295
-0.56423491 0.011061791 4.4015584
0.64512181 -0.90833384 4.1022825
0.58836675 -0.7398802 4.3509684
0.76026303 -0.34926525 3.6385133
0.25161579 -0.79289263 4.5721354
-0.45224592 -0.83939987 4.6430502
0.18476351 -0.20652133 5.0471425
0.61935568 -0.57474399 4.1468558
0.58166164 -0.6506722 4.4529099
-0.31338498 -0.15848829 5.0990949
0.21069731 -0.67992371 4.6581082
0.93001521 -0.53348351 4.3019032
0.27096087 -0.83940625 4.5998454
0.58713919 -0.74173516 4.5095606
0.47181636 -0.34895083 3.6608253
0.39662331 -0.39047939 3.605159
0.57656717 -0.46370918 3.7783215
0.47536507 -0.33227614 3.5865872
-0.33456996 -0.3325713 4.9545984
-0.54703611 -0.14901865 4.925694
-0.27736986 -0.69576675 4.8729749
0.7211054 -0.46712399 4.0551677
0.30316013 -0.72777253 4.5469317
0.51558208 -0.17982471 3.2693727
-0.67698407 -0.58187419 4.3249803
-0.44150442 0.035392798 4.6836953
0.28609687 -0.55235338 3.5741553
0.29107249 -0.53708571 3.5882497
0.60440725 -0.12528616 3.1288755
0.9761731 -0.54097426 4.0891752
0.52514309 -0.86294198 4.2300248
0.76101393 0.43241847 3.6791475
0.1998255 -0.33053997 2.7262111
0.29085892 -0.32364377 2.9391489
0.11112481 -0.4725278 2.6596453
0.35962129 -0.26168987 4.897686
0.38554886 -0.30918041 3.5708656
-0.56475198 -0.89407766 4.5111613
-0.46130174 -0.70967895 4.6218066
0.72351205 -0.29428467 3.5577779
0.47122508 -0.92444128 4.2160091
1.0949142 0.25123936 4.1320262
0.83318067 -0.3588025 3.6708829
0.3175891 0.02009174 4.8679171
0.59378833 -0.22418778 3.3461506
0.4123424 -0.60716617 3.5659859
0.8779909 0.23386499 3.9108741
0.19030352 -0.32240939 2.7144034
-0.68831897 -0.5790078 4.3032298
0.12193114 -0.42864379 2.4789894
0.42801851 -0.35478571 3.6362474
0.5472585 -0.2778334 3.5632396
-0.12979686 -0.72460127 4.674993
0.63456345 0.33906487 3.8873329
-0.58159375 -0.11782297 4.8356194
0.59867978 -0.5180921 4.6002226
0.88329864 -0.49280685 4.2274299
0.57002181 -0.64226842 4.5455241
0.56781363 -0.7853204 4.4902272
0.58062631 -0.61820716 4.4487562
1.1072501 0.28767395 4.1687379
0.31051537 -0.73031336 4.5651121
0.38020745 -0.074998237 2.6435597
0.57029307 -0.63854921 4.5430794
0.45280448 0.0095281964 4.8064113
0.19635779 -0.70159984 4.6268954
0.1065248 -0.71450204 4.594008
-0.64773715 -0.7336998 4.4685307
0.22154745 -0.75509971 4.6140056
0.97579747 -0.53883058 4.0834475
0.58044541 -0.88429195 4.2174358
0.66927212 -0.63292915 4.2933083
-0.88159627 -0.061671004 4.5149069
-0.58167791 0.022204576 4.3980947
0.2687794 -0.0083838254 4.9118476
0.098291963 -0.68651348 3.240273
0.58356875 -0.73500723 4.4561076
-0.14394355 -0.73210567 4.6554031
