# .PCD v0.7 - Point Cloud Data file format
VERSION 0.7
FIELDS x y z
SIZE 4 4 4
TYPE F F F
COUNT 1 1 1
WIDTH 181
HEIGHT 1
VIEWPOINT 0 0 0 1 0 0 0
POINTS 181
DATA ascii
-0.88018698 0.10481178 2.7274055
-0.83748513 0.33274898 2.4784842
-1.0095392 0.30214542 2.6191487
-1.1282692 -0.37816334 3.3065324
-0.83025801 0.338911 2.4823022
-0.77374178 0.36808676 2.3694777
-1.1377459 -0.02013335 3.0516357
-1.0181835 0.35354662 2.5266776
-1.2295468 0.24165466 2.8065813
-0.98170912 0.2146529 2.742018
-1.0789503 -0.35214713 3.2368195
-0.79024649 0.22544485 2.6529844
-0.98976129 -0.34950215 3.1012852
-1.1337522 -0.42409196 3.2835305
-0.98420435 -0.30678269 3.1227624
-1.1312428 -0.42282641 3.2860341
-0.9859978 -0.34861001 3.0998895
-0.89422816 0.53565961 2.1335657
-0.96232992 0.22800824 2.7390189
-1.1678605 0.12385001 3.0385454
-0.9954142 0.20838216 2.7493253
-1.2233573 0.1655097 2.9164603
-0.23957188 0.54931766 1.7349428
-1.0896312 0.37708727 2.472568
-0.4728612 0.73882753 1.63343
-0.93723804 0.039483171 3.1764345
-0.75662279 0.28979957 2.5316994
-0.9540171 0.43876848 2.3145268
-1.0612534 -0.028427081 3.3366716
-0.84332663 0.32796675 2.4805737
-0.3548522 0.53465545 1.9889371
-1.0750648 0.059434164 3.0055189
-1.6504626 0.31871176 2.9003384
-0.92533559 0.51152802 2.1608543
-1.2295914 0.16008684 2.9133039
-1.5974084 0.11351593 3.128058
-1.527776 0.09095341 3.1348724
-1.1628182 0.12084125 3.0444763
-1.0927682 0.14480884 2.9007709
-1.8190621 0.13603242 3.1076827
-1.8208711 0.13711233 3.1089721
-1.1060767 -0.28209168 2.9208858
-1.8247713 0.13482742 3.1088309
-0.78543437 0.58273578 1.9063269
-1.3065385 -0.020788459 3.2076743
-1.1562529 0.13579653 2.9961903
-1.6059948 0.10030635 3.2388585
-1.5875652 0.11518439 3.2543581
-0.91725355 0.35984683 2.387646
-0.95652705 0.4487285 2.3123364
-1.7043687 0.29598293 2.9198952
-1.2357427 -0.23942919 3.3021052
-1.371856 0.0019195562 3.33991
-1.0861737 -0.2787464 2.9174635
-1.0860102 -0.27811411 2.9166427
-1.7220945 0.29582247 2.9232721
-1.1558691 0.11926962 2.9953127
-1.0252217 -0.00058977545 3.6423562
-0.98342359 -0.30579415 3.1243091
-0.96299589 -0.19123492 3.2616482
-1.0847161 -0.21773383 3.2393916
-0.97446972 -0.28952163 3.1137815
-1.0928588 -0.46208835 3.196243
-1.1364062 -0.37523609 3.3204808
-1.320662 0.033092845 3.1992047
-1.1541957 -0.097708933 3.4973409
-1.154876 -0.095996447 3.5013371
-1.2502875 -0.068277389 3.4777484
-1.0876377 -0.35403669 3.2406206
-1.2442077 -0.24057733 3.2874491
-1.0872834 -0.35435444 3.2400916
-1.2497005 -0.06983877 3.4781327
-1.0256374 -0.32531449 3.1747544
-1.7007174 0.26728547 2.9187756
-1.4003872 0.032928478 3.3789132
-1.3990847 0.031452823 3.3796682
-1.6153851 0.097150415 3.2420461
-1.1201282 0.0045138858 3.0090914
-1.1139802 0.0038995233 3.007206
-1.1453334 0.2175204 2.8118231
-1.091166 -0.43732896 3.2131593
-1.0862983 0.056509763 3.008395
-1.3135062 0.026742928 3.2855225
-1.0082095 -0.43434855 3.0734456
-1.0103253 -0.4352971 3.0741682
-1.1006227 -0.2116183 3.5150719
-1.3199916 -0.0080730887 3.2113967
-1.0895615 -0.43872279 3.2147071
-1.0398464 -0.16401628 3.5565383
-1.2314166 -0.0098189106 3.3318796
-1.3758588 0.052675247 3.3800952
-1.1070918 -0.28244919 2.9204144
-1.0945318 -0.1517372 3.5423622
-1.1428821 -0.17981626 2.9935079
-0.93245459 -0.29178768 3.1573355
-0.89587259 0.37054551 2.3786614
-1.0360339 -0.40747705 3.1346772
-1.3163154 -0.0073889853 3.2058353
-1.3131033 0.18160732 2.91553
-1.0881586 -0.21371152 3.2524042
-1.2902291 0.20124505 2.9152405
-1.2045845 0.12222561 2.9635279
-1.023527 -0.028537797 3.6293035
-1.538831 0.29621539 2.7364559
-0.95653987 -0.28968287 3.1129203
-1.5635102 0.10403504 3.0766776
-1.0978366 -0.1068719 3.5616164
-1.3090732 -0.023164334 3.2146583
-1.2380546 0.15664016 2.9298074
-1.0271233 0.24759766 2.7163696
-1.3029187 -0.044145048 3.4403577
-0.74264538 0.28835806 2.5185034
-1.537716 0.072738633 3.1328785
-1.1420839 -0.42545605 3.2910485
-0.91951257 0.36049697 2.3865829
-0.26877129 0.54150498 1.7536197
-1.2546358 -0.020453762 3.4565396
-0.80204278 -0.069324464 3.7833645
-1.0910101 0.23878069 2.7339921
-1.0112815 0.15495634 2.9348738
-1.0183027 0.19763346 2.788229
-0.9902119 0.2755571 2.6949697
-0.62798721 -0.22941975 3.6984451
-1.059058 0.26346999 2.672828
-0.94761264 0.24034292 2.7310009
-0.99545306 0.1395621 2.8925807
-0.43204248 -0.30343586 3.623415
-0.41110018 -0.20446494 3.6474004
-0.44528088 -0.31406865 3.6076725
-0.92069882 0.25425497 2.6547146
-0.80614173 0.24263681 2.704246
-0.70775819 0.32476228 2.5061352
-0.26049322 0.46990228 1.9968804
-0.24786599 0.73219466 1.7378672
-0.99358702 0.098732792 2.8140979
-0.78520322 0.28834507 3.9478989
-1.1714519 -0.53720701 3.2949572
-0.81002384 0.56831872 1.9268656
-1.6053092 0.10745763 3.2503631
-1.1692106 -0.53586006 3.295491
-0.29175064 0.43074614 2.2415535
-0.2964192 0.57062429 1.9515661
-0.433799 0.32264453 2.3073442
-1.3957946 0.026594074 3.3754599
-1.1965929 0.33945727 3.6865954
-1.0934846 0.2439931 3.7093179
-1.1482832 0.21912266 2.8058896
-0.94768846 0.16060935 2.8930535
-1.1476375 -0.5435797 3.2366035
-1.8149112 0.14677028 3.1058741
-1.3708862 0.0037671723 3.3943694
-1.3998798 0.023560589 3.3776546
-0.2697466 0.54068577 1.7563237
-1.4434203 0.014657186 3.237411
-0.3391231 0.5197525 2.0301971
-1.0229079 -0.02488572 3.632344
-1.0230469 -0.022813145 3.6339893
-1.1595919 0.12011597 3.052402
-0.80927616 -0.17786178 3.7290015
-0.80947584 -0.1800645 3.7305987
-1.2109134 0.25440598 2.798151
-1.0914342 0.14840096 2.8988302
-1.1462505 0.22086792 2.8068962
-1.0933114 0.32089001 3.7232943
-1.1398423 -0.012515269 3.0072472
-1.1887617 0.34761462 3.6910985
-1.1359762 -0.38113847 3.3101416
-1.0265179 0.19145139 2.7927246
-0.96628952 0.16916025 2.8872564
-0.84497029 0.32874653 2.4806657
-0.5034188 0.27836898 2.3215353
-0.44016993 0.28523073 4.211854
-0.76771235 0.27233523 2.5352278
-1.0068157 -0.39309224 3.0829196
-0.43074262 0.29571545 4.1612902
-1.0180446 -0.18263438 3.5569968
-0.60946268 0.52033764 2.0546727
0.08046829 0.84655541 1.2528898
-1.1710544 0.12578695 3.0365188
-0.023269458 0.79504812 1.3332568
-0.94450748 0.020551665 3.1893244
