# .PCD v0.7 - Point Cloud Data file format
VERSION 0.7
FIELDS x y z
SIZE 4 4 4
TYPE F F F
COUNT 1 1 1
WIDTH 144
HEIGHT 1
VIEWPOINT 0 0 0 1 0 0 0
POINTS 144
DATA ascii
-1.1351032 0.16638695 3.0931954
-1.0948226 0.023833446 3.1499479
-1.0606707 0.25860891 2.9061143
-1.2268677 0.22524813 3.0530543
-1.2258075 0.22847687 3.0555434
-1.0532328 0.26460022 2.9097967
-1.3395026 -0.10852481 3.4811368
-1.2389653 0.27939573 2.962559
-1.4387226 0.1591277 3.2458484
-1.1946374 0.13398786 3.1720464
-1.4963467 -0.11453027 3.6490705
-1.3075598 -0.36086449 3.3397634
-1.1440361 0.30360496 2.8500562
-1.2526361 0.096127182 3.1807184
-0.68106776 0.25833553 2.7314475
-1.1301712 0.47194931 2.5699346
-2.0772398 0.12501831 3.2243655
-1.3688451 0.036009781 3.4735062
-1.3382592 0.1382436 3.2124496
-2.0217223 0.12267382 3.2435431
-1.208076 0.12761316 3.1797481
-1.1052209 -0.054072395 3.6045773
-1.3124303 0.30506343 2.9122517
-0.5220145 0.34947425 2.6597958
-1.1446524 0.28707272 2.8239248
-1.4608669 0.085375063 3.3892531
-1.1142918 -0.060568698 3.6122396
-1.1333479 -0.054144505 3.5989301
-0.50617778 0.64085263 2.0607069
-1.1830963 0.37027928 2.7504108
-2.0767763 0.12405112 3.2251904
-0.9874633 1.0483307 2.0350664
-2.0289979 0.16342026 3.2837718
-1.7962402 0.030337362 3.5792747
-1.7532679 0.025673682 3.5217681
-1.9141638 0.20269212 3.3864291
-1.3668083 0.034520499 3.4759676
-1.4507289 0.081973203 3.3892293
-1.3606306 0.024983693 3.4220045
-2.1492643 0.016190853 3.1590607
-1.2781202 -0.02813402 3.4347022
-1.2767715 0.10182974 3.2546949
-1.3251452 0.29890814 2.911401
-2.0233974 0.18373932 3.28721
-2.0237899 0.12424855 3.2399843
-1.4355073 0.076371133 3.3521128
-1.9040425 0.18446876 3.3802283
-0.94997287 0.93452424 1.9872879
-1.9015418 -0.0050577461 3.0287604
-1.7435881 0.030402552 3.5236907
-1.7942817 0.026409503 3.5809412
-1.3635828 0.032789785 3.4791272
-2.0081685 0.062630758 3.247272
-1.3706023 0.018664541 3.4221847
-2.0163882 0.051237375 3.5707066
-2.0261796 -0.048209555 3.1487765
-1.0879552 0.039159123 3.140408
-1.0046406 0.17548402 3.1175601
-2.018131 0.052293204 3.5721028
-1.9154122 0.20289101 3.386441
-0.94870007 0.94010371 1.9863095
-0.558653 0.40892008 2.4494648
-1.7249421 -0.0051187989 3.5798557
-1.315778 -0.36678854 3.3416462
-2.1416402 -0.032083731 3.1145959
-2.0050786 0.063961945 3.2520096
-0.84536225 0.53983283 2.3938067
-2.0220542 0.050043833 3.5720623
-2.0132129 0.056271531 3.5738909
-1.0307015 0.52479804 2.3397119
-0.67032701 0.24189572 2.9008188
-2.0269496 -0.059021082 3.1027529
-0.93944532 0.9444502 1.9748021
-1.501518 -0.11242556 3.6441557
-1.5032506 -0.11368483 3.6448205
-1.5046768 -0.11491069 3.6467977
-1.5013988 -0.11329918 3.6507819
-1.3589386 0.049098328 3.4310567
-1.6860203 0.75112259 3.5437558
-1.779071 0.024309238 3.7067015
-1.1490687 0.08414752 3.3081949
-1.1355555 0.089563362 3.3054636
-1.9295769 0.18888475 3.3856943
-1.6956685 0.8558796 3.4055359
-1.1439757 0.28897044 2.8195851
-1.1484921 0.28425932 2.8244045
-2.0574417 0.14911227 3.2220345
-1.185607 0.38031831 2.7486181
-0.96035719 0.22602998 2.9442401
-1.3178908 -0.31843412 3.3919706
-1.5155015 -0.058211382 3.637856
-0.95076323 0.40338993 2.5361693
-1.7527885 0.01619971 3.5259025
-0.79232615 0.53580219 2.2951663
-0.60368109 0.31092867 2.6872988
-2.0456567 0.20493737 3.2907374
-0.87227637 0.96896762 2.2098894
-1.9049897 0.18702982 3.3807869
-1.5875243 -0.063007034 3.8207247
-1.5997245 -0.071246527 3.8174555
-1.5770333 -0.060648557 3.8270659
-1.5056533 -0.10994415 3.7938337
-1.5622054 -0.03873105 3.6796887
-2.0171521 0.18143268 3.2812579
-1.3174285 -0.083389491 3.4364452
-1.0043652 0.15857671 3.086504
-1.9035157 0.18316242 3.3801651
-2.0191021 0.51918018 3.2952166
-1.5037755 -0.11498473 3.6511703
-1.3508152 -0.12736863 3.7438574
-1.2361921 -0.12882146 3.7745724
-1.2876792 -0.14121868 3.7620893
-1.4432932 0.072509602 3.3688564
-1.2651876 -0.13231698 3.7634828
-1.2636553 0.28369835 4.2041903
-1.2962 0.25406393 4.1806469
-1.3073168 0.25084111 4.1774468
-1.3678753 0.005806488 3.3607297
-1.2600698 0.17112675 3.1466796
-1.0749869 0.044885784 3.3316669
-0.91876608 0.51140058 2.4181449
-2.0397153 -0.070897982 3.1096954
-2.0260782 0.11957191 3.2419956
-1.2080872 0.47026786 2.6635017
-1.1462718 0.28966895 2.8186383
-1.1037577 0.50882041 2.4449637
-1.0247778 0.59353614 2.3617992
-1.1557143 0.34808958 2.4770174
-0.99704921 0.81633806 1.9579951
-0.98157251 1.0159605 1.9859037
-0.52138001 0.48402557 2.1639583
-1.1013303 0.33134994 2.6913204
-1.16521 0.29355684 2.7163231
-0.88972819 0.50993901 2.4167314
-0.29995504 0.82766008 1.8363003
-1.3600298 0.031808078 3.4868836
-1.3284652 0.011227072 3.4845047
-1.0680923 0.25460282 2.9084971
-0.84916139 0.45672244 2.4785461
-1.8381957 0.98483992 3.1484451
-1.4947097 -0.035242625 3.6495032
-0.86316675 0.757824 2.0121768
-1.8229074 0.84070796 3.3577008
-1.7317827 0.80090946 3.4066999
