# .PCD v0.7 - Point Cloud Data file format
VERSION 0.7
FIELDS x y z
SIZE 4 4 4
TYPE F F F
COUNT 1 1 1
WIDTH 167
HEIGHT 1
VIEWPOINT 0 0 0 1 0 0 0
POINTS 167
DATA ascii
-0.96242863 0.27058119 2.7633934
-1.1357261 0.23100683 2.9100447
-1.1327456 0.24120088 2.9070461
-1.4336241 0.11517639 3.2175422
-1.2832431 0.034446519 3.2708297
-0.95513135 0.27660331 2.7673001
-1.9136956 0.080611564 3.0713778
-0.58242923 0.2671304 2.6005008
-1.2612044 -0.093269609 3.3304303
-1.1426343 0.29152611 2.8133361
-1.3522297 0.17280684 3.0900955
-1.4239124 -0.098399766 3.4927192
-1.2034923 -0.42985108 3.5075331
-1.1152319 -0.42471591 3.3714633
-1.3508468 0.091925889 3.1970916
-1.0542258 -0.041425612 3.4637511
-0.90736765 0.177183 2.9491374
-0.96385318 0.27390674 2.7706873
-1.109221 -0.38254082 3.3938739
-0.43483031 0.42596924 2.3158989
-1.2446364 -0.099945359 3.6051214
-1.2118497 -0.29601774 3.5114541
-0.57685792 0.26963136 2.6023302
-1.5018767 -0.058523625 3.6182237
-1.020121 0.48175114 2.4236286
-1.9895505 0.13787483 3.0461519
-1.2903812 0.051182959 3.320858
-0.36276633 0.47108161 2.1022544
-0.36817342 0.4999952 2.0207725
-1.0315044 -0.037797377 3.4617743
-1.2142869 0.31680104 2.7602904
-0.60080522 0.69340903 1.9252931
-1.0793391 0.38114858 2.6027427
-1.1077578 -0.3811985 3.393708
-1.2805265 0.039533347 3.271986
-0.40570417 0.43549353 2.2990167
-0.96828943 0.26579306 2.7654142
-1.9891158 0.13691328 3.0469987
-0.57696891 0.26846656 2.5990198
-0.85898972 1.0549482 1.890574
-0.4817853 0.48030746 2.2751782
-1.6762673 0.040732037 3.3554935
-1.8324038 0.21673132 3.2134185
-1.7725306 0.25252858 3.190593
-1.2269584 0.31062683 2.7590272
-1.9524475 -0.047374114 2.9809103
-1.9526061 -0.048553202 3.0277519
-1.774655 0.2242139 3.1390951
-1.9366889 0.13725996 3.0636644
-1.0512092 0.45721668 2.4505777
-1.8220528 0.19848068 3.2076955
-0.33759305 0.51924706 1.9997258
-1.9430366 0.17374724 3.1088483
-0.60619664 0.23646788 2.7830276
-1.666666 0.045483232 3.3577294
-1.7193587 0.041791622 3.4131663
-1.6498433 0.018593473 3.4189658
-1.9362329 0.19983175 3.1046255
-1.2853193 0.048003677 3.3266823
-1.2161018 0.074776456 3.1830688
-1.2902985 0.033516932 3.2696161
-1.9409825 0.066315435 3.3948913
-0.99783385 0.052563664 2.9979377
-1.6881628 0.029800352 3.5446057
-1.007199 0.20409472 2.9310472
-1.9427747 0.067378044 3.3962178
-0.79158634 0.32716867 2.5376091
-0.81842536 0.94646198 1.8439034
-0.44462863 0.41859114 2.3239388
-1.2323159 -0.35237026 3.1934888
-1.946692 0.065124229 3.3960521
-1.9379267 0.071372725 3.3981547
-0.91257781 0.53327423 2.1967597
-1.4321561 -0.098803312 3.4901543
-1.372262 -0.31820253 3.5717702
-1.7338355 0.035820946 3.532109
-1.7086252 0.040490095 3.5393984
-1.0649102 0.098528847 3.1631625
-1.8477691 0.20290302 3.2122228
-1.5095826 0.71385151 3.4512351
-1.795734 0.19058548 3.1494296
-1.0426319 0.30031389 2.6737704
-0.88383025 0.22781514 2.8108461
-1.3931841 -0.32327646 3.5643654
-1.5486258 -0.049934223 3.5595839
-1.6444845 0.29789594 3.026576
-1.3401474 -0.18395814 3.6766539
-1.0862226 -0.27036417 3.5352168
-1.0994262 -0.36514637 3.3852217
-1.2941741 -0.11230555 3.3205729
-1.2097582 -0.37378418 3.2014773
-1.1535316 -0.4062514 3.4494958
-1.4427048 -0.042172436 3.480479
-1.6759272 0.031284489 3.3597016
-1.7643483 0.22755721 3.1393819
-1.371119 -0.15040185 3.7561183
-1.4076711 -0.1699032 3.6168923
-1.3705405 -0.15197571 3.7564623
-1.8230215 0.20104416 3.2082038
-1.5211768 -0.045908291 3.6606996
-1.5332462 -0.054181132 3.6570506
-1.5109198 -0.043499082 3.6673946
-1.5136226 -0.044466361 3.6654937
-1.4383615 -0.092923306 3.6370287
-1.7366581 0.022938119 3.5268745
-1.7807127 0.19570211 3.1462874
-1.5276818 -0.044713154 3.5029776
-1.2437077 -0.067775182 3.2883377
-1.2375774 -0.068388939 3.2863951
-1.3543835 0.089680538 3.1983972
-1.2687644 0.14987661 3.0961874
-1.1362406 0.20808548 2.9825091
-1.9343059 0.53253239 3.1165571
-1.3990508 -0.11463997 3.5964994
-0.84399372 0.43680331 2.3666613
-0.73596239 0.46717364 2.332895
-0.77492541 0.34771651 2.5387995
-1.4314106 -0.09884917 3.4945564
-1.2818303 -0.11049106 3.5926957
-1.16837 -0.11162901 3.6274726
-1.2193702 -0.12415924 3.6132457
-1.3610945 0.08695069 3.2134027
-1.1969501 -0.11522475 3.615382
-1.2114378 0.30352533 4.0532546
-1.2540932 0.27045524 4.0251827
-1.2372704 -0.084767655 3.7369761
-1.0338951 -0.026263678 3.4604702
-1.2853782 0.020279808 3.2083783
-1.4238355 -0.12505062 3.719666
-1.9528924 0.19155052 3.0274248
-0.99822128 0.048099112 3.0011923
-0.99167567 0.059493907 3.189497
-1.9641355 -0.056704402 3.0313551
-1.8477554 0.1983006 3.216167
-0.86763191 0.22462246 2.8017087
-0.80348897 0.52048576 2.2792027
-1.9390433 0.13259347 3.0656223
-1.0448935 0.30100402 2.6727386
-1.8264552 0.049017418 3.4653678
-0.98931462 0.51787269 2.2994471
-0.90750176 0.60215473 2.2186131
-0.85132772 1.0222791 1.8418553
-0.3972972 0.49195945 2.0394728
-1.3752735 -0.10207456 3.7360425
-0.40273654 0.52225322 2.0884891
-1.9505266 -0.022414962 3.0614901
-1.1831325 0.19840373 2.9576712
-0.86532015 0.23841187 2.805347
-1.7264513 0.032981064 3.5353539
-1.277495 0.075168066 3.2778542
-1.2256522 0.32633328 2.7634132
-1.164717 -0.11029567 3.6240997
-1.0709702 0.089737862 3.1746829
-1.1028608 0.15296081 3.0168955
-1.3372848 -0.086063877 3.7467101
-1.060187 0.30423495 2.5697927
-0.97262639 0.083296336 2.9821916
-0.39825949 0.49108517 2.0421641
-0.16466276 0.83378816 1.7177465
-0.96992677 0.26658198 2.7655358
-0.7360279 0.46625966 2.3423798
-1.8247904 0.20070593 3.211627
-0.66809291 0.7726295 1.7740781
-1.7407318 0.85465437 3.1839609
-0.66121089 0.55194825 2.1568072
-1.6513718 0.81525987 3.2364149
-1.9252566 0.54556763 3.1119049
