# .PCD v0.7 - Point Cloud Data file format
VERSION 0.7
FIELDS x y z
SIZE 4 4 4
TYPE F F F
COUNT 1 1 1
WIDTH 565
HEIGHT 1
VIEWPOINT 0 0 0 1 0 0 0
POINTS 565
DATA ascii
1.6083225 -0.72595096 3.7308595
1.2249763 -0.59541452 3.7173083
1.2747842 -0.57911217 3.7404904
1.4999189 -0.63189042 3.7426665
1.2830927 -0.60407168 3.7390089
1.2461545 -0.73625338 3.6643817
1.4700797 -0.52289194 3.7444041
1.5482117 -0.58499557 3.781878
1.4358922 -0.63515574 3.7371271
0.85364223 -0.64680266 3.4756889
1.2120613 -0.62510449 3.6860964
1.7357076 -0.65893984 4.0337038
1.6374071 -0.66711962 3.7627325
1.5580471 -0.53479046 3.7335467
1.6910677 -0.37282106 3.5453143
1.3432739 -0.64916307 3.746757
1.758907 0.038423974 4.1354661
1.8710747 -0.49497452 3.8806272
1.5660889 -0.51963931 3.7947533
1.6919492 -0.57500166 4.1195478
1.6952069 -0.45672488 3.5733089
1.652979 -0.78618306 3.8624394
1.7215252 -0.37117788 3.5865958
1.6232808 -0.59850216 3.7923381
1.4827482 -0.82704306 3.6521742
1.5037483 -0.46372572 3.5656075
1.3166785 -0.32453445 3.2427466
1.7163134 -0.44316986 3.5108881
1.5259069 0.27854809 3.5403666
1.4845538 0.025523059 3.5004787
1.5987624 -0.74803853 3.735178
1.7994244 -0.374791 3.962831
1.6050264 -0.11880799 4.517664
2.0881436 -0.26460159 3.567291
1.7451723 -0.35090721 3.561553
1.6666614 -0.73785144 3.7992082
1.3290848 -1.0058739 4.7664394
1.8331292 -0.38510594 3.9556172
1.2430743 -0.34840968 3.3696482
1.3160164 -0.30369976 3.2645597
1.7208538 -0.56907266 3.9461527
1.7348667 -0.43297625 3.4954979
1.5746186 -0.73986185 3.8139567
1.5482076 -0.48645133 3.7363956
1.4742515 -0.8650223 3.5979991
1.4637855 0.26519772 3.8015256
1.6128646 -0.6722855 3.7438526
0.9243359 -1.2113204 4.895771
1.0052708 -1.2329787 4.8198042
1.861102 -0.38685146 3.6181948
1.5542358 -0.45250821 3.6696293
1.2890145 -0.34539509 3.2573993
1.7221541 -0.46536815 3.5562847
1.6161054 -0.85807288 3.7163477
1.5726241 -0.19144717 4.8157573
1.8625526 -0.46137658 3.7335231
1.4589605 -0.82159317 3.6651945
2.0836017 -0.27716601 3.5618875
1.7832721 -0.41031325 3.7152948
1.8233899 -0.4418363 3.7295306
1.4335133 0.18838644 3.8070507
0.98351181 -0.42907235 3.3884923
1.6371433 -0.24342844 3.3224733
0.97912967 -0.56798065 3.3798778
1.5238152 0.27884474 3.5252223
0.97408241 -0.58957332 3.437999
1.8328773 -0.39006287 3.9561338
1.6590668 -0.72796649 3.9005711
1.5699885 -0.10065679 4.5224571
2.0856526 -0.28180286 3.5612943
1.6416852 -0.63646984 3.7671309
1.5227656 -0.71619219 3.7213838
1.6628653 -0.76134443 3.8784513
1.0005344 -0.53679168 3.4506247
1.6685399 -0.71555823 3.8369949
1.6325727 -0.89167458 3.7364693
1.6368333 -0.63697821 3.7684972
1.509482 -0.56831753 3.7510686
1.5806519 -0.2400746 3.2446423
1.5924646 -0.88104963 3.8544893
1.0263317 -0.6011045 3.6208699
1.6056067 -0.92538667 3.7793205
0.9799009 -0.48753032 3.435504
1.5936542 -0.31699762 3.4184537
1.2329613 -0.29939935 3.2021818
1.6620998 0.065326095 3.3848467
1.5591185 -0.5660885 3.7570155
1.4962265 -0.31645367 3.408313
1.5883427 -0.31528571 3.4197063
1.6850996 -0.67102963 3.9144037
2.082557 -0.28122702 3.5587666
1.6281104 -0.63671845 3.7614839
0.99012142 -0.36700499 3.2956719
0.86200547 -0.74489647 3.2783849
1.2180191 -0.39568636 3.3615155
1.7673186 -0.92955792 3.8924649
1.6364764 -0.66623473 3.7640784
0.96392089 -0.58920211 3.4418359
1.6716843 -0.63551664 3.9943516
1.6576033 -0.69360745 3.7856848
1.6642268 -0.17229244 3.482228
1.7098802 -0.68159634 4.1828403
0.9426614 -0.67915887 3.462723
1.5713915 -0.79741257 4.3190088
1.6543152 -0.3368549 4.5451007
1.5877007 -0.70999867 3.7148917
1.8254051 -0.38240981 3.6339009
0.98685104 -0.48102197 3.4357824
1.0664481 -0.44048485 3.4407487
1.5216283 -0.7105 3.7188597
1.714566 -0.34675345 3.5611558
1.7343413 -0.86747062 3.9193726
0.99358726 -0.46907893 3.4105017
1.6526965 -0.35760239 3.3150985
1.5017887 -0.93343645 3.6730533
1.408478 -0.69423389 3.804558
1.6251568 -0.59855086 3.7924201
0.8785885 -0.59631002 3.5497248
1.7428272 -0.93595034 3.9139755
1.6567302 -0.17620142 3.090486
1.7087548 -0.369378 3.530086
0.78185791 -0.71717572 3.4634142
0.91415536 -0.59396869 3.5223079
0.90427911 -0.59170139 3.5213585
1.7536995 -0.90909189 3.9417598
0.95427805 -0.61654377 3.3497565
1.6818149 -0.71741247 4.0192127
1.6341316 -0.91568166 3.6772971
1.5825956 -0.67348456 3.782835
1.7558612 -0.3926388 3.5921314
1.7600554 -0.9069218 3.936759
1.6897177 -0.62493485 4.1639705
0.91734064 -0.55690604 3.5137861
1.512022 -0.68256217 3.7080173
1.5490199 -0.33661303 3.4618208
1.6317998 -0.73564595 3.7793231
1.4930718 -0.72860718 3.6969223
1.6079801 -0.090788737 3.1050045
1.5512133 -0.13862996 3.5097179
1.2363032 -0.28721014 3.1919701
1.4905477 -0.68386281 3.7114794
1.783574 -0.30578154 3.1142521
1.5785577 -0.67567843 3.7329597
2.0066538 -0.27192026 3.5502424
1.6949682 -0.62946737 4.1628146
1.538471 -0.57079399 3.7782865
1.5561401 0.14705163 3.2378368
1.2355793 -1.0286605 4.8535786
1.1980598 -0.56155413 3.7184472
1.714546 -0.69759804 4.0797305
1.7348208 -0.62263066 3.9499967
1.0566775 -0.43741661 3.4535213
1.5514709 0.13804123 3.2541189
1.6616677 -0.69612736 3.7847772
1.5808626 -0.9349125 3.6549234
1.7131789 -0.36808562 3.5304568
0.92015225 -0.28455105 3.1283896
1.1513817 0.43203321 3.3281932
1.4519849 -0.74017912 3.720706
1.5560211 -0.78868836 4.4083862
1.5860221 -0.81393433 3.6697004
1.6221529 -0.34031206 4.3483829
1.0496109 -0.35179555 3.3408065
1.7261614 -0.36763111 3.5917587
1.6180072 -0.7275576 3.7557943
1.7642676 -0.89701241 3.9295125
0.92415965 -0.28234649 3.1301057
1.7353075 -0.18866903 3.4632454
0.88521671 -0.29743659 3.1345189
1.1724511 0.25737309 3.64136
0.69655013 -0.98767096 3.1208148
1.6420771 -0.40011033 4.7190537
1.6248966 -0.85793543 3.7114887
1.7557914 -0.93781275 3.9173479
0.8444128 -0.74905801 3.2920587
0.75826526 -0.37116823 3.2376311
1.7265618 -0.40008089 3.5013406
1.5768143 -0.92730087 3.6950347
1.620931 -0.55129939 3.7962835
0.66847956 -0.88767666 3.2410381
0.65494019 -0.89136225 3.2411704
1.8220967 -0.42378187 3.6926496
1.5277019 -0.74809873 3.8275106
0.9127475 -0.52531928 5.0992494
1.3155349 -0.33376232 3.2239964
1.8406314 -0.44912359 3.7162676
1.6220939 -0.35314927 3.3207085
1.492466 -0.52970308 3.7321081
1.258087 -0.36275291 3.3607192
1.6330093 -0.4532558 4.7194862
1.5475783 -0.3360332 3.4630854
1.2170531 -0.5612061 3.7597489
1.5038253 -0.57080024 3.7529764
1.6565207 -0.34627917 4.5340972
1.6973897 -0.60860395 4.1526651
1.4963051 -0.84194368 4.4172449
1.3810532 -0.65468162 3.7421253
1.1735528 -0.24815346 3.0984173
1.6811152 -0.043835521 3.3185697
1.6689478 -0.6680485 3.9627361
1.6038531 -0.28550476 4.7631149
1.720045 -0.96868873 4.0692167
1.6657958 -0.44146058 4.6964974
1.6070162 -0.67463928 3.7902803
1.2200006 -0.34456742 3.2364607
1.7829366 -0.40755442 3.5786381
1.5070153 -0.38810036 3.5058427
1.6317778 -0.91939533 3.7651634
1.8209747 -0.42557731 3.7096553
1.1382486 0.42484382 3.3249826
1.0385962 -0.33074701 3.2628167
1.5733109 -0.092487179 4.5151973
1.1852773 -0.37243745 3.3108623
1.1551003 -0.41745904 3.3887784
1.1382372 0.44231912 3.3312731
1.2107579 -0.89113003 4.6537051
0.76219833 -0.82718343 3.1547163
0.88051122 -0.54443419 3.5603657
1.6562462 -0.35002097 4.5353875
1.6871712 -0.62824488 4.163919
1.8587476 -0.45548353 3.6947479
1.5579772 -0.8919239 3.8133023
1.3117405 -0.3588528 3.2887609
1.7331576 -0.864263 3.9227881
1.6400549 -0.57667434 3.7758181
1.5791112 -0.67250401 3.7340386
1.5652736 -0.3762019 3.5172682
1.3138365 -0.29928169 3.2959464
1.450538 0.34170771 3.5056074
1.5662484 0.18092459 4.217907
1.1056647 -0.49458614 5.0642557
1.3924218 -1.056267 4.3351383
1.4226731 0.16650693 3.480974
1.4170486 -0.6695475 3.8318095
1.7444469 -0.89821386 3.953095
1.2673069 -0.3743214 3.3548329
1.4768225 -0.73235095 3.7042577
1.5389082 -0.68822318 3.7237442
1.5609421 -0.68718714 3.7129776
1.5098178 -0.47276649 3.7350016
1.2517995 -0.39675662 3.3554046
1.538672 -0.68589431 3.7194953
1.6573658 -0.037770011 3.3524239
1.5219971 -0.62983698 3.7552586
1.5211934 -0.63322365 3.7563658
1.5140499 -0.64313519 3.7337749
1.4746237 -0.6866318 3.7206941
1.5115821 -0.51156569 3.7363091
1.4051048 0.30729666 3.4579654
1.7139462 -0.68377638 4.1788154
1.7074156 -0.73267674 4.1643181
1.7226323 0.17378806 4.1118832
1.5846814 -0.70010799 4.2924676
1.3197871 0.29341677 3.582104
1.5266031 -0.90055162 3.6258006
1.026992 -0.34568822 3.3349981
1.1160109 -0.34832472 3.253365
1.6525357 -0.72332519 4.2673554
1.4368531 -0.66247046 3.7548983
1.354371 -0.6263873 3.7581487
1.4912214 -0.65726531 3.7260959
1.3344139 -0.6164977 3.7730546
1.526439 -0.58070636 3.7304993
1.343274 -0.81494606 3.7179401
1.6639763 -0.74554354 3.8501599
1.2176127 -0.37402391 3.2860186
1.483271 -0.52014995 3.7363749
1.7271059 0.0098239351 4.2034054
1.7664541 0.078139462 4.1663017
1.4931638 -0.74541664 3.6942775
1.4831548 -0.52929878 3.6983027
1.6591876 -0.74519986 4.2794633
1.5183321 -0.55206341 3.7463548
1.5821725 -0.83881187 3.6854579
1.6135072 -0.58061528 3.7565343
1.6049929 -0.34745666 3.3184168
2.0867906 -0.26475662 3.5689204
1.1592004 -0.40220359 3.3753347
1.2057377 -0.72749859 3.6656368
1.7376324 -0.36494783 3.5877326
1.2449387 -0.68092364 3.6870477
1.4450253 0.35658744 3.5102777
1.2408832 -0.73944974 3.6770835
1.6032118 -0.90610296 3.661037
1.7224386 -0.39384994 3.5062885
1.1937186 -0.59105986 3.7092841
1.5834811 -0.92678249 3.706948
1.027757 -0.68491012 3.5663283
1.0392768 -0.64730728 3.5902624
0.94166386 -0.48594609 3.4250829
1.0262518 -0.54782891 3.6260777
1.6328185 -0.75763243 4.2250767
2.0271826 -0.26243412 3.5220587
1.6251063 -0.72931314 4.3011637
1.5784208 -0.75543487 3.6871784
1.8221444 -0.41685191 3.6883225
1.2480339 -0.66262889 3.6945345
1.5384518 -0.56086934 3.7341542
1.2291075 -0.63177109 3.7387941
1.5524691 -0.88678396 3.8030977
1.8622122 -0.38852948 3.6195068
1.2477092 -0.60534108 3.749485
1.4228489 -0.67863792 3.7157378
1.6311766 -0.024868179 3.3402762
1.8454051 -0.39229822 3.9450126
1.6649773 -0.93524098 3.7076998
1.0841929 -0.43834451 3.4510503
1.1058856 -0.54880667 3.6138616
1.7497463 -0.41461697 3.6424766
1.0000263 -0.53134263 3.6201494
1.1052843 0.39771718 3.3404365
1.007045 -0.56935626 3.3753505
1.6811754 -0.96131068 3.699295
1.5816419 -0.68626618 3.7598784
1.4937721 -0.68683296 3.7099373
1.6311547 -0.89005822 3.7673495
1.5062783 -0.5984354 3.7661884
1.9838852 -0.2726481 3.5045209
1.6040738 -0.5519489 3.8104615
1.5727856 -0.52244562 3.7866495
1.6113297 -0.91220623 4.2146225
1.7171344 0.15892649 4.0763879
1.5358442 -0.40310416 3.5041173
1.5774505 -0.92755544 3.6243074
1.6692139 -0.34652033 3.3466301
1.2242522 -0.36981106 3.3641372
1.4859828 0.064624578 3.3956902
1.6161723 -0.34152621 4.3584385
1.6236191 -0.6963402 3.8293459
1.6054293 -0.70676315 3.7622054
1.2370543 -0.68960339 3.6712248
1.4666981 -0.68641233 3.7942665
1.7234805 -0.24503882 3.199347
1.485366 -0.65933412 3.7826638
1.5416049 -0.68999243 3.7303185
1.4441464 -0.83657342 3.695477
1.6864681 -1.1345836 4.0334454
1.4300553 -0.32843348 3.4096675
1.6590003 -0.93833053 3.7102165
1.5475446 -0.33189765 3.4562216
1.6364018 -0.24968369 3.3048525
1.6269171 -0.025592195 3.3904357
0.90434057 -0.74375975 3.5216062
1.702193 -0.46899024 3.5789375
1.7372959 -0.90126008 3.9104261
0.87921304 -0.715289 3.2966473
1.0004551 -0.57709759 3.6732492
0.88819093 -0.56228173 3.3512332
1.6890566 -0.45343727 3.5311711
1.5997006 -0.31365198 3.4109514
1.8975425 -0.41405174 3.691401
1.4163051 -0.8048932 3.6844871
1.9123338 -0.38160115 3.6710513
1.6136503 -0.92866725 3.6410055
1.8381714 -0.50676197 3.9168313
1.642455 -0.029620035 3.3460369
1.2742321 -0.36362103 3.3001516
1.6476231 -0.67270958 3.7678978
1.202022 -0.32145604 3.23401
1.5624685 -0.87039667 3.6226723
1.630607 -0.5969792 3.7967865
1.7562147 -0.72850925 4.0330696
1.6243688 -0.59036744 3.9126139
1.7530107 -0.91233772 3.9329123
1.7510136 -0.35482875 3.57093
1.5706662 -0.77406526 3.6965606
1.6526436 -0.76361823 3.8113937
1.7281677 -0.84265852 3.9278288
1.7233253 -0.81911868 3.9608424
1.3927466 -0.88486147 3.6364484
0.63431305 -1.0113196 3.1838229
0.99809682 -0.71213698 3.5610156
1.0119492 -1.3791219 4.8119211
0.98518813 -0.51966476 5.0682597
1.1009531 0.23389961 3.646733
1.3988668 -0.75798458 3.849154
0.9236657 -0.56644851 3.3911598
0.83901072 -0.50372726 3.4068816
0.96325797 -0.53877068 3.5961301
0.92944169 -0.71525258 3.5203831
0.72718775 -0.7266705 3.4768996
0.89610893 -0.72167146 3.2973955
0.73088008 -0.7052995 3.4758575
1.3679725 -0.93961459 4.5262761
1.3004893 -1.0340507 4.7913127
0.9671368 -1.2278444 4.835217
1.6145945 -0.91837502 3.6481645
1.1231312 -0.48133332 5.0892053
1.208244 -0.56860501 3.7641764
1.2220714 -0.75999367 3.7149062
1.0367938 0.45977154 3.328917
1.7336339 -0.72311705 4.0083861
1.754617 -0.73319501 4.025424
1.0776051 -0.36878559 3.2775471
1.7680079 -0.42493618 3.5057914
0.9878304 -0.53294331 3.479068
1.4880264 -0.30495495 3.4753911
1.5835065 -0.84046978 3.6881132
1.0179524 -0.6471656 3.5900524
1.8689661 -0.51295167 3.8777497
1.5742594 -0.094258264 4.5102549
0.86316264 -0.7474134 3.2907717
0.80685973 -0.46736377 3.4363492
1.8829589 -0.41432345 3.7232461
1.7388734 -0.92017865 3.9109807
1.5330923 0.13270955 3.2584443
1.6752261 -0.80730253 3.8271601
1.3845093 -0.96239609 4.702055
1.588614 -0.39807624 3.5311127
1.3452789 -0.9406569 4.5561509
0.81398767 -0.37625766 3.2369416
0.93551922 -0.65234458 3.4609897
0.79343748 -0.3797017 3.2289057
1.5993444 -0.73836327 3.7312746
0.87336648 -0.56297845 3.3561978
1.4471735 -0.91990441 4.42943
1.581701 -0.42101678 3.4821348
1.3431885 -0.97186756 4.5627494
0.90748161 -0.58089811 3.4972007
0.84763068 -0.65336716 3.4587634
0.88497895 -0.64822406 3.4480863
1.0105042 -0.63269919 3.5372422
1.555655 -0.33048019 3.4500945
1.6428243 -0.028265852 3.4390841
1.5699261 -0.76900023 3.6947
1.6502715 -0.97375405 3.719893
0.82050127 -1.3689251 4.980989
0.97856843 -1.1739973 4.8414245
1.5598785 -0.81225753 3.6833968
1.7204382 -0.73174703 4.0208387
1.2836518 -0.36916158 3.2845914
1.6482302 -0.77622581 3.8420157
1.6907295 -0.57552165 4.2856398
1.2949977 -0.70412523 3.6973009
1.3256884 -0.35435909 3.2862477
1.2950548 -0.6095311 3.7502944
1.3264339 -0.64718896 3.7392068
1.4106383 -0.80528963 3.6898386
1.5618998 -0.43298477 4.4422874
1.1931829 -0.4229829 3.3302264
1.3727353 -0.92070538 4.5292549
0.96217984 -0.65474486 3.6085815
1.6772217 -0.71894836 3.8336403
1.7595485 -0.57266909 4.0734491
1.5140185 -0.72324497 3.686717
1.5610205 -0.62036145 3.7429087
1.4708396 -0.12058328 3.464654
1.5358552 -0.46737343 3.5474889
1.6889013 -0.73932898 3.9958959
1.4714184 -0.52583736 3.7441552
1.3966141 -0.88038939 3.6382873
1.6419332 -0.7576865 4.2270193
1.4508049 -0.52920556 3.7535653
1.7275468 -0.66694623 4.0068526
1.0258462 -0.4434371 3.4162235
1.1444851 -0.46673405 3.4123521
1.2998946 -0.74839252 3.6707842
1.2924949 -0.57381642 3.7758648
1.2445616 -0.39310789 3.3784864
1.6864266 -0.47922629 3.6353283
1.6023239 -0.65752786 3.7140775
1.4685469 -0.38218755 3.516084
1.5808971 -0.47754192 3.7266939
1.4878069 -0.73272049 3.6805878
1.3176813 -0.35362056 3.2880461
1.5966157 -0.73969167 3.7258837
0.9195314 -0.58412629 3.4351258
1.4899549 -0.93945223 4.4200788
1.289066 -0.49130201 4.9842072
1.230719 -0.73040169 3.6818857
1.4257637 -0.58261132 3.7794046
1.1174796 -0.41232949 3.3541927
1.2996073 0.21660191 3.5884023
1.2134943 -0.68057561 3.6719856
1.4670315 -0.58954293 3.7335913
1.592609 -0.30836627 3.4084668
1.4672486 -0.58399856 3.7442236
1.2916991 0.29234934 3.7003255
1.3056242 -0.57408476 3.8041196
1.0231708 -0.45203599 3.4711204
1.635481 -0.3369571 4.343358
1.2781118 -0.60931927 3.7412112
1.5675211 -0.77696615 4.3926888
1.5321765 -0.7820006 4.4270253
1.3038098 -0.64113241 3.754796
1.6230805 -0.069695681 4.4021711
1.0402461 -0.60322964 3.6170077
1.6198691 -0.058737632 4.4342957
1.3180262 -0.6841343 3.7541885
1.7278285 -0.2371202 3.2116551
0.82313955 -0.56204593 3.3645067
1.0348973 -0.58849365 3.5150299
1.6719631 -0.73038727 3.8856518
1.6827676 -0.34999856 4.5108957
1.0043613 -0.58979088 3.5932889
0.87766081 -0.72447395 3.3023047
0.97936308 -0.48706368 3.4213629
0.92466378 -0.51482081 3.560266
0.66165209 -0.72961152 3.3488381
0.99032694 -0.49214706 3.4105928
0.83725971 -0.63869256 3.4663234
1.5737971 -0.42462254 3.4796586
1.5393937 -0.80433846 3.6936908
0.85767204 -0.64682537 3.4879763
1.037899 -0.6996581 3.5475576
0.81261569 -0.64989448 3.3927314
0.83637387 -0.46378627 3.426537
1.1855516 -0.60951889 3.6716251
0.7427882 -0.62414825 3.4188271
0.75629789 -0.62865949 3.4131296
0.82641792 -0.62628299 3.5812294
1.2982183 -0.96156079 4.6166215
1.4670007 -0.99556631 4.6246328
1.3185754 -1.0374703 4.7389941
1.1080524 -1.0612353 4.8399529
1.3300606 -0.49998543 4.9552007
1.6446736 -0.70334029 3.7702782
1.655499 -0.76097059 3.806941
1.6738094 -0.76635474 3.8321657
0.93964654 -0.54410475 3.489336
1.4174653 -0.73294616 3.7217872
1.4357166 -0.7430709 3.6728482
1.2289815 -0.73991054 3.664741
1.6906095 -0.39791843 4.6561971
0.90210164 -0.71656609 3.5340033
1.033844 -0.53286529 3.5729911
1.6718638 -0.34752926 4.5224314
1.6174062 -0.071568064 4.4075522
1.5641297 -0.10079288 4.5258427
1.54465 -0.59289038 3.7550077
1.6450639 -0.71307385 3.7654173
1.7449577 -0.42751339 3.519254
-0.30927962 -2.5039854 8.4703169
1.7387377 -0.78163654 4.0172772
1.6770104 -0.63897783 3.9864507
1.5946732 -0.054555599 4.4595242
1.6234732 -0.88340771 3.7708492
1.7156116 -0.73205185 3.987468
1.7167814 -0.73055542 3.9880812
0.73224384 -0.97574061 3.0768588
0.71779662 -1.4950236 5.0536919
0.74994957 -0.9742412 3.0761817
0.66772968 -0.88644689 3.2435744
1.3878288 -0.87851471 3.6343193
1.7143674 -0.62828171 4.050024
0.69610643 -0.90994048 3.3362465
1.549082 0.1527407 3.2363822
1.545575 0.14705636 3.2341745
1.0176579 -1.3877461 4.8105946
-1.4307505 -2.3942485 7.7391448
1.6489812 -0.95075059 3.6797338
1.3494196 0.36686149 3.4578888
-0.99010652 -2.2315278 7.2768831
1.6731653 -0.5157854 3.8455014
1.6157714 -0.28345186 4.7452555
1.5268252 -0.90447855 3.6278
1.7470466 -0.78195035 4.012032
-1.5807337 -2.5520787 7.9387155
1.9089646 -0.38467169 3.6836269
-0.20575154 -2.4852221 8.163331
1.6668051 -0.32526729 4.6656771
-1.4657911 -2.5964267 8.0935726
-0.81677604 -2.8868513 9.5001392
1.7411622 -0.94268817 3.6586893
1.7355342 -0.0010158238 4.1999311
