# .PCD v0.7 - Point Cloud Data file format
VERSION 0.7
FIELDS x y z
SIZE 4 4 4
TYPE F F F
COUNT 1 1 1
WIDTH 157
HEIGHT 1
VIEWPOINT 0 0 0 1 0 0 0
POINTS 157
DATA ascii
-0.86306942 -0.21156925 3.4028299
-0.95503342 -0.21444233 3.3918242
-0.97484726 -0.52199131 4.1327209
-0.79457515 -0.40151957 3.8772709
-0.98389828 -0.52486312 4.204093
-0.91645515 -0.5270949 4.1749272
-0.93391734 -0.5267694 4.3042088
-1.0679648 0.21246816 4.1458039
-0.91552025 -0.50580466 4.3090339
-1.2342077 0.26789114 4.0107064
-0.23003483 -0.42114723 4.3648825
-0.47472712 -0.56649929 4.3309126
-0.75648087 -0.5423215 4.1877923
-0.62116683 -0.53183365 4.2296185
-1.1842375 -0.39909545 3.9085112
0.042683825 0.019361572 4.5278983
-0.2410116 -0.54544914 4.2736921
-0.39396039 -0.46868315 4.2498798
0.19197448 -0.52763456 4.2103739
0.33972684 -0.45197296 4.0596662
-1.041301 -0.021118978 2.7854209
0.042092804 -0.0050296732 4.5302382
-0.32667726 -0.19539213 4.4659367
0.042923171 -0.52499467 4.3294735
-0.38765699 -0.56247205 4.3245034
-0.38876587 -0.55768216 4.3180227
-0.56412995 -0.53401047 4.2393327
-1.0012655 0.18854104 4.1381402
-0.22886801 -0.42973191 4.361845
-0.57473242 -0.53752434 4.255527
-0.92044622 -0.52286226 4.1728053
0.27228811 -0.47229958 4.0634298
0.27787668 -0.46824759 4.0534964
-0.91244435 -0.51092142 4.3024979
-0.099747382 -0.54835862 4.1913862
0.56984305 0.18830252 4.1756043
-0.23226297 -0.58414757 4.2993913
-0.3067956 0.067436367 4.5651102
-1.067432 0.20386292 4.1529908
-1.0714204 0.20497358 4.149879
-1.0429935 0.26806623 4.1606207
-0.97584021 -0.53634804 4.1996546
0.31746319 -0.54819369 3.9998887
0.032251559 -0.53865433 4.3402801
-0.42613745 0.090777688 4.582972
-1.2667041 0.19255273 3.9983163
-0.95940077 -0.39554226 4.2254519
0.78685659 0.32310206 3.9187918
0.78152448 0.31260476 3.9257767
-1.1711938 0.092274256 4.5453138
-0.54722476 -0.57267183 4.333004
-0.74299341 -0.19218291 4.5750031
-0.38967252 -0.54676485 4.3058953
0.57048029 0.19033097 4.1754036
-0.19641611 -0.77890879 3.9519265
0.028310642 -0.41650864 4.3766227
-0.29118961 -0.56076998 4.3355203
0.2988193 -0.54336786 3.992136
-0.3064931 0.065716669 4.56357
0.52901679 0.12598942 3.8750505
-0.19550548 -0.81564701 3.9782934
0.49633643 -0.22552846 3.3601096
-0.30056152 -1.0789868 4.123107
-0.23166503 -0.90491855 3.9797008
-1.1780192 0.097014755 4.544064
-0.78747267 -0.41667247 3.8856187
-0.19420734 -0.81566554 3.9781001
0.11374316 -0.42270112 3.8931217
0.56292212 -0.18981536 3.3929191
0.58763176 -0.14101346 3.3304811
-1.1548952 0.34204236 3.8604617
-0.44272283 -0.50126761 4.3366871
0.5789423 0.15130953 2.4982157
0.57468325 0.14049728 2.5186856
-0.10688862 -0.8471939 3.96334
-1.6578174 0.34835774 2.4528098
-1.2697681 -0.46006024 3.9263458
0.13413785 -0.39908215 3.9483502
0.44911367 -0.18239222 3.4078262
-1.2044125 -0.55132318 4.09022
0.29442203 -0.48423949 4.0854468
-0.20389885 -0.78824764 3.981848
-1.2966311 -0.65523171 3.7603831
-1.3047901 -0.57450467 3.8412769
0.29720521 -0.550879 3.9992599
-0.3897365 -0.54303622 4.3306408
-0.63258731 -0.51581419 4.2223973
-0.26933092 -0.63644046 4.2624459
-0.30073729 -1.0796376 4.1228614
-1.2301793 -0.38721314 3.9700518
0.040919434 -0.17752214 4.4503903
0.31550935 -0.5562802 4.0070472
-0.10105914 -0.83719623 3.9532692
-1.2574952 0.015175505 4.4132795
-1.3005961 -0.2276403 3.6252222
0.57974166 0.23033594 4.2175136
-0.54603976 -0.56656486 4.331543
0.39210135 -0.32857639 3.5712092
-0.088893346 -0.74750537 4.0492392
0.4037694 -0.22066894 3.5362916
-0.50407118 -0.41635865 3.7276063
-0.036147073 -0.46244186 3.112746
0.26104093 -0.19275828 3.3357856
0.64453411 0.36245319 3.9238052
-1.3441719 0.025243871 3.2285268
0.50210947 -0.068066493 2.5609083
-0.44103411 -0.50383013 4.3410573
0.2904641 -0.11156988 3.1811512
0.53845602 0.2242914 3.922219
-1.645875 0.32526603 2.5057454
-0.07971254 -0.72663748 4.0235415
-0.13493504 0.043752357 4.5734982
-0.30135486 -1.0822215 4.1271515
-1.2087413 -0.48062941 4.1167808
-1.3030101 -0.23102282 3.6438787
0.26230451 0.19545619 4.1650929
-0.6715588 -0.53076816 4.3136582
0.5740934 0.19195551 4.1770825
0.5420723 0.22511609 3.9204054
-0.012857392 -0.48098186 4.0345883
-0.46832442 -0.18615092 4.585515
-1.2854941 -0.484451 3.9182038
-0.19064805 -0.63605058 4.2559919
-1.1379515 0.093873978 4.5318723
-0.058831427 -0.67012233 4.0285492
0.031432524 -0.41585234 4.3700366
0.32538277 -0.26175141 3.4899402
0.33329776 -0.23519215 3.4601343
0.027121192 -0.44665742 4.3944259
-0.41129124 -0.3858692 3.6625562
-0.55738497 -0.6675607 4.2016497
-1.362108 0.14334877 4.3390522
-0.9308179 -0.53042275 4.3035879
0.28457174 -0.43167758 3.7197299
0.02834281 -0.41280216 4.3725848
-0.093186393 -0.76296091 4.07689
0.53653592 0.22406566 3.9256814
0.027052015 -0.45241129 4.3678536
-1.3030276 -0.57825792 3.8462462
0.18892907 -0.29198721 3.7419128
0.29029167 0.22149423 4.1551304
0.02948783 -0.44608024 4.367413
0.55211759 0.23193577 3.9861658
-1.6247513 0.053230293 2.3647888
-0.015961559 -0.43851742 4.0284576
-1.2311499 -0.4153713 3.9889889
0.11972365 -0.40575829 3.8721533
-0.73009419 -0.50401789 4.0770345
-0.79864055 -0.39453262 3.8741231
0.78274119 0.31416526 3.9257708
0.51440877 0.16612317 4.04842
-0.66084743 -0.53690118 4.1370931
0.54963821 0.0059079211 2.6292055
1.9087529 2.0285137 -1.8080809
-1.2985182 -0.64962798 3.7525845
0.53577894 -0.023319583 2.667717
-0.24582715 -0.72585732 4.2312126
