# .PCD v0.7 - Point Cloud Data file format
VERSION 0.7
FIELDS x y z
SIZE 4 4 4
TYPE F F F
COUNT 1 1 1
WIDTH 161
HEIGHT 1
VIEWPOINT 0 0 0 1 0 0 0
POINTS 161
DATA ascii
-1.0088938 0.12922704 3.1502874
-0.84710652 0.14010721 3.0447314
-1.0074042 0.13101763 3.1529965
-0.85599542 0.13531077 3.0545208
-0.72930348 -0.60561204 3.908603
-0.66879535 -0.52193791 3.6836801
-1.0313816 -0.058864091 3.5920351
-0.87603426 0.53161001 2.1205354
-1.2743446 -0.14888194 3.8544207
-1.2947528 -0.14930384 3.9234676
-1.2245691 -0.16139761 3.9052422
-1.1476038 0.74188554 2.1132677
-1.1432052 0.74658245 2.0992835
-1.2618037 -0.15654029 4.0301771
-1.3979849 0.66737765 3.6978862
-0.84538305 -0.43628049 3.9605622
-0.73802376 -0.39900213 3.8514028
-0.96682388 -0.19683354 4.0986099
-0.94559354 -0.2214174 3.9847822
-0.82352728 -0.25808015 4.1282587
-0.71232104 -0.53293926 3.8508112
-0.5687387 -0.18128049 4.1902008
-0.56812161 -0.17853534 4.190053
-0.086169392 -0.34089825 4.167356
-0.90865564 -0.22172564 4.0448604
-1.4267678 -0.0016265877 3.6008451
-1.2269959 -0.16817445 3.904067
-0.96807688 -0.20197417 4.103704
-0.26530966 0.25153533 4.4076948
-1.2799965 -0.15717185 3.8634737
-0.68627512 -0.20084873 3.9357836
-1.0389163 -0.068844005 3.6098244
-0.89248127 -0.24150652 4.1116128
-0.95366144 0.03567094 3.3381128
-0.14648977 -0.31602216 4.1143103
-0.96526951 0.11866572 3.0113096
0.12406298 0.24661611 4.5187783
-0.89200127 -0.35820845 3.979913
-0.72843945 -0.53294957 4.0288506
-0.26967657 0.2275064 4.4097681
-0.25772196 0.23259574 4.405705
-0.64688438 0.089444451 4.2872238
-0.82881945 -0.30977073 4.0030503
-0.82328039 -0.00059734064 3.4946451
-0.684268 -0.19928177 3.9313097
-0.64172828 0.078735642 4.2808194
-0.97524416 -0.2090947 4.0926366
-0.56592798 -0.17351358 4.191308
-0.56579787 -0.17138095 4.1928759
-0.31117493 -0.28857401 4.206955
-0.72862649 -0.56179643 3.9338584
-0.64320999 0.073584817 4.2761054
-0.78036672 -0.25626537 4.0178294
-0.73591608 -0.26778239 4.1357908
0.12797239 0.25137118 4.5223107
0.0088930447 -0.24139932 3.7809641
-0.78715271 -0.23234518 4.0357213
-0.73531491 -0.26299044 4.1292448
-0.5890857 0.30335408 2.6495078
0.49611378 -0.12371109 3.5528719
-0.8866756 -0.22839658 4.1029105
-0.5812428 -0.43916059 4.1138897
-1.3761972 0.07115902 3.4107072
-1.3747417 0.069963351 3.4100862
-0.77233267 0.3461706 2.5214691
-0.68354952 -0.42631641 4.0884142
-0.81900102 -0.011196756 3.5223036
-0.70004451 -0.069043301 3.5666533
-0.028331179 -0.1943357 3.8154368
-0.97129345 0.083817907 3.2370667
-0.78544152 -0.23203117 4.0331054
-0.8911435 -0.21636121 4.0241342
-1.2012966 0.55837905 3.8598456
-0.75490177 -0.26304165 3.5101774
-0.89055568 -0.24833955 4.1157398
0.37683532 0.31662676 4.1824799
-0.77839702 0.30739793 2.5692632
-0.6309284 0.12953521 2.7446058
-0.90453392 -0.21809793 4.0384417
-1.2275454 -0.15668452 3.9025452
-0.76202852 -0.27268973 3.5210104
-0.82851648 -0.016741948 3.5192258
-1.0574729 -0.17973368 3.9869428
-0.029648 -0.27175686 3.9732246
-1.2383182 -0.14387347 4.0319538
-0.7577129 0.18009946 4.3099189
-0.43164274 -0.29614326 4.049624
0.11734071 0.25984979 4.4716101
0.32886416 0.33952519 4.1435661
0.37094525 0.31025639 4.1817422
-0.58310646 -0.31133357 4.1352644
-0.60605985 0.34850231 4.3898487
-1.2661575 0.58302265 3.8642123
-1.2694145 0.58462834 3.8605194
-1.2344459 0.64330316 3.8759663
-0.9616552 0.029644946 3.3428566
-0.62360269 -0.30212846 4.1151671
-1.2877928 -0.16187133 3.9202816
-0.63048029 -0.10998056 3.4943795
0.1012611 -0.16022526 3.7542913
0.15108091 0.28996256 4.4692421
-0.82436955 0.11639677 3.1755044
0.30209526 0.30847436 4.1968112
0.31834215 0.37444448 4.0733762
0.61128896 0.376614 3.9320371
-1.501835 1.0448921 1.9132011
-1.4880127 0.95035112 2.026474
-1.4475136 -0.1077715 3.7739739
-0.56361866 -0.33347398 4.1206484
-0.85538489 0.042941216 3.2713547
-0.90577984 -0.21900596 4.0380249
-0.85917896 0.10237927 2.9889603
-0.39258635 -0.248827 4.1677771
-0.49964041 -0.2024301 4.17413
-0.3607215 -0.221386 4.1506648
-0.64308447 -0.27937901 4.1618299
-0.60576475 0.34673247 4.3883648
-1.4033866 0.049115956 3.4692888
-0.82955188 -0.030177671 3.5382693
-0.71161675 -0.5350641 3.8500936
-0.71367532 -0.33307344 3.4611504
-1.4021019 0.05814274 3.471209
-0.61182606 0.26641935 4.3574638
-1.0032426 0.035849147 3.3928516
-0.67311817 -0.16932452 3.6390853
0.18879363 -0.15759195 3.7211637
-1.3941586 0.66383243 3.6978872
-1.2868195 0.71960324 3.5737984
0.15385054 -0.12873776 3.5459015
-0.83301032 0.17983016 2.9872761
0.48016548 -0.015766213 3.3164625
0.31850335 -0.11732422 3.4304903
0.3693113 0.31247389 4.1853065
-0.75425887 0.38404587 2.3738627
-1.4913496 0.87855667 2.2232778
-1.4839041 0.8185308 2.2650008
-0.86165315 -0.1951064 3.6686645
-1.0010889 -0.21980254 3.9457679
-0.77779132 -0.25376341 4.0182939
-0.72633976 -0.35352364 3.458468
-0.92847031 -0.058873884 3.6311574
-0.94890326 -0.11831287 3.6522446
-0.34209999 -0.34746963 3.9473295
-0.83392715 -0.31440544 4.0129008
-0.73715979 -0.26560655 4.1301908
-0.89843982 -0.25462714 4.1213584
-0.89208227 -0.34882846 3.984678
-0.68085867 -0.42345452 4.085206
-0.87792552 -0.26056233 3.9832797
-1.4779364 0.17705704 3.3218474
0.34073231 0.36225781 4.1275477
0.4091385 -0.010754784 3.2492402
-0.89082789 -0.24901608 4.1166167
-1.2008746 0.5514338 3.8637977
0.74698335 0.12759031 2.849458
-1.1486297 0.73290169 2.1114664
-0.3200697 -0.20404489 4.2488513
-0.5818826 -0.30652553 4.1326418
-0.73056448 -0.55797732 3.9430246
-0.58138907 -0.43206909 4.0442877
-0.60360676 -0.45010102 4.0646563
