# .PCD v0.7 - Point Cloud Data file format
VERSION 0.7
FIELDS x y z
SIZE 4 4 4
TYPE F F F
COUNT 1 1 1
WIDTH 128
HEIGHT 1
VIEWPOINT 0 0 0 1 0 0 0
POINTS 128
DATA ascii
0.086029589 -0.64298761 4.8562703
0.69468617 -0.43836385 4.5993009
0.41017482 -0.74157459 4.6037884
0.69440663 -0.43718135 4.5976195
0.88662517 0.096911073 4.625071
0.64722282 -0.55495507 4.6095657
0.40013805 -0.74589288 4.6018553
0.89312148 0.073494114 4.6282649
0.44311973 -0.67653126 4.5871916
0.6952132 -0.43276671 4.5993009
0.69538569 -0.43046698 4.600606
0.58284163 0.074973203 4.8069115
-0.28743571 -0.0092553552 4.7564611
0.51507145 -0.20618051 4.9039211
0.47948673 0.074888021 4.8734255
0.84484154 -0.42646003 4.4531522
-0.19078888 -0.085604787 5.1589112
0.55688876 -0.57239652 4.6293077
0.60858488 0.026269842 4.753202
-0.1984731 -0.082622796 5.1605487
0.79989749 -0.40264851 4.0365739
0.73062563 -0.80781668 4.1843591
0.62727153 -0.18465538 3.3268619
0.33488989 -0.60367 4.7553515
0.93968916 -0.42346373 4.4478598
-0.42972934 -0.85521758 4.603291
-0.50372136 -0.0038558873 4.6950612
0.70933896 -0.7136417 4.3422017
-0.60038918 -0.54802477 4.3946767
1.0241162 0.31702074 3.8587279
-0.25626579 -0.70655072 4.8076167
1.023898 0.31687033 3.8626845
0.7735157 -0.43773061 4.1661177
0.90182841 0.29385194 4.1755085
0.38493085 0.094521046 2.6844087
0.44369292 -0.67219168 4.592587
-0.17570774 -0.5961405 4.9050903
0.45325395 -0.58258778 4.5792108
0.70932025 -0.73297495 4.3335118
0.84827542 0.24533273 4.1631947
1.0518998 -0.39728063 4.1276112
-0.46811843 -0.73111951 4.825953
1.0325211 -0.45786813 4.2782893
0.49021059 -0.59929472 4.6866298
0.92469066 -0.38430324 4.5015564
0.80229068 -0.40219465 4.0382724
0.57099128 -0.33173308 3.683362
0.51463336 -0.20546907 4.9037828
1.0347282 -0.456635 4.2759204
0.72892505 -0.93082613 4.2129827
-0.50224638 -0.81812513 4.808403
-0.5423454 -0.80997247 4.8024411
-0.43651789 -0.7496224 4.8237162
0.88216984 -0.27409858 3.5102963
-0.46642593 -0.79466659 4.61727
0.59489173 -0.81341451 4.5725808
0.7331394 -0.93092108 4.2200508
-0.63953578 -0.53550464 4.3858075
0.63029671 0.36981302 3.880718
0.23217244 -0.35836953 2.8253913
0.78327012 -0.57229793 4.3028226
-0.52325529 -0.11255595 4.8665743
-0.25276908 -0.3930614 4.9575834
0.047588985 -0.40415394 2.3993993
0.43912679 0.1088286 4.8671923
-0.45163143 -0.97097683 4.8261523
1.031389 0.32415217 3.9047501
-0.52439058 -0.81496191 4.8032713
0.84277594 -0.32631496 3.6593728
-0.14791045 -0.74324447 4.9623885
0.75887388 -0.5274325 4.2174926
0.70582259 -0.72636163 4.3212442
0.26640052 -0.65481049 4.724452
0.36221486 0.058672067 5.0697355
0.35651034 0.01309673 5.0923052
0.33859837 -0.60122776 4.7544756
1.0279558 -0.39367825 4.1360297
0.70105189 -0.85073417 4.4456687
0.57381457 -0.57923084 4.6345129
0.75625885 -0.55217874 4.1801076
0.48174611 -0.35133839 3.6340032
0.46675929 -0.42980143 3.5685029
0.39616019 -0.13782087 3.1246047
0.38378459 -0.12651363 3.0965164
0.88194197 -0.17190595 3.4253559
-0.46465287 -0.84364808 4.597084
-0.41541559 -0.72252959 4.6571956
0.51411045 -0.20530891 4.9046826
-0.1064127 -0.6092931 4.9050212
0.3188878 0.024296271 5.0977244
0.52420127 0.042499594 4.8447123
1.2264043 0.32719195 4.0721564
0.72844684 -0.81302673 4.1441422
0.7383495 -0.88065803 4.0869532
0.5795176 -0.58560979 4.6347957
-0.56754369 -0.11987861 4.7806606
-0.3955906 -0.79845887 4.7559218
0.70759869 -0.77532881 4.0848384
-0.3688277 -0.82152265 4.6548119
0.90178305 0.30876601 4.1753583
0.52876663 -0.31269172 3.6692364
0.53384179 -0.31669322 3.6712811
0.22900201 -0.3560077 2.8179388
-0.54659367 -0.14100848 4.783658
0.93408459 0.29478151 4.0725999
0.19043578 -0.67732048 3.2970409
0.50211871 -0.11735332 3.2156963
0.45566231 -0.42610648 3.5587583
0.45920119 -0.42576256 3.5609763
0.27583152 -0.38637987 2.8891788
-0.45206904 -0.19913356 4.8053455
0.27371055 -0.38371891 2.8866167
0.29879346 -0.23877892 2.9430823
0.3184258 -0.076439172 2.9064953
0.28420851 -0.054762803 2.8788617
-0.44008482 -0.036808662 4.7051015
0.6248554 -0.1867028 3.3316257
-0.51643121 -0.94331455 4.8218575
0.71337974 -0.8893159 4.4207516
-0.39330664 -0.65710181 4.6046333
0.46199042 -0.42409104 3.564738
0.8696636 0.11435873 4.6218934
0.69836748 -0.72439259 4.5049324
0.70328665 0.36832696 3.8604443
0.70173842 -0.7235961 4.499136
0.35697195 -0.00055747485 5.0986748
0.6747489 -0.56113935 4.5498881
0.19483966 -0.091056816 2.6532979
