# .PCD v0.7 - Point Cloud Data file format
VERSION 0.7
FIELDS x y z
SIZE 4 4 4
TYPE F F F
COUNT 1 1 1
WIDTH 529
HEIGHT 1
VIEWPOINT 0 0 0 1 0 0 0
POINTS 529
DATA ascii
2.3547432 -0.0092679271 3.5748835
2.3388493 -0.23615637 3.5597985
2.2045047 -0.092549019 3.7167747
2.5642598 -0.31062827 3.4919665
2.281919 -0.31192571 3.6235731
2.1393087 -0.099172577 3.7270415
2.1240327 -0.25060666 3.6918275
2.2368019 -0.11997658 3.7277253
2.2896075 0.21242492 3.304486
2.2546701 0.032606479 3.6225934
2.3040733 0.022226401 3.5868673
2.2657969 0.011484369 3.6049109
2.3068731 -0.0019868533 3.6126168
2.0287693 -0.13610885 3.7502418
2.3992474 -0.21144432 3.5299401
2.3558428 -0.05120711 3.6155417
2.2616739 -0.34855571 3.6163545
2.268018 -0.082827538 3.6405303
2.4485364 -0.04593233 3.549221
2.2861652 -0.11080161 3.6188524
2.3078704 0.1097974 3.2819109
2.3088784 -0.022714699 3.6083179
2.031152 -0.10350045 3.7930667
2.2657638 0.18688628 3.3275199
2.0535724 -0.12247673 3.7404556
2.1839149 -0.091795355 3.7223287
2.6634555 -0.063979052 3.6680408
2.3506055 0.14112705 3.3360906
2.548959 -0.070862047 3.6071136
2.195138 0.094022185 3.4571171
2.1064742 0.091828369 3.3956454
2.4220471 -0.062711149 3.5477216
2.5291057 0.07281509 3.6721289
2.5394831 0.39594632 3.1156726
2.0610993 0.23439173 3.1688879
2.4463949 -0.09675844 3.5916657
2.4462385 -0.094991282 3.5430095
2.3182349 0.21916166 3.3164423
2.5425522 0.39213565 3.1142175
2.4948139 -0.29949373 3.4950187
2.5641432 -0.070317566 3.649621
2.4814506 0.21303946 3.3764887
2.697408 -0.0063277842 3.7070858
2.3059425 0.0041365251 3.6077256
2.1047707 0.17764604 3.2756057
2.1006556 0.17795634 3.2795658
2.5470054 -0.068312578 3.6007593
2.4110234 -0.057180271 3.543925
2.4481614 -0.045057546 3.5508194
2.4859753 -0.058596086 3.5578394
2.1130345 -0.19542684 3.7072663
2.680114 -0.16256808 3.6319311
2.0382285 0.25278872 3.1248381
2.2703202 0.19151571 3.3048396
2.380672 0.26975167 3.2670243
2.7224665 -0.18956694 3.6411819
2.3301704 -0.111135 3.5755205
2.1000009 0.15712894 3.3373632
2.4791152 -0.10659838 3.5688963
2.3914099 -0.078765564 3.5582452
2.0809209 -0.1129643 3.7455785
2.0469668 -0.090429738 3.7563272
2.4896173 -0.05993567 3.5549014
2.2734158 0.19411534 3.3025947
2.197927 0.082415871 3.4656258
2.3035147 0.00064278889 3.6125941
2.4420288 -0.055019293 3.589397
2.4696248 0.21798454 3.3918676
2.4727902 0.2170383 3.3891094
2.4998963 -0.26407179 3.6450374
2.6796978 -0.15911117 3.6352825
2.3215034 -0.071042359 3.6260171
2.3578067 -0.10340917 3.5700793
2.0606399 0.23587912 3.1651969
2.0605361 0.15002945 3.2539387
2.5418966 0.39179954 3.1240728
2.2781415 0.053367164 3.5920262
2.1084561 0.067571238 3.4151707
2.0341458 0.2424019 3.11815
2.3144207 -0.087285586 3.5909801
2.2748942 -0.070378661 3.6733882
2.5293469 0.24558581 3.2805719
2.5436854 -0.088446327 3.6095452
2.259691 0.037051182 3.6084149
2.4552495 0.2159708 3.3738666
2.2961373 0.092494331 3.5444138
2.2926319 0.087340206 3.5471461
2.0901668 -0.25424987 3.7153127
2.4884875 -0.26352406 3.6395206
2.4756176 -0.085223556 3.548609
2.3764312 0.19010796 3.3762326
2.3500957 0.8173148 3.7286711
2.1845679 0.09562999 3.4612923
2.0874393 -0.14602099 3.7296295
2.053997 0.2240044 3.1550374
2.5148609 0.24682237 3.3331246
2.151468 0.089926496 3.37959
2.0976839 0.1556147 3.3409588
2.3179798 0.22769952 3.3140597
2.5469897 -0.068199344 3.6016433
2.6700692 -0.13942884 3.6413617
2.3004639 0.22678427 3.3214512
2.4262969 -0.3445631 3.499651
2.4698544 -0.31286386 3.4780269
2.3250711 0.15187909 3.2536621
2.519907 0.25019041 3.3676217
2.6997035 -0.21188426 3.6246328
2.4157279 0.23618731 3.3940172
2.434454 -0.057998035 3.6006575
2.539278 -0.12343772 3.6129866
2.1083534 0.17286819 3.2853937
2.2902827 -0.25892532 3.6228297
2.4333227 -0.13672855 3.5679986
2.5623028 -0.11767246 3.6304898
2.4540904 -0.33228874 3.4819257
2.5352223 -0.06412743 3.5873506
2.3407016 -0.23925062 3.5669279
2.361589 -0.030525316 3.5740597
2.254709 -0.28943497 3.6833193
2.1865575 0.068948992 3.4209766
2.3405256 0.2060331 3.3337197
2.6344812 -0.038890269 3.7153714
2.3646207 -0.16408789 3.5532913
2.1033733 -0.20695499 3.6972885
2.2823176 -0.34517881 3.5913479
2.6910613 -0.0055559943 3.72246
2.1923656 -0.072673492 3.7272599
2.5106056 -0.27617201 3.516917
2.4327056 0.2132002 3.3661256
2.1598294 -0.099257305 3.7235096
2.1779437 -0.13293687 3.74541
2.1595218 -0.11765357 3.7347734
2.5678909 -0.31503564 3.5111504
2.1535759 -0.05928776 3.75087
2.3110676 -0.14150119 3.5878458
2.4379215 0.20987773 3.3459439
2.1890304 0.13136227 3.3870819
2.3798614 -0.28086779 3.5194612
2.3231561 -0.033624284 3.6047609
2.4051726 -0.21886526 3.5252757
2.372797 -0.25826171 3.5172167
2.4537008 -0.12445348 3.5408053
2.386868 -0.24540889 3.5406227
2.5202472 -0.25730315 3.5267222
2.5344634 -0.25786087 3.5601749
2.0109076 0.2213434 3.1488788
2.3473372 -0.14740381 3.5846293
2.42645 -0.13414615 3.5448647
2.159497 -0.12084987 3.7349291
2.6286907 0.216969 3.5003936
2.1092153 0.062871777 3.4263215
2.11006 0.068265393 3.4238019
2.3930464 -0.092036597 3.5582983
2.370559 -0.28999415 3.5288303
2.4491391 -0.086172879 3.6100738
2.5616693 -0.11510858 3.6261261
2.3369906 -0.13700265 3.5893395
2.5719204 0.18736181 3.5214655
1.9998454 0.23837699 3.2186024
2.3114259 -0.13913479 3.5673845
2.3677068 -0.064352252 3.5765808
2.4596243 -0.29755047 3.4664345
2.5488703 -0.12322693 3.5982168
2.3154538 -0.11848472 3.5827684
2.3492978 -0.042605929 3.5796568
2.3656554 0.19085895 3.3768857
2.3548515 -0.055693917 3.5755956
2.3436286 -0.054252245 3.5826869
2.4415562 -0.28861904 3.5125737
2.3277621 -0.096300393 3.5947278
2.3418131 -0.033862203 3.5885892
2.2808294 -0.27332833 3.6246488
2.2807438 -0.28582698 3.6381521
2.366432 -0.29043475 3.5559008
2.2763717 0.036807485 3.581888
2.2859256 0.029478481 3.6091821
2.4473186 -0.1220332 3.5563619
2.2861576 0.062102411 3.6020429
2.2818313 0.017704425 3.5950744
2.2654512 -0.077840097 3.6901591
2.2696807 -0.11286841 3.6358442
2.6553156 -0.028607544 3.6876237
2.2818103 -0.054613113 3.6550984
2.1743882 0.078136191 3.4062343
2.2671306 0.0082010711 3.6070414
2.5364661 0.40586576 3.1080203
2.1110361 -0.25580525 3.6970036
2.7225945 -0.1925821 3.6420386
2.7218735 -0.19225758 3.6350255
2.1043818 -0.20425327 3.7014787
2.1048882 -0.20403333 3.7054253
2.1143179 -0.19770172 3.7132938
2.6786611 -0.1550245 3.6427722
2.6717284 -0.14185011 3.6487012
2.3030012 -0.24344288 3.5806782
2.4332788 -0.13433117 3.5591526
2.3493955 -0.095494501 3.5565457
2.1442239 0.11324963 3.4023542
2.3813038 -0.078907728 3.5428073
2.5290916 -0.062102064 3.6021423
2.4940939 -0.24562424 3.5369647
2.1941655 0.15985304 3.3771229
2.3362157 -0.062017847 3.6149514
2.3854754 -0.10195578 3.5482285
2.3591621 -0.13657439 3.5669491
2.4575653 -0.084259786 3.6710694
2.3946841 -0.082692981 3.554147
2.3394425 -0.23943529 3.5759141
2.2941315 0.10744061 3.2767503
2.3530352 -0.025030138 3.5668743
2.3234761 0.15166207 3.2536876
2.186692 0.14138438 3.4270055
2.3314219 -0.094259918 3.5784328
2.449157 -0.13525181 3.5424769
2.3928549 -0.073261686 3.5539546
2.4111409 -0.33708462 3.4881392
2.378746 -0.32705501 3.5052204
2.3881176 -0.26352093 3.5131705
2.4140973 -0.32826799 3.4835293
2.3884938 -0.092188239 3.5549481
2.3707101 -0.3319656 3.5254438
2.1546233 0.11932355 3.3973446
2.1207702 0.094925828 3.3658106
2.1502512 0.090222299 3.3817756
1.9647093 0.12199882 3.2293103
2.6950865 0.058369309 3.7463989
2.4696615 0.82740086 3.7904468
2.4744599 0.83558255 3.8549714
2.0466027 0.23265626 3.0809336
2.2847054 0.129783 3.2920575
3.2501385 0.87604362 4.0699711
2.3334389 -0.089821942 3.587172
2.241251 0.21963775 3.2934005
2.3330009 -0.074462295 3.5779903
2.3333087 0.11632673 3.4129119
2.5296326 -0.11685874 3.5809863
2.4813631 -0.041101027 3.6177721
2.3531487 -0.015206886 3.5696487
2.5354648 -0.11952204 3.6439228
2.4729726 -0.04371221 3.5863757
2.3200896 -0.054827511 3.5885425
2.3166184 -0.053294949 3.6071227
2.2844012 0.039797075 3.5859768
2.2767174 -0.17793803 3.6250465
2.3587816 0.048644662 3.5837636
2.2941928 -0.22019677 3.6153355
2.5344465 -0.081559099 3.5497723
2.4165385 -0.34442115 3.5280883
2.2684391 -0.15645164 3.6321461
2.4301152 -0.36279687 3.57041
2.5273089 -0.0626349 3.5895083
2.2066092 0.078666732 3.4869957
2.3921087 -0.071159132 3.5525022
2.4058125 -0.081209369 3.5542474
2.1736939 0.055520218 3.4499614
2.1893837 0.13262203 3.3905261
2.4338422 0.21231818 3.3611784
2.1517889 0.097576395 3.3787394
2.2076256 -0.094925717 3.7320869
2.0602975 -0.15897265 3.7345657
2.3596485 -0.13226967 3.588356
2.254391 -0.29165804 3.6755238
2.0761008 0.10731117 3.4075077
2.0837033 -0.1120285 3.7321627
2.1844735 -0.052775264 3.717396
2.1093225 -0.27037251 3.6975532
2.5381725 0.40637264 3.1137178
2.5394871 0.39017412 3.1119156
2.1843009 -0.13136612 3.7110894
2.7126296 -0.05467606 3.7396605
2.4100821 -0.074237898 3.5420024
2.1886044 0.090163082 3.56358
2.2539473 -0.16799587 3.6937573
2.1878068 -0.14894499 3.7683749
2.5401857 0.41001406 3.1210096
1.9846308 0.71377629 3.6916349
2.1475394 0.12361325 3.4315631
2.2842476 0.11718067 3.3202791
2.2812042 0.21900648 3.324383
3.2912552 0.9119851 4.0356832
2.2718863 0.1959226 3.322324
2.5406842 0.4098275 3.1570714
2.1867719 0.070944905 3.4357526
2.3689229 -0.23925096 3.5489163
2.3387432 -0.1290231 3.565737
2.3258078 -0.12765649 3.5915382
2.4118662 -0.056138176 3.5501556
2.4116952 -0.049065355 3.5543265
2.3947241 -0.052652594 3.5379901
2.5107274 -0.27535465 3.5169914
2.3607218 -0.28917602 3.5547898
2.4198272 -0.22987564 3.5137725
2.3256888 -0.31593642 3.5791414
2.3198736 -0.11452305 3.6094995
2.3408868 -0.035114285 3.5889916
2.3165793 0.060672916 3.5742388
2.0562503 0.25062585 3.105036
2.42026 0.19254047 3.3695123
2.2827802 -0.28103456 3.6207418
2.5277822 -0.32292119 3.4831727
2.2054396 0.14479953 3.3744459
2.180053 0.059648726 3.4291615
2.280998 -0.27148029 3.6176069
2.2591195 -0.27627736 3.6802111
2.2912064 -0.22682655 3.6353102
2.243964 -0.12245106 3.7178791
2.290679 -0.22916847 3.6247218
2.4237969 -0.32071936 3.4816692
2.2839301 0.1194228 3.2936008
2.2806535 -0.039929949 3.6554441
2.1733999 0.08830563 3.2822378
2.182266 0.13266079 3.40292
2.2876287 0.11809766 3.3087182
2.4839828 0.23691925 3.3617685
2.1833072 0.10602461 3.4209092
2.2071671 -0.10162683 3.7186544
2.2145765 -0.11111531 3.7004137
2.1783333 -0.10886113 3.7302058
2.4246192 -0.33849993 3.4738221
2.1745474 -0.12185173 3.734123
2.6092803 0.064627826 3.7392871
2.155407 -0.057091333 3.7521808
2.0507767 -0.12199197 3.7467544
2.3400443 0.2090587 3.3284564
2.2706666 -0.11314198 3.642133
2.4196846 0.20978685 3.3805163
2.074826 -0.24767286 3.6912158
2.1996596 -0.14156802 3.7124171
2.3525484 -0.057004794 3.578444
2.5436339 0.39595509 3.1164393
2.3076189 0.06462153 3.6114771
2.2700045 -0.26287338 3.6443055
2.2887793 -0.25194964 3.6047807
2.0217242 0.44293222 3.1882856
2.2871094 -0.25317785 3.6263537
2.2831535 0.043888066 3.4269779
2.6304457 0.20480673 3.5383222
2.2807088 0.049558796 3.5918555
2.7119861 -0.20307548 3.6329455
2.2888172 0.058563732 3.5870564
2.4379263 -0.26339307 3.5191512
2.5969946 0.18792303 3.5374141
2.4497292 -0.36153609 3.5864522
2.2826447 -0.053049736 3.6590922
2.27706 -0.19785246 3.6737039
2.3031504 -0.14070243 3.6155624
2.3498886 -0.024405325 3.5441802
2.3535228 -0.013797844 3.5692019
2.0109861 0.22209066 3.1561954
2.3265679 -0.058081377 3.5937612
2.517267 -0.092361309 3.56323
2.1810129 0.057946716 3.4282722
2.3558695 -0.24633978 3.5309851
2.3767769 -0.09917938 3.5576212
2.4864869 0.23707312 3.3559675
2.1418719 0.1125697 3.3964796
2.4031267 -0.080828339 3.5496411
2.4243634 -0.057893291 3.547096
2.4495203 0.22397377 3.3856051
2.4647968 -0.073312342 3.5610514
2.1766186 0.15416527 3.4090309
2.3742743 -0.06031492 3.5871322
2.373889 -0.070501886 3.5611699
2.3483536 -0.027383128 3.5874138
2.1783693 0.088675775 3.4815114
2.1821535 0.096768588 3.4734762
2.3552194 -0.10433323 3.5690513
2.3745205 -0.29150656 3.5281317
2.3768313 -0.1863036 3.5636199
2.4474483 -0.11316351 3.5441911
2.4448166 -0.096762337 3.5408525
2.4978974 -0.1114682 3.5641775
2.4461415 -0.041479632 3.551017
2.4424155 -0.048444144 3.5444174
2.4857826 -0.070402034 3.5513144
2.5166869 -0.081984855 3.5702603
2.1665862 -0.051555488 3.7391484
2.0818708 -0.25515458 3.6805544
2.2493093 -0.11831473 3.7226572
2.3636837 -0.29162675 3.5341003
2.2321322 -0.13633256 3.755928
2.3601203 0.1431092 3.2692428
2.0129013 0.15415129 3.3541546
2.8904951 0.41725451 4.3569007
2.706646 -0.22411212 3.6159346
2.7262654 -0.21166866 3.616236
2.535737 0.1030591 3.6488407
2.7582943 -0.17197636 3.6991234
2.6402261 -0.018112542 3.7005181
2.5792899 0.053361248 3.6687915
2.6744065 -0.14577124 3.6474741
2.2567682 -0.13203269 3.6804156
2.7298629 -0.061695397 3.746479
1.9923507 0.70081055 3.663763
2.1620398 0.11469033 3.3799598
2.5473974 0.15126388 3.577445
2.0737555 -0.2132614 3.703418
2.1146607 -0.26500598 3.7074523
2.0671282 -0.25624493 3.7229526
2.0162485 0.22181968 3.1488702
2.2567563 -0.35112453 3.6330433
2.5477028 0.13717407 3.611316
2.0954876 -0.26268426 3.7050996
2.5493546 -0.30137801 3.488553
2.2255907 -0.14655939 3.8234243
2.5742323 0.32374233 3.2476022
2.7281237 -0.064606801 3.7491438
2.5026231 -0.28621119 3.4996402
2.5236061 -0.32492286 3.4889987
2.3382299 -0.15969533 3.5810788
2.3195646 -0.21078838 3.5838315
2.3665619 -0.092486754 3.5957901
2.4812074 -0.10747701 3.5486467
2.2768197 -0.31243452 3.6176302
2.3301086 -0.13756369 3.5289907
2.476474 -0.07447163 3.5576923
2.3516154 0.35076597 3.1114216
2.3542817 -0.25962093 3.4739196
2.3019688 -0.25341558 3.6192808
2.2032025 0.14058116 3.3817661
2.4683797 0.23271003 3.3730838
2.5475967 -0.12271073 3.6061659
2.3025367 0.022361172 3.6482685
2.1490967 0.10162118 3.3864748
2.2856212 0.060944822 3.6045277
2.2976794 0.06869664 3.5992022
2.2471392 0.034215607 3.6449335
2.316942 -0.035198368 3.6923659
2.5541503 -0.12550002 3.624733
2.0458515 0.26931885 3.1708882
2.5565038 -0.13624744 3.6115851
2.6980658 -0.19850188 3.6239765
2.2689567 -0.075080805 3.6797144
2.248024 -0.34937891 3.6704543
2.3506646 -0.14656851 3.5908098
2.7286186 -0.22391476 3.6313908
2.3001909 0.024398394 3.5941861
2.0553 0.15380038 3.2672117
2.490979 -0.33979207 3.5372915
2.421752 0.19291899 3.3722529
2.721282 -0.22105716 3.6087313
2.6895323 -0.0043113348 3.7000878
2.4509888 0.21821612 3.3956757
2.4591925 0.21005048 3.3762014
2.4695697 0.21503124 3.3948214
2.1071904 0.17903674 3.2699726
2.4684947 0.22878323 3.3648872
2.5040128 0.23775482 3.3022912
2.2664502 -0.088809654 3.697602
2.2663219 0.0071497806 3.6300623
2.5383513 -0.064903699 3.6038728
2.2668993 -0.090767927 3.6774199
2.455672 -0.34798321 3.5467119
2.7300031 -0.19895215 3.6657467
2.1283336 -0.24270451 3.6937978
2.649056 0.22275421 3.5618799
2.5596631 -0.065505639 3.6318095
2.7080429 -0.20089969 3.6295915
2.119163 -0.26526281 3.6875994
2.4942074 0.060862381 3.6137497
2.2109439 -0.094380975 3.7184319
2.2164469 -0.10154511 3.7401428
2.2171645 -0.10091965 3.7120872
2.2801104 -0.32389814 3.5993261
2.3655717 -0.1103072 3.5581062
2.2019045 0.081628591 3.5015724
2.1594608 -0.099365607 3.719563
2.4274008 0.10825197 3.5960546
2.1101909 0.072710596 3.4193552
2.2837927 0.13005729 3.2908013
2.6356316 -0.037172887 3.7135608
2.3567696 -0.0036680771 3.578907
2.3309762 -0.1463616 3.6098697
2.4862533 -0.092644066 3.5525289
2.3143468 -0.091211155 3.5965724
2.3487792 -0.037900113 3.5768487
2.5233498 -0.11466233 3.5767622
2.3174701 0.06140558 3.5608187
2.4752495 -0.08143425 3.5502548
2.3461325 -0.049578983 3.618854
2.2677431 0.007735793 3.61518
2.2809649 0.019688375 3.5936878
2.2997537 -0.035444979 3.6405528
2.0307422 -0.086827151 3.7720985
2.7019033 -0.20001975 3.6478369
2.5705559 0.18875338 3.5201769
2.6879723 -0.16703029 3.6599903
2.3016391 0.22699103 3.3098655
2.4221692 -0.062693037 3.5414267
2.3289399 -0.041056667 3.5937319
2.1820211 -0.092456609 3.7239561
2.0548 -0.12321159 3.7405756
2.3124435 0.11115753 3.3327405
2.365685 -0.16539152 3.5540965
2.4832718 -0.069857128 3.5517554
4.8016267 -0.66888887 8.5314274
4.9915042 0.59598929 5.605556
2.5795372 0.056038667 3.6864719
2.097883 -0.26178217 3.6890719
2.691184 -0.054137293 3.7071128
2.5322227 0.072069056 3.6644833
2.6941664 -0.19865493 3.6191223
2.3781052 -0.18718477 3.5530355
2.0307887 -0.13249795 3.7591486
5.3124561 0.83907944 5.8218107
2.7142611 -0.030685721 3.7487066
5.0783939 0.80435437 5.4829612
5.2562108 0.61927629 6.003314
6.2588902 0.57354289 8.9223089
6.0973692 0.55002201 8.6851015
2.0168092 0.26041856 3.1788337
5.2210841 0.51358598 6.0770588
5.2055221 0.78448528 5.7066641
2.1660376 0.11537936 3.3606815
4.7439342 0.47715619 5.3562636
4.6470776 0.52532768 5.1206641
4.8692884 0.75783795 5.1819639
2.4021394 0.92417878 3.4404938
2.4891243 0.056958374 3.6038377
2.033921 0.42796576 3.2473111
4.9254713 0.38935554 6.515173
2.4177368 -0.27768463 3.4986084
2.3988669 0.02966647 3.5843365
2.1240449 -0.25883925 3.7242424
2.3865619 -0.33125859 3.5102024
2.3320899 0.11258709 3.3803437
2.6512866 -0.029683284 3.6906092
2.6158197 0.068796024 3.6855903
4.2692785 -0.86714572 8.1189604
