# .PCD v0.7 - Point Cloud Data file format
VERSION 0.7
FIELDS x y z
SIZE 4 4 4
TYPE F F F
COUNT 1 1 1
WIDTH 209
HEIGHT 1
VIEWPOINT 0 0 0 1 0 0 0
POINTS 209
DATA ascii
1.8985139 -0.013937851 3.9124434
1.843101 -0.060672492 3.9092467
1.9183681 -0.17043249 3.8774416
1.8236066 -0.28769615 3.9030204
1.5731485 -0.15514307 4.0890245
1.6170908 -0.12053808 4.0765514
1.8077585 -0.10899664 3.9462111
1.3526275 -0.17948131 4.1270094
1.7485577 -0.030983001 3.983089
1.7448822 -0.22955935 4.0328646
1.7902364 -0.049266621 3.9349661
1.6319127 -0.14182249 4.0719156
1.3068951 -0.0062616765 3.6317813
1.6133584 -0.29418409 4.0428066
1.5861368 -0.32124528 4.0991373
1.8004693 0.047391977 3.9009142
1.7453347 -0.015623205 3.9588113
1.9781307 -0.13641994 3.9301858
1.8152493 -0.16671278 3.9310415
1.7933135 -0.028017363 3.9218087
2.1874793 0.019587984 4.0950608
1.3472257 -0.18532141 4.1320672
1.923636 -0.18705471 3.8760672
1.849964 -0.12305386 3.9010618
1.6027017 -0.24565086 4.0640826
1.5577022 -0.19452004 4.0737491
2.1526921 0.0077017029 4.038043
1.9354331 -0.099627532 3.8817277
1.5678177 -0.11591 4.1123853
1.1358558 -0.07069508 3.7632995
1.5260804 -0.14215989 4.1417394
1.5463886 -0.16335168 4.0891161
1.1134713 -0.09412121 3.8064163
1.8019048 -0.2116085 3.9241846
1.6764233 -0.13528341 4.0654035
1.6983647 -0.1654482 4.0446949
1.7480227 -0.32198489 4.0263319
1.2020174 -0.1520505 3.9636621
1.9322528 -0.148839 3.8773961
1.8976084 -0.11050063 3.8781409
1.9351261 -0.098690212 3.8833048
1.6036576 -0.23832624 4.0565877
2.0932374 0.018295465 3.96964
1.2446946 -0.12538932 3.9702635
1.5772525 -0.11406615 4.1254945
1.8480587 -0.15589723 3.9111707
1.3299083 -0.076297477 3.7937407
1.6174378 -0.29508701 4.056293
1.3562779 -0.18868646 4.1328521
1.8127016 -0.069968 3.9590678
1.5795333 -0.18777147 4.0779982
1.1977913 -0.024516249 3.6401229
1.5934978 -0.25006184 4.0473766
1.2035843 -0.14928308 3.9594488
1.5741867 -0.3024863 4.0541425
1.6707034 -0.17547272 4.0901647
1.888912 -0.27264813 3.8656261
1.8324348 -0.14020073 3.9209197
1.8426028 -0.1070391 3.9116511
1.772406 -0.10200764 3.9935286
1.600481 -0.29899907 4.0486135
1.5946887 -0.2472261 4.0514278
1.9346032 -0.18913144 3.8782351
1.3135706 -0.064012855 3.7786858
1.2542741 -0.24161859 4.0029864
1.8205962 -0.12538229 3.9154809
1.5524069 -0.2001321 4.0843363
1.7424972 -0.3377285 4.0235362
1.8811749 -0.10594826 3.8726091
1.7475952 -0.3222608 4.0274925
1.6670657 -0.16475253 4.0786037
1.7541633 -0.23496787 4.05305
1.6258014 0.057802208 3.7339435
1.8420807 -0.15588284 3.9068801
1.6739103 -0.16787346 4.0900893
1.9220768 -0.192021 3.8678467
1.1837295 -0.066699922 3.7290435
1.2632039 -0.067666471 3.7362249
1.8735791 -0.12293126 3.8796239
1.2931597 -0.10117023 3.8288004
1.8055203 -0.2611945 3.92676
1.788596 -0.30224976 3.9643283
1.7273391 -0.37352124 3.9945858
1.7386116 -0.013097961 3.9813235
1.7897191 -0.025525469 3.9291725
1.2814974 -0.012571736 3.6611607
1.7094221 -0.1448667 4.0824313
1.3104596 -0.098295733 3.7987487
1.2719185 -0.06074455 3.7376823
1.7233967 -0.17957875 4.0901241
1.2957977 -0.10326876 3.8282118
1.2040405 -0.049768358 3.6870186
1.0881926 -0.041060157 3.6715333
1.2802149 -0.0086890589 3.6640365
1.1572553 -0.12410583 3.939151
1.0961915 -0.066774137 3.7886422
1.2437363 -0.062386885 3.7166224
1.309934 -0.062336344 3.7718675
1.1325923 -0.035155751 3.6569455
1.2019502 0.006479084 3.6035368
1.1994711 -0.040235568 3.7720873
1.1470879 -0.032201774 3.6416757
1.3127462 -0.044872023 3.7193339
1.1838558 -0.0080023045 3.6552002
1.2015595 -0.067277513 3.7341063
1.2331251 0.058766592 3.5961056
1.1327622 -0.038325377 3.6895766
1.3390667 -0.098566331 3.8680928
1.1544614 -0.14133295 3.9350281
1.1558926 -0.12565883 3.9286749
1.1700293 -0.13291274 3.9367573
1.1592219 -0.12989996 3.9240196
1.1508819 -0.14505191 3.9388273
1.1318263 -0.14500865 3.9647691
1.1420511 -0.15724158 3.9690495
1.7435166 -0.32117096 4.0219321
1.8044025 -0.10798832 3.9422677
1.8368205 -0.08912345 3.9124613
1.7871437 -0.30189452 3.9621768
1.8222822 -0.093770362 3.9424198
1.7681746 -0.071985349 3.9983935
1.6748137 -0.13704158 4.0621862
1.5251648 -0.12624919 4.1202021
1.2736267 -0.025314767 3.6554022
1.1438383 -0.036864325 3.6389034
1.2588279 -0.092500277 3.8068101
1.1467441 -0.03078828 3.6391964
1.2156433 -0.057483289 3.7054536
1.1480142 -0.033527717 3.6385651
1.1509519 -0.04036982 3.6616714
1.580933 -0.2939316 4.0412645
1.5678598 -0.29995108 4.0336599
1.7835029 -0.078652993 4.0072112
1.2452308 -0.075517431 3.7342489
1.1917759 -0.022869946 3.6449518
1.8011955 -0.26247814 3.9168146
1.1797318 -0.16091137 3.9843607
1.1748188 -0.16054425 3.9865992
1.7082264 0.025821099 3.8563721
1.2178197 -0.06039568 3.6705186
1.5840001 0.028555023 3.7786112
1.248328 -0.06456545 3.7260988
1.1372888 -0.067753494 3.770529
1.2861468 -0.066193551 3.7334952
1.1342419 -0.04033263 3.6831088
1.1894732 -0.075396746 3.7315414
1.3724469 -0.17949831 4.1183634
1.5737988 -0.11092723 4.1115832
1.1997073 -0.025983235 3.6400883
1.3959495 -0.21733609 4.1255655
1.2054924 -0.08018811 3.7667563
1.8119241 0.069904231 3.6715693
1.086171 -0.12006517 3.8954825
1.079725 -0.11749992 3.9172709
1.7292963 -0.21821769 3.8809528
1.1880536 -0.051430408 3.7008421
1.8194306 -0.071542226 3.8985581
1.1648475 -0.035867509 3.6452641
1.6011062 -0.29713699 4.040731
1.1234325 -0.064967215 3.7582803
1.2992162 0.03649994 3.6636589
1.7523016 0.019243592 3.8595622
1.1596872 -0.027760765 3.6251304
1.3549088 -0.18087099 4.1201925
1.0962166 -0.067942739 3.7854557
1.0845076 -0.034162726 3.6857843
1.2602377 -0.055773035 3.7200892
1.3095649 -0.24411204 4.0376081
1.1242584 -0.042976528 3.6466572
1.12928 -0.042875215 3.644495
1.1518506 -0.039578799 3.6614738
1.1559427 -0.20045759 4.0436544
1.1831248 -0.29864115 4.0303402
1.2031798 -0.1612034 3.9864035
1.2064579 -0.16169235 3.9814148
1.0919517 -0.044702403 3.6606812
1.2479957 -0.23791558 3.9893286
1.2803503 -0.39827678 4.077282
1.6871074 0.052204683 3.7796838
1.2160035 -0.079761475 3.7040904
1.1348783 -0.071297325 3.7619233
1.764348 -0.36089638 3.975961
1.1243981 -0.092705317 3.8115108
1.3740131 -0.33152807 4.0681143
1.3804598 -0.31028581 4.1482639
1.3815484 -0.30706587 4.0778985
1.3702244 -0.31410402 4.1212516
1.370926 -0.2982648 4.084465
1.3580413 -0.29295677 4.1673121
1.2649087 -0.065188646 3.7422397
1.1130247 -0.092043199 3.8132074
1.3651592 -0.27957317 4.087275
1.5846341 -0.32299337 4.1000214
1.7205079 -0.16401993 4.0930681
1.7205524 -0.17940649 4.0885215
1.7030981 0.017224722 3.8373771
1.7713311 0.036969613 3.9318492
1.3526109 -0.2389777 4.0981059
1.5828153 -0.32420903 4.0977087
1.3207703 -0.18162131 4.1303496
1.7957813 -0.2629554 3.9106698
1.7443008 -0.02921129 3.9637134
1.7915007 -0.21336548 3.9104519
1.3145192 -0.19675709 4.15762
1.3103381 -0.091402121 3.8071637
1.3054129 5.7110705e-05 3.630192
1.1846054 -0.06954366 3.7252452
1.6143913 -0.3012419 4.0754814
1.3472363 -0.2351571 4.0900497
