# .PCD v0.7 - Point Cloud Data file format
VERSION 0.7
FIELDS x y z
SIZE 4 4 4
TYPE F F F
COUNT 1 1 1
WIDTH 336
HEIGHT 1
VIEWPOINT 0 0 0 1 0 0 0
POINTS 336
DATA ascii
2.1495435 0.072600685 3.8001361
2.2027094 0.04340804 3.7824528
2.2852609 -0.058769569 3.7441263
2.2043443 -0.18444996 3.7764022
1.9580128 -0.075966239 3.982434
2.1238866 0.15273871 3.5537102
2.4366055 0.26689121 3.6755192
2.1119361 0.064108551 3.8637195
2.013711 -0.057160582 3.9608135
2.0074022 -0.21063612 3.9323337
2.112083 -0.070066117 3.9510875
2.1495211 0.14693367 3.778177
2.1053598 0.079059191 3.8398671
2.3455317 -0.019171061 3.7921863
2.1512098 0.071215391 3.7991114
2.1161983 0.058192398 3.8217087
2.158859 0.048369266 3.825125
2.0626023 -0.042902064 3.951257
1.9773124 -0.2370896 4.004436
1.909903 -0.10183474 3.9975512
2.2147715 -0.018053681 3.7733703
2.2587862 -0.15622622 3.7391243
1.9939233 -0.16330111 3.9546814
2.1611824 -0.26700851 3.8494163
2.5136786 0.14099933 3.88678
2.2958379 0.013340041 3.7474816
1.9508642 -0.037381798 4.006382
2.1640651 0.094478488 3.7741885
2.0567462 -0.046441689 3.9508421
2.0797312 -0.074420638 3.9282796
2.0595562 0.23759267 3.5634732
2.113276 0.26391599 3.5173812
2.1568832 0.054194987 3.8201811
2.3417845 0.17739961 3.8122518
2.2590466 -0.0010740502 3.7468307
1.9935848 -0.15592954 3.9471796
2.0836401 0.25767627 3.5365481
2.2967112 -0.031829096 3.7429185
2.243016 -0.023557311 3.7639539
1.9590929 -0.074807294 3.9862778
2.2636018 -0.16208626 3.7355878
1.957728 -0.17794473 3.9519978
1.961092 -0.034633398 4.0187154
2.2771912 0.27148688 3.5805402
2.216789 -0.050915368 3.7833977
1.6857595 -0.020949094 3.7077956
2.1327639 0.13884206 3.7556462
1.9715019 0.11803336 3.608458
2.2830935 -0.032271091 3.7290528
2.2094538 0.02950523 3.7799556
2.2230995 -0.11087734 3.7647531
1.9838822 -0.16858833 3.938729
2.0640552 -0.026521454 3.9541798
1.9443884 -0.15359996 3.9614289
2.0568352 -0.086956926 3.9757326
2.0271251 -0.015328602 3.9816053
2.1782224 -0.12135278 3.7856371
2.2647617 -0.16333354 3.7340534
1.937196 0.09494821 3.6577401
2.1854358 -0.06963262 3.794059
2.2005727 -0.03675643 3.7944469
2.1738367 -0.06818717 3.7981701
2.2067914 -0.002793608 3.784606
2.1963396 -0.001966031 3.7928758
2.1934822 0.018436747 3.7983024
2.1220026 0.083322942 3.7968509
2.1317971 0.11011654 3.8149614
2.1338978 -0.064093195 3.8558924
2.1431479 -0.0043212175 3.8718071
2.1180301 0.055115391 3.8237762
1.9955392 -0.21664162 3.9391112
1.9851171 -0.16564672 3.9426908
1.9648852 0.14160889 3.6311533
2.1790004 -0.12582417 3.7773283
2.3218915 -0.013852679 3.7493379
2.1283424 0.15320626 3.5366266
2.2435114 -0.01813446 3.7593565
2.2325189 -0.23901035 3.744488
2.1869919 -0.02313444 3.7900519
2.1875372 0.0061222091 3.8174717
2.2010503 0.037152946 3.777622
2.1737232 -0.0041812127 3.8013787
2.1301551 0.087107949 3.7999067
2.2424355 -0.016158978 3.7579327
2.0815682 -0.047269195 3.9579415
1.9413136 -0.12272519 3.979126
2.0506394 -0.080275528 3.9694107
1.9951254 -0.2312648 3.9403088
1.9684223 -0.029904274 4.0175014
2.0147123 -0.060526218 3.9537716
2.0377314 -0.071876518 3.9688544
2.195904 -0.077514894 3.7789464
2.1858292 -0.07613875 3.8059926
2.2604818 0.00028428226 3.7528896
2.0197783 0.17678748 3.5955045
2.1420538 -0.22588585 3.9062817
2.4123964 0.19046421 3.8265624
2.0009944 0.18063781 3.6703334
2.2864966 0.29026943 3.5484269
2.0535209 -0.063564621 3.9598336
2.2049353 -0.0041674366 3.7877371
1.8905509 0.21215294 3.506748
2.1263285 0.096774302 3.8058567
2.1442845 -0.0025352256 3.8756294
2.2301688 -0.045083109 3.7656355
1.961964 0.14050516 3.6256077
2.2726676 -0.00058988499 3.7484889
2.210515 -0.051473711 3.7795932
2.2241011 -0.11108686 3.7864773
2.2894561 0.010154281 3.7434845
2.4302018 0.12753537 3.8482711
2.1827319 0.37914053 3.3405058
1.877972 0.21118617 3.4668121
2.2903888 -0.082018621 3.7356372
2.2957525 0.28130507 3.5761077
2.2902224 -0.079923041 3.7341366
2.2107854 -0.041070465 3.769244
2.2364945 -0.015724005 3.7501333
1.955757 -0.17698601 3.9483736
1.6544249 -0.049142826 3.7454991
2.3332946 -0.045370869 3.7451384
2.1758397 -0.20216893 3.8401964
2.2728443 0.28870377 3.559063
2.1266654 -0.28048438 3.8872855
2.124192 -0.27888209 3.8747675
2.1999183 -0.080996819 3.7861278
2.1890152 -0.069166295 3.7878044
1.9656584 0.14017323 3.6060543
1.9729474 -0.21573508 3.9473059
2.1002343 0.080967911 3.8628554
2.1348555 -0.024733165 3.8983531
1.9702722 0.1196235 3.6163683
2.1721532 0.012805951 3.8099341
1.621178 0.037712891 3.5798504
1.6128306 0.027944533 3.5844564
2.5476756 0.080171563 3.8686566
1.8614628 0.21840636 3.4412377
1.6705081 -0.036380079 3.7308643
2.2842486 0.33125085 3.4942524
2.133954 -0.2990922 3.8399026
2.2657952 0.26211503 3.5664153
2.0818594 0.2514112 3.5682857
2.0112157 -0.20234223 3.9335542
2.3392324 0.12597448 3.8030269
2.0833004 -0.047016356 3.9439878
2.0917494 -0.052830122 3.9651487
2.0893087 -0.053289637 3.937187
2.2449636 -0.046096601 3.7754884
2.1538684 0.0059436057 3.8480279
2.0328584 -0.05604706 3.9511073
1.6689376 -0.044684432 3.7141917
1.8625097 0.22588438 3.4131904
1.6694281 0.028584246 3.6507323
1.9613432 0.14030755 3.6246531
2.2933166 0.16927823 3.8042533
1.6222969 -0.011041974 3.6565943
1.6187912 0.038902584 3.5790422
2.1095107 -0.086050496 3.9715004
1.7682619 0.12601216 3.5700798
2.5309844 0.074293472 3.8499787
2.0805438 0.19535245 3.5370016
1.9601029 0.14300571 3.6288786
2.1362326 -0.29818672 3.8371434
2.0982985 0.14619619 3.4941673
2.0918407 0.1553257 3.4836388
2.0809886 0.14844035 3.4412105
1.6830865 -0.022273622 3.7177799
1.6845452 -0.011951034 3.7752864
1.6769586 -0.0040858416 3.8217781
2.0258701 0.1868616 3.6107464
2.0038574 0.17281701 3.6419177
2.2728176 0.32332218 3.5127466
2.0119829 0.14363134 3.6433272
2.1918867 -0.18938078 3.7677679
1.7028503 -0.04214387 3.7810533
2.2620325 0.003423373 3.7551935
1.9528373 -0.17792775 3.9423399
2.2150068 -0.003952425 3.7988093
2.3238909 -0.023907818 3.7456746
2.1991882 0.0199544 3.7794819
2.2000105 0.033434849 3.7945664
2.1918926 0.025051927 3.7995055
1.9807788 -0.15591259 3.9533913
1.9726787 -0.15905666 3.9829745
2.1612258 -0.0091078896 3.7918372
2.1912186 0.035172481 3.8031952
1.9439913 -0.15317878 3.9501228
1.616819 -0.017083135 3.6520228
2.2908981 0.018294966 3.7461112
2.1681728 0.0079886988 3.8125429
2.1324317 0.076348677 3.8147531
2.1687293 0.0062389504 3.8335719
2.2046905 0.049310658 3.7860427
2.1793158 0.026384952 3.8225701
2.1374624 -0.22519538 3.901068
2.1714008 -0.0073154415 3.818141
2.3543341 0.0094440784 3.8723559
2.1412346 0.1887463 3.4717572
2.0596945 0.23327461 3.5531821
2.1627941 -0.20463216 3.8481767
2.1806388 -0.021709427 3.791034
1.7688699 0.11415387 3.5494046
2.1816049 0.00058521441 3.8084311
2.1421127 0.14181091 3.7667649
1.7701499 0.11615148 3.544203
1.9562343 0.14017883 3.6301186
2.1071796 0.068021998 3.8579774
1.6557914 -0.050376877 3.7436082
2.1461318 -0.22952996 3.8740017
2.1741941 -0.20195597 3.8381689
2.181685 -0.11645753 3.7990799
2.1874688 -0.11664172 3.8116035
2.2024221 0.0043577435 3.8283608
2.3092911 0.013916652 3.7470541
2.1878109 0.0085332841 3.8169656
2.1799433 0.01880924 3.8166034
2.1195748 0.055031557 3.8318036
2.185276 0.017664546 3.8371084
2.1792705 0.0069130529 3.8050683
1.870635 0.22265555 3.4552703
1.9612622 -0.088578261 3.9522021
2.1364949 0.02517179 3.8771746
2.0550601 -0.048349075 3.9477518
1.9101353 -0.051705766 4.0174842
2.050256 -0.082748495 3.9713621
2.0557399 -0.020443564 3.9565873
1.9697468 0.14685249 3.616853
2.0551348 -0.0098717697 3.9712958
1.9303133 0.087375209 3.6822412
1.9621973 0.11125018 3.6487985
1.7562027 0.12213159 3.5572436
2.1698902 0.20325269 3.5005102
2.2762146 0.26618928 3.5190508
2.0333996 0.11174115 3.7191522
2.2697885 0.26778305 3.5818698
2.2588062 0.25074971 3.549876
2.1406591 -0.21131767 3.8471005
1.8608336 0.18236129 3.5058835
1.989215 -0.20845583 3.9347954
2.2657127 0.27819192 3.5334842
2.2391586 0.2449764 3.5035188
2.2773681 0.27469414 3.555299
2.314249 0.32454702 3.64096
2.3581576 0.33446416 3.5043404
2.3217521 0.2991986 3.4732206
2.0084453 0.10909098 3.6401079
2.1822135 -0.087317176 3.7969337
2.113029 -0.27748907 3.8476326
2.2309341 -0.044320997 3.7438331
1.9750785 -0.21346009 3.933362
2.269932 -0.021821037 3.7519019
2.1767044 -0.041171305 3.7738655
1.9874617 -0.21075492 3.9725082
1.9681032 -0.21177289 3.9294569
2.1913486 -0.010603646 3.7627928
2.2702711 -0.0057759113 3.7432585
1.970094 -0.18071422 3.9392204
1.9620717 -0.22070231 3.9267783
2.1432855 0.056224249 3.8016961
2.1334052 0.067672268 3.8143339
2.1819055 0.01045195 3.8050954
1.6144863 -0.017304655 3.6515191
1.8977678 0.20618886 3.5199845
2.1178899 0.11968553 3.7838352
2.0593617 -0.06498792 3.9457664
2.1530361 0.019999471 3.8847117
2.0719461 -0.063311875 3.9328573
2.0551062 -0.047185425 3.9526939
2.1408503 0.018829208 3.8821428
2.0456486 0.0017668251 3.9680586
2.1020246 -0.063336998 3.9631615
1.6711109 0.053218942 3.5693731
2.0005302 -0.15477437 3.9523742
1.876066 0.22139727 3.4719906
2.553721 -0.057054795 3.8400526
2.4547794 0.14141768 3.9089777
3.1581695 1.1133363 4.1829562
1.9267907 0.10749149 3.6732616
2.1731045 0.028993161 3.7787666
2.1721523 0.027914595 3.7711947
2.1935923 0.015916856 3.8201356
2.3177311 -0.01478739 3.7383959
2.3419397 -0.044805907 3.754847
2.1758339 0.004594625 3.8173528
1.9706831 -0.23207594 3.9318385
2.1376419 0.13720874 3.7811823
2.1615674 0.048522137 3.8029265
2.1706693 0.096958287 3.7837536
2.1017704 0.064334244 3.8311687
2.1155548 0.13002233 3.8151362
1.9908521 -0.24443808 4.0168982
2.1410015 0.0058643231 3.8221896
2.1443005 0.0073873163 3.8804038
1.9935672 -0.24581625 4.0354681
1.9966029 -0.24102435 3.9899664
1.9911321 -0.24061929 3.9575143
2.0789831 -0.060770892 3.9230397
1.998921 -0.24009417 3.9934447
2.0060151 -0.23497543 3.9883161
2.0268841 -0.05821659 3.9401803
1.9562646 -0.03185574 4.0051398
2.3703101 0.16940956 3.8624551
1.9731205 -0.067442358 4.0463419
2.1794004 0.030328656 3.7736032
2.1762524 0.019690517 3.7882199
1.9953583 -0.21473987 3.931215
1.9950765 -0.21762355 3.938405
1.7463471 -0.12221775 4.0306039
2.14347 -0.00079528644 3.8814623
2.1301425 0.033292904 3.9087007
1.9570531 -0.029256053 4.0085416
2.1089973 -0.086261228 3.9676571
2.4492085 0.092046693 3.8543959
2.4880373 0.041473035 3.9660337
2.109657 0.055594813 3.8390026
2.1957049 -0.079067543 3.7744787
2.2922888 -0.038166326 3.7343438
2.228967 -0.020504324 3.7499831
2.3163896 -0.018031452 3.7364619
2.1786287 -0.021538211 3.8025091
2.1316433 -0.22543532 3.8936322
1.9733227 -0.18303233 3.9300745
2.0999012 -0.065571971 3.9645352
2.1065447 -0.086150855 3.970129
1.7133459 -0.12618575 4.0434241
2.2243519 -0.11205801 3.7654731
2.5587454 0.053481035 3.8608317
1.9375262 -0.1097137 3.9764977
1.9339244 -0.098837696 3.9906723
2.0819857 0.19732876 3.5394912
2.2868061 -0.052446924 3.7476795
1.8672237 0.22436091 3.4490993
1.6621741 -0.022890702 3.7013731
2.0116858 -0.21751775 3.9647806
2.4943802 0.16626181 3.9122958
2.4669387 0.14650825 3.8603246
