# .PCD v0.7 - Point Cloud Data file format
VERSION 0.7
FIELDS x y z
SIZE 4 4 4
TYPE F F F
COUNT 1 1 1
WIDTH 334
HEIGHT 1
VIEWPOINT 0 0 0 1 0 0 0
POINTS 334
DATA ascii
-1.3893987 -1.0718468 3.4569769
-0.70230311 -1.1287585 3.4874489
-1.0139259 -0.63706309 3.5467155
-1.7722205 -0.82677072 3.7073257
-1.1351678 -1.1610441 3.4644306
-0.57955498 -0.56035185 3.5693054
-0.85343343 -0.58790934 3.5706029
-1.4056211 -1.068517 3.3353794
-1.3018492 -0.47866595 3.2489767
-1.6221635 -0.69241899 3.5972254
-1.5744936 -1.0508807 3.3852344
-1.1422089 -1.1161005 3.4492874
-1.6936257 -1.1568114 3.5651088
-1.2779183 -0.59868556 3.2048542
-1.2382692 -1.2235193 3.5168149
-0.62885815 -1.1071836 3.6291294
-0.88631523 -0.47035563 3.3888173
-0.74340171 -1.2788047 3.629106
-0.94043285 -0.47155127 3.3797984
-1.7822032 -0.80114478 3.7407355
-1.5483691 -1.1033058 3.3077872
-0.73716247 -0.51660699 3.4884079
-1.7312943 -1.0547297 3.5745981
-0.68242055 -1.1561902 3.5710812
-1.2019997 -0.89257222 3.4414604
-1.2985812 -0.59265035 3.2297983
-0.5017572 -0.71718597 3.8191347
-1.1543202 -0.60589588 3.526238
-1.3340811 -1.1146734 3.3340964
-0.89445394 -0.58203244 3.5593536
-1.1452277 -1.2305671 3.4024775
-0.715554 -1.1265606 3.6956015
-1.707495 -1.1789694 3.4957442
-1.4913678 -1.0868667 3.3644893
-1.484378 -0.98006046 3.4228194
-1.1154829 -0.89159584 3.4492474
-1.1157157 -1.1209797 3.4702013
-1.5110588 -0.71122271 3.5916665
-1.0161424 -0.6317361 3.5437522
-0.76692635 -0.55533546 3.5097616
-0.75015688 -0.51334327 3.4784286
-1.4361272 -1.1324461 3.2451313
-0.73690975 -1.2093099 3.6767199
-1.105579 -1.2205867 3.3852673
-0.76624632 -0.49450541 3.4508786
-0.67732847 -1.2021842 3.584892
-1.3481678 -1.1138201 3.3193979
-0.50575465 -0.71900886 3.8268073
-1.1533567 -1.1839974 3.3899667
-1.536203 -1.1032434 3.2924695
-1.2480186 -0.5935939 3.2783594
-1.0607432 -0.89473385 3.4626949
-0.89184481 -0.46267918 3.3743832
-1.4056581 -1.0701679 3.3388772
-0.708933 -1.1448742 3.5432022
-1.294572 -0.59343457 3.2423084
-1.4288021 -1.1203226 3.2608683
-0.72493708 -0.5697307 3.5708783
-0.66909248 -0.55747753 3.5655482
-1.1544691 -1.1102169 3.4654691
-0.68630171 -1.1773829 3.5283999
-0.86204672 -0.50555611 3.4466581
-1.2279716 -0.53705448 3.2274795
-1.5900062 -0.87717354 3.4857004
-0.83399689 -0.58876407 3.5617862
-0.66785854 -0.61688304 3.6595976
-1.6205919 -0.69302559 3.601598
-1.2578554 -0.62624127 3.2941966
-0.71868986 -0.93401337 3.483525
-0.82526571 -0.55525523 3.5242021
-0.68801248 -1.0542079 3.6008925
-1.2324836 -0.48652518 3.2574465
-1.6177125 -0.68996602 3.6062367
-1.2380265 -0.53629595 3.2224102
-0.73025125 -0.57358289 3.5781083
-0.61471784 -1.0154912 3.479913
-1.2847879 -0.53340381 3.2180476
-0.72119379 -0.55495185 3.5463054
-0.757909 -0.43630561 3.4094598
-0.67056268 -1.0997707 3.5444901
-0.75172639 -0.57629824 3.5835254
-0.74107611 -1.2076083 3.6715589
-1.6125553 -1.1146508 3.4263678
-0.78863257 -0.57887292 3.5747266
-0.82379681 -0.45446146 3.3738687
-1.1738191 -0.61306483 3.5246508
-1.201826 -0.60775405 3.5166554
-0.86113155 -0.46496859 3.3820021
-1.1810093 -0.60377979 3.5229511
-0.88842213 -0.47085184 3.3876576
-1.3074577 -0.59034574 3.2422283
-0.68540663 -1.1773592 3.5265281
-1.3022175 -0.59247196 3.2323656
-0.9268316 -0.48926589 3.4113085
-1.2269678 -0.59664494 3.2334549
-0.82780832 -0.50115496 3.3912971
-1.247871 -0.62457746 3.2999768
-0.70694697 -0.53257221 3.5043023
-0.83072257 -0.49348521 3.5008426
-0.57578546 -0.55134654 3.5607603
-0.73996961 -0.56761497 3.5547032
-0.70719904 -0.53434569 3.5216832
-0.63451803 -0.5575009 3.5647562
-0.83130556 -0.54756844 3.5251422
-0.7688424 -0.57068247 3.5700729
-0.81125724 -0.5098148 3.4658999
-0.75484914 -0.51950073 3.4933465
-0.75481224 -0.42158484 3.3253663
-0.73289871 -0.55536592 3.5554497
-0.86505359 -0.46895882 3.3391492
-1.1130128 -1.1108479 3.4388289
-0.84799147 -0.57920521 3.5619073
-0.71855342 -0.9370349 3.4853463
-0.73550731 -0.55448419 3.5425773
-0.84432089 -0.52305675 3.4807763
-0.84202027 -0.50820935 3.4947059
-1.5376805 -1.0959443 3.2835898
-1.2949289 -0.48346883 3.2620928
-1.3307555 -1.1297317 3.3440633
-0.92370933 -0.46544251 3.3948359
-1.1799654 -0.90577608 3.4574046
-0.75309688 -0.56100452 3.5250194
-1.3117205 -1.1341572 3.3203967
-1.4060984 -1.0704334 3.3399975
-0.76523799 -0.44611958 3.359894
-1.3545545 -1.1093855 3.3163147
-1.3456697 -1.0858784 3.2971463
-0.82090575 -0.47484383 3.4063993
-0.80952418 -0.50391889 3.447222
-0.77357042 -0.43090597 3.3322499
-0.7546429 -0.42793736 3.3688889
-1.3553219 -1.155526 3.2762322
-0.89098585 -0.46866703 3.3301847
-1.3544021 -1.1173041 3.3261087
-0.83781362 -0.45598122 3.3608992
-1.3140087 -1.1385527 3.3289392
-1.1377999 -1.0999582 3.4514947
-1.3292446 -1.1041441 3.3344557
-1.0617346 -0.90166843 3.4604504
-0.84052002 -0.50391167 3.4371614
-1.5329609 -1.0995365 3.2879345
-0.84966362 -0.53661799 3.3031168
-1.3092179 -0.59055793 3.2449098
-1.2408763 -0.62639004 3.2841518
-0.81402969 -0.58356595 3.5845304
-0.7919333 -0.5789572 3.5751307
-0.84820789 -0.59406346 3.5910008
-0.84911627 -0.59076595 3.5799053
-0.81030303 -0.49731579 3.4486279
-1.2446795 -0.60844737 3.5300529
-1.1921859 -0.6085462 3.5380716
-1.1996838 -0.6107713 3.4723325
-1.2114085 -0.60661227 3.5374062
-1.1842679 -0.60978389 3.5159791
-0.77056485 -0.44623405 3.3121483
-0.74133188 -0.44116613 3.3705935
-0.80206674 -0.50910908 3.4873366
-1.2693599 -0.60774392 3.23772
-0.85069901 -0.58271468 3.534795
-0.78429306 -0.56949097 3.5604002
-1.2968235 -1.1664509 3.3793402
-0.7748813 -0.46929759 3.4109836
-1.3174 -0.6241622 3.3058553
-0.84195936 -0.49967888 3.4665849
-0.92387521 -0.47885704 3.394011
-0.8568542 -0.46468171 3.3804862
-0.78598773 -0.47597739 3.3786786
-0.86903602 -0.48887867 3.4102516
-0.92413998 -0.46651131 3.3780835
-1.1163607 -1.2068988 3.3741632
-0.77786881 -0.46932647 3.4034321
-0.86043155 -0.46162692 3.3707957
-0.91265571 -0.48615232 3.3677297
-1.100639 -1.2066391 3.3596342
-0.81829739 -0.45440376 3.3781588
-1.2189763 -0.5398826 3.2095716
-1.1265144 -1.2131265 3.4355741
-1.2556019 -0.62515378 3.2897716
-0.89006537 -0.46213871 3.3708053
-1.3004377 -0.62311083 3.2728188
-1.1219864 -1.184487 3.3745167
-1.2880347 -0.59346855 3.2273872
-0.92753822 -0.48960647 3.4122496
-0.7669605 -0.42886743 3.3254471
-0.87023711 -0.48931882 3.411499
-1.2532263 -0.62517184 3.2842233
-0.84909838 -0.46280006 3.369791
-1.4180269 -1.1102409 3.2392216
-0.88995886 -0.47015387 3.3890471
-1.1146735 -1.2072705 3.3752384
-1.5221745 -1.1394484 3.236258
-1.1411409 -1.1465559 3.4155667
-1.6666317 -1.1532904 3.4194357
-0.72603637 -0.52726883 3.5205219
-1.5054513 -1.1583992 3.1951127
-1.355076 -1.0835127 3.3233807
-1.1872574 -0.82272631 3.5102189
-0.8997075 -0.52122009 3.4785278
-0.80347443 -0.51646525 3.4624422
-0.57191545 -0.53956497 3.5299323
-1.3924922 -1.0741854 3.303261
-0.71698749 -0.54613519 3.5304275
-1.5281528 -1.1635722 3.2146351
-1.5212157 -1.191153 3.1984229
-0.62767398 -0.55227906 3.5685904
-1.4603148 -1.2155632 3.230365
-1.1771681 -0.60470498 3.5716541
-0.90619296 -0.46924162 3.3617074
-1.2147613 -0.60630161 3.432466
-1.2155221 -0.61129177 3.4490099
-1.2192098 -0.61276317 3.5374942
-0.92115784 -0.46343121 3.3913348
-0.77819765 -0.50297606 3.5651262
-1.5605642 -1.1846064 3.2057393
-1.3771586 -1.1655911 3.1860995
-1.2422853 -1.2841812 3.5178046
-1.5288074 -1.1544464 3.2245338
-1.4608933 -1.1316592 3.2554777
-1.6471996 -1.1331515 3.3865466
-1.2901199 -1.1859452 3.5912871
-1.292052 -1.1856297 3.6145101
-0.72586399 -1.2263585 3.6200576
-0.87369472 -0.52133971 3.3516772
-1.7839594 -0.81820047 3.7583697
-1.7734149 -0.79847461 3.7761192
-1.2528573 -0.46962157 3.2895615
-0.80953264 -0.56481278 3.5532699
-0.77430129 -0.57216907 3.5270963
-1.6465819 -1.1520742 3.3902256
-1.2684672 -0.60935616 3.2644887
-1.2431414 -0.59235197 3.2453063
-1.347389 -1.1177787 3.3402791
-0.72267705 -1.1516616 3.5692561
-0.83261138 -0.58501011 3.5797935
-1.5463659 -1.0944744 3.29196
-1.2864231 -1.2170823 3.3485105
-1.2683908 -0.60831434 3.26737
-1.2692401 -0.60729575 3.2561696
-1.2358812 -0.52633375 3.2287843
-1.0904669 -1.0327935 3.4263952
-1.6504951 -1.1322232 3.4903355
-1.1375339 -1.1919557 3.3553267
-1.1395284 -1.2082168 3.4300559
-1.5879276 -1.0587333 3.4055886
-1.1362783 -1.1922019 3.4162109
-1.5852672 -1.0454018 3.374939
-1.5895102 -1.0588908 3.4131477
-1.1371663 -1.1649143 3.38834
-1.1591035 -1.1902692 3.414232
-0.71819305 -0.5388639 3.5250392
-1.1343851 -1.1744778 3.4441147
-1.4109111 -1.0695719 3.4261076
-1.2182456 -0.83401984 3.473001
-1.1532744 -1.1523228 3.467119
-1.1649159 -1.1343018 3.4605
-1.1618439 -1.1166764 3.4223349
-1.181975 -1.1293241 3.4571109
-1.1141508 -1.0895005 3.4383883
-1.1177031 -1.1050916 3.4730809
-1.0941155 -0.65366757 3.5090735
-0.69541103 -1.1150438 3.5711579
-1.2286427 -0.60675049 3.5405066
-1.0359813 -0.59560829 3.543366
-0.84661043 -0.60682017 3.5223589
-1.2459586 -1.2871357 3.4788704
-1.23905 -1.3162953 3.5363948
-0.72297066 -1.2879705 3.6168931
-1.2504247 -1.2683651 3.5141003
-1.2390523 -1.2905927 3.5314677
-1.2306746 -1.2648304 3.5092399
-0.75651032 -0.66744697 3.6042652
-1.2316926 -1.2565117 3.5230365
-1.2407182 -1.2704238 3.5539393
-1.2337716 -1.2443231 3.5244215
-1.5293037 -1.1559423 3.228821
-1.1350658 -1.166278 3.4168918
-1.1226283 -1.1446093 3.4158809
-1.0893089 -1.0685077 3.5141349
-1.4533966 -1.0664504 3.3045511
-1.394062 -1.0752511 3.3060563
-1.5650358 -1.0436553 3.3647118
-1.1294758 -1.1299887 3.4699583
-1.150521 -1.1354854 3.4321637
-1.220246 -0.61005801 3.4885635
-1.2345473 -1.2312192 3.5400128
-1.236439 -1.2284272 3.5298712
-1.2564329 -1.2253765 3.5377538
-1.6674678 -0.76633066 3.6169846
-1.2240188 -1.200258 3.5615649
-0.56154025 -0.64066613 3.719192
-1.0091008 -0.65174574 3.6336262
-1.2537849 -1.2012105 3.5667584
-1.2511365 -1.1926594 3.5463228
-1.8387684 -1.1515243 3.7086527
-1.854623 -1.1428059 3.7232955
-1.2769659 -1.1255438 3.5729432
-1.7399521 -1.0665381 3.5827396
-1.7191945 -1.0694455 3.5503886
-1.7449979 -1.0774595 3.6097353
-1.7937624 -1.0934086 3.6873977
-1.7766582 -1.0810781 3.6525011
-1.7346624 -1.0684128 3.5962677
-1.2109245 -1.3147588 3.5638824
-1.8211942 -0.94337678 3.7516329
-1.3229322 -1.1110755 3.4798231
-1.7635546 -0.94567549 3.6702094
-1.0816208 -1.1877668 3.6334202
-1.7897671 -0.80411845 3.7505665
-1.7795407 -0.79448408 3.7813444
-1.7958609 -0.81481862 3.7796886
-1.6870292 -0.77547061 3.6093421
-1.7888136 -0.78971535 3.7833896
-1.5717193 -1.1550881 3.3059826
-1.0737524 -1.1514944 3.5378642
-0.74168855 -1.3044065 3.6070991
-1.2269092 -1.2954593 3.5001383
-1.2288338 -1.2341036 3.497731
-1.7472146 -1.0651199 3.5995591
-1.7448281 -0.9248445 3.6479561
-1.825455 -1.128655 3.6741748
-1.8381288 -1.1307871 3.6953597
-1.3384118 -1.1138006 3.3570542
-1.1398289 -1.2107215 3.392818
-0.87043321 -0.51320487 3.4497428
-1.3134807 -0.62402743 3.280062
-1.7335613 -1.0512675 3.5890322
-0.77987921 -0.43079466 3.3368375
-0.85361141 -0.46628842 3.3773804
-0.75860023 -1.1926073 3.7154067
-1.3396029 -1.2071607 3.7386191
-1.1261356 -1.1941257 3.4188228
-0.73763305 -0.49295992 3.4602332
-1.0742892 -1.0304114 3.4029119
-0.72766465 -1.2319803 3.6563828
