# .PCD v0.7 - Point Cloud Data file format
VERSION 0.7
FIELDS x y z
SIZE 4 4 4
TYPE F F F
COUNT 1 1 1
WIDTH 192
HEIGHT 1
VIEWPOINT 0 0 0 1 0 0 0
POINTS 192
DATA ascii
0.076999448 -1.0477892 4.4607496
0.014371205 -1.071705 4.4514174
0.69599485 -0.71375775 4.3280783
0.66395384 -0.83587384 4.3316388
0.44291255 -1.0560191 4.3160038
0.56673616 -0.49837235 4.478548
0.69580895 -0.70814991 4.3284297
0.56953907 -0.51104981 4.4678144
0.071236588 -1.045524 4.4606905
0.9084149 -0.59753931 4.2399664
0.041080788 -1.0737495 4.5082846
0.72369266 -1.1189432 3.9391549
-0.21228385 -0.51244283 4.9248786
0.46649557 -0.94111437 4.4431467
0.76650608 -0.93953776 4.2117467
0.57709396 -0.8659175 4.3518114
0.47213292 -0.97702712 4.305584
0.87850457 -0.60691535 4.2251167
-0.22023892 -0.51057559 4.9268413
0.56421036 -0.39269796 3.0760529
0.87484789 -0.40006483 3.2086551
0.80464441 -0.80579239 3.9841826
0.73874271 -0.96849573 4.0535355
0.44093844 -1.0469619 4.3209801
0.36782247 -0.82570934 3.1653745
0.35063037 -0.82176441 3.1260624
-0.20766392 -1.1137813 4.5354691
-0.37288278 -1.131245 4.3687406
0.79308337 -1.1663586 3.9179587
-0.10111199 -1.1292913 4.6765289
0.74094754 -0.98709875 4.0436177
0.46237761 -0.48767671 3.2870991
0.75049752 0.0095802955 3.9343383
1.0328487 -0.59825784 3.8537683
0.18359017 -0.97452486 4.2930694
0.76724356 -1.0509562 3.8907821
0.82774425 -0.61958462 3.7589381
1.0251886 -0.67001259 4.0005431
0.91470712 -0.62477678 4.2299662
0.78364956 -0.62955034 3.768734
0.80748361 0.10421785 3.7126355
0.53621525 -0.56749403 3.4232621
0.69577628 -0.78937334 4.2927861
-0.4374381 -1.2557515 4.5334129
-0.35826018 -1.2353569 4.3775959
0.83302629 -0.45993736 3.2487905
-0.40981695 -1.2161475 4.3435869
0.72368097 -1.0042748 3.7858479
0.5520829 -0.50955522 3.3388772
0.65868968 -0.86898178 4.1533527
-0.24001475 -0.81228322 4.7052636
1.0808756 -0.47888249 3.5945632
0.97500741 -0.038992308 3.4300563
0.28606793 -0.28360108 2.4162953
0.2829245 -0.28071928 2.4088364
0.30192718 -0.99054408 4.4465709
0.31621575 -0.34059054 4.8550949
1.0369408 -0.6727829 4.0467486
1.0088664 -0.59827596 3.8628244
0.54340816 -0.23561658 4.5768046
0.45775065 -1.0893966 4.3493304
0.42682764 -0.79408127 3.2589817
0.44230944 -0.67081577 3.3041794
1.0975029 -0.14387797 3.4363291
-0.084581919 -1.0266303 4.6444883
0.76215857 -0.94225878 3.9024122
1.1260966 -0.17614625 3.4737954
0.98435926 -0.46691471 3.4658372
0.91951317 0.17015496 3.6739399
0.85250109 -0.39582402 3.1973586
0.89884496 -0.30836248 3.2949343
0.18968652 -0.93526191 3.015348
0.72221148 -1.0715661 4.0999804
0.44825438 -0.80104309 3.2744007
0.2189953 -0.60501426 2.6233411
0.31001577 -0.34911838 2.8651683
0.3431589 -0.64940721 3.3939507
0.32901153 -0.66880339 3.3710475
0.41905499 -0.68980259 2.9829948
0.49530503 -0.52502882 4.65101
0.76265842 -1.3523903 4.1287861
0.27763048 -0.33465391 4.8618913
0.47239351 -0.27474096 4.6069832
-0.17228526 -1.1237197 4.6729631
0.7820704 -1.1143475 3.7875695
0.4602544 -0.76510191 3.2813897
0.91180575 -0.61990482 4.2293878
0.60134745 -0.87643969 4.3560333
-0.41725534 -1.2000114 4.5404382
0.67672575 -0.87334865 4.1601148
0.48859891 -0.55204296 3.41134
-0.36706951 -0.35466784 4.5262952
-0.5677709 -0.58965248 4.553194
0.82699114 0.075101525 3.8456171
0.83788073 0.086229675 3.6565657
1.0374013 -0.66474605 3.7729208
1.1382737 -0.63812983 4.0262394
0.4305864 -0.66797686 3.2948916
0.43410927 -0.66732049 3.2970643
0.66750741 -0.76516712 3.9540722
0.44093832 -0.97134125 4.2865372
0.22996478 -0.61033124 2.632561
0.22745863 -0.6078105 2.6302137
0.23543906 -0.46461692 2.6954596
0.36533874 -0.63394749 3.5292575
0.52201676 -0.87834895 3.6812284
0.34278882 -0.62343264 3.5202754
0.3487094 -0.62672359 3.520772
0.5923788 -0.87143612 4.3540034
-0.30494845 -1.3533597 4.250988
0.61309421 -0.92987162 4.3346605
0.55988693 -0.39369395 3.074002
0.55484414 -0.40189448 3.0869019
0.77842653 -1.0219561 3.9141133
0.77738684 -0.37663928 2.9820223
0.24488671 -1.1624548 2.8765492
0.22974563 -1.1548039 2.8610175
0.19493541 -0.96545875 3.1420062
0.3969506 -0.50624168 3.0816696
0.15105595 -0.95569658 3.105783
-0.33015439 -0.38408732 4.5095568
0.17147905 -1.0057297 2.4745452
0.16460566 -1.1367002 2.6851039
0.56219655 -0.3953279 3.0807168
1.0805107 -0.47566459 3.5932913
0.372632 -0.456247 3.0685656
0.26176751 -0.61257523 2.6605594
0.76865298 -1.0876205 3.9140639
0.67788184 -0.99943322 3.7707214
0.40003982 -0.51661056 4.5404611
0.73752326 -0.91605383 4.1698842
0.75889862 -1.1129149 3.7779133
0.49361363 -0.87287223 3.6655154
1.0140228 -0.66807592 4.0027037
0.37435171 -0.749861 3.5107558
0.75977761 -1.1166552 4.1516461
0.69037414 -0.47904897 3.1990175
0.35826302 -0.653368 3.5542173
0.63586241 -0.25250781 2.8007698
0.77644795 -1.1519694 4.132884
0.3219918 -0.64889741 3.5657992
0.67028314 -0.87649411 4.1631355
0.7670148 -1.1467197 4.1205039
0.45756432 -0.80798113 3.6474805
0.71372801 -0.51759458 3.4261665
0.77110815 0.14854127 3.6861308
0.35638052 -0.64475858 3.5386453
0.75755084 -1.0160537 3.9025183
0.5696913 -0.39444777 3.0741196
1.084534 -0.47091073 3.5900347
-0.025131879 -1.3650913 4.2984505
-0.24431744 -0.49073574 4.898221
0.22641584 -1.1556664 2.8570411
0.18765792 -0.94883358 3.0013397
0.76828629 -0.9311499 4.1817708
-0.35505128 -1.0698409 4.3385587
0.16823687 -0.95292675 2.9949372
0.33403704 -0.43897954 3.0672166
-0.81751287 -0.94431961 4.0901289
0.76450294 -1.1200207 4.1493192
0.96015149 -0.66334516 4.1663351
0.6350804 -0.8163746 4.3237052
-0.011485728 -0.97871131 2.1607451
-0.21870482 -0.92873394 1.9093424
0.87120038 0.19509758 3.5883248
0.36635694 -0.62336349 4.7895041
0.75642669 0.0090610245 3.9410129
0.59249705 -0.8686133 4.3571711
0.76388955 -1.0727571 4.1283102
-0.30172256 -1.124831 4.4328365
1.1095319 -0.70642537 4.1561322
0.75220382 0.013048244 3.9273541
0.43676051 -0.66554117 3.3008761
0.7694484 -1.0892303 3.9134707
0.47982576 -0.8146081 3.6535549
0.73342109 -0.99058771 4.2154021
0.7365135 -0.98901004 4.2096105
0.69049293 -0.83478862 4.2712078
-4.4236288 -1.6562362 4.5716939
-5.9736943 -1.4733677 2.8709428
-4.5707245 -1.6569754 4.5752807
-6.4357724 -1.4732237 2.7731955
-4.7415304 -1.5047117 4.6464953
-4.8709807 -1.6613965 4.5053949
1.0684146 -0.10721627 3.516072
1.1017064 -0.1438289 3.4501948
-0.87555355 -0.59372336 4.7075458
0.17719364 -0.33448264 2.5258009
0.33921531 -0.78655463 2.7111232
1.1153332 -0.059873994 3.4929752
0.10322038 -0.31912124 2.4210119
0.49874339 -0.52910829 4.6465325
