# .PCD v0.7 - Point Cloud Data file format
VERSION 0.7
FIELDS x y z
SIZE 4 4 4
TYPE F F F
COUNT 1 1 1
WIDTH 182
HEIGHT 1
VIEWPOINT 0 0 0 1 0 0 0
POINTS 182
DATA ascii
0.57602561 -0.30506489 3.120369
0.90735966 -0.69030458 3.6461341
1.4499352 -0.36233696 4.0588288
1.1546218 -0.024104794 4.4915495
0.8734135 -0.84096527 4.6199102
1.3240108 -0.8543123 3.9947293
1.2830508 -0.32081929 3.5037315
0.88238537 -0.35139883 3.3310244
1.1924914 0.27728826 3.8162282
1.1374874 -0.084469609 4.5482931
1.4486851 -0.36320195 3.6530817
1.4553996 -0.38917682 4.0473733
1.517764 -0.25991419 3.278506
1.0674655 -0.27511933 4.8024774
0.32924125 -1.1306696 4.754806
0.38164768 -1.0500412 4.754797
1.4028469 -0.24768031 3.3917427
0.3064999 -1.1322271 4.7574725
1.2882378 -0.75721043 3.8881822
1.3073107 -0.65590483 4.0572271
1.0546576 -0.14196722 4.8271375
1.4287804 -0.36512244 3.6691215
1.7890494 -0.29265988 3.7188115
0.45544508 -0.22231486 2.9481268
1.0562984 -0.19739726 3.084821
1.2028495 -0.6534003 4.0645413
0.42416894 -0.79973674 3.1171274
0.64036518 -0.51137346 3.4121518
1.1841439 -0.61153615 3.7679377
0.44693571 -0.79933155 3.1234698
1.2928882 -0.95024657 3.7711954
1.0737166 -0.32227865 3.2863526
1.1815391 -0.32036299 4.5716443
1.1489755 -0.022934871 4.4841323
1.4298092 -0.46039778 3.6331134
1.119699 -0.069614723 4.5428462
1.7835833 -0.29825076 3.7149515
0.79558414 -0.38037914 3.3999112
0.89419532 -0.63190633 3.6444178
1.4343913 -0.43136472 3.5748048
1.4202976 -0.34459382 3.6381202
0.3099857 -0.48173192 2.7392192
0.72021896 -0.46871495 3.5513232
0.70117509 -0.46327922 3.5484061
1.2661039 -0.58572268 3.8502369
1.7901176 -0.29496482 3.7147629
1.2597337 -0.76838392 3.9206774
1.6038389 -0.38838536 3.7837656
1.2811862 -0.72209668 3.8237896
1.2500191 -0.7604062 3.9355221
0.89578247 -0.69150829 3.6562648
0.707367 -0.40730754 3.4159977
0.76352131 -0.3440325 3.312017
1.4018029 -0.24454761 3.3906462
1.4431238 -0.039035045 3.4079258
1.3859174 -0.46183532 3.6583822
1.3852305 0.095997766 3.2440715
1.3526862 -0.046613108 3.1797838
1.0499625 -0.32689303 3.2908013
1.0774413 -0.30669451 3.2380054
0.74613535 -0.22499904 3.0531738
1.1873018 -0.66383398 3.758945
0.95964944 0.28619653 3.6034226
1.2836274 -0.31896719 3.5021224
1.1114889 -0.86141533 4.2800479
0.60035777 -0.51751012 3.4403744
1.7894233 -0.31236106 3.707242
1.2268466 0.3418029 3.5809126
1.5315859 -0.22066382 3.537684
0.84805942 -0.50096196 3.6929915
1.4223242 -0.17709 3.5398204
0.73407727 -0.58383328 3.530946
1.3315352 -0.92534739 3.989079
1.0071005 -0.32441226 3.3453701
0.71566409 -0.48001021 3.5630248
0.75048667 -0.22525766 3.0552554
0.39925423 -0.81986523 3.1043663
1.1819358 -0.52114189 3.7763078
1.2671305 -0.72438985 4.2260323
1.1824081 -0.31931236 4.5717654
1.0949674 -0.32651246 3.2901149
1.022848 -0.8396976 4.4188972
1.4638171 -0.10233776 3.1805754
1.3509626 0.14180641 3.3018761
1.145875 -0.70829093 3.7084062
1.1790061 -0.5262779 3.7805278
0.72869909 -0.44236961 3.3909626
0.54849535 -0.66270149 3.1827512
1.2358158 -0.71928352 4.239696
1.1487622 -0.49666667 3.7630222
1.2133082 -0.65535587 3.8323646
1.258175 -0.84149605 3.767014
1.2246834 -0.5012008 3.8350995
1.2655754 -0.71898645 4.2241473
1.3239446 -0.85177273 3.9974654
1.4284152 -0.029638249 3.4128258
1.4537674 -0.17090325 3.1531825
1.4036053 -0.35307357 3.3787725
1.1689923 0.37871253 3.448456
0.98908824 0.45711485 3.2892234
1.0182447 0.43395939 3.2884693
0.7513997 -0.44978049 3.3906937
0.57841021 -0.74504954 3.0040886
1.1039032 0.28692681 3.5245302
0.63920593 -0.32247791 3.127198
0.64847016 -0.57806456 3.3818462
1.0654073 -0.85848755 4.3006811
0.56353527 -0.97247916 4.6575699
1.4918348 -0.51072168 3.989105
0.48248771 -0.84891784 2.9365001
0.49637976 -0.84740216 2.93767
0.32217795 -0.3924593 5.0126686
1.0568706 -0.53963149 3.6794496
1.3653769 -0.38173127 3.5393965
1.1171576 -0.060287151 4.5387459
0.72892094 -0.64956546 3.4930387
0.70604038 -0.55590641 3.2920978
1.2010112 -0.54274976 4.3662477
1.2687379 -0.69434667 3.7983751
0.89760238 -0.54943663 3.6844718
0.86633414 -0.36529666 3.325243
0.60589135 -0.64866072 3.2165246
0.77091461 -0.23147185 3.0610225
0.75317383 -0.2686227 3.1393447
0.71336031 -0.41223192 3.336587
1.1119329 0.18406138 3.5818031
0.62833476 -0.52537221 3.4578979
0.68802238 -0.46604326 3.5539625
0.61624563 -0.64588493 3.448184
0.7139681 -0.65064472 3.495054
1.2141476 -0.78865027 3.7221992
0.94620168 0.29770043 3.6032822
1.3523114 -0.62966496 4.0496216
1.2958527 -0.22742437 3.2912948
0.76150268 -0.30693316 3.2355759
1.4377539 -0.034867976 3.4163246
1.4777507 -0.17835502 3.1635253
1.2170862 -0.61275232 3.8307066
1.3285949 -0.85941887 3.9883111
0.74662465 -0.34663171 3.1438148
1.1821187 -0.5245114 3.7768729
1.2819898 -0.61398119 4.0449038
1.0285523 -0.18929459 3.0779169
1.138813 -0.89395702 4.2886233
1.1663206 -0.70094305 3.7103043
1.334303 -0.24077298 3.2974017
1.1637422 -0.72418749 4.2665105
1.2817212 -0.71838713 4.2144356
1.4891288 -0.16493148 3.1396227
0.98209202 -0.89372736 4.437078
0.56851983 -0.73167717 3.022506
1.2679678 0.10808518 3.2403688
1.3599185 0.13642873 3.3020802
0.39647478 -0.82351083 3.2079098
1.233698 -0.6531201 3.7788475
0.77832115 -0.91903359 4.5705857
1.2414021 -0.66289485 4.2523804
1.2107514 0.27310455 3.448415
1.316206 -0.70422423 4.1159935
1.2298512 -0.90074241 3.8303907
1.168463 -0.40933564 4.4232783
1.0245882 -0.8418991 3.6506712
0.90735728 -0.55982196 3.6779354
0.93903989 -0.55914509 3.7478631
1.2764143 -0.71451318 3.9510832
1.1340256 -0.49206784 3.7685173
1.3628843 0.1709646 4.1482601
0.31344143 -0.19017781 2.8084962
1.1069775 -0.41980645 4.7669969
0.88923991 -0.54614651 3.6938467
0.57213974 -0.2974444 3.1355557
0.32288226 -0.19022886 2.8185337
1.3531007 0.14013579 3.3013902
1.0401328 -0.19138178 3.0738945
1.3055103 -0.75655991 4.0496359
0.030471953 -0.70991695 2.7495773
1.4483385 -0.14469495 3.1286383
-2.2971213 -1.9427673 6.8614182
-3.1468899 -2.1185055 7.4029098
1.3413144 0.1153918 3.2404914
1.4021001 -0.4597854 3.6427324
1.2122284 -0.44266763 3.6012933
