# .PCD v0.7 - Point Cloud Data file format
VERSION 0.7
FIELDS x y z
SIZE 4 4 4
TYPE F F F
COUNT 1 1 1
WIDTH 213
HEIGHT 1
VIEWPOINT 0 0 0 1 0 0 0
POINTS 213
DATA ascii
0.50437486 -0.66896725 3.6037202
0.41265395 -0.4745658 3.5290473
0.91958272 -0.50785345 4.4198432
1.053046 0.018559646 4.4284682
1.2322155 -0.51661527 3.8384762
0.9863714 -0.7301293 4.2966285
0.7066139 -0.80380625 4.4218383
0.81582797 -0.31525362 4.5651178
0.92600179 -0.53033614 4.4076276
1.1690811 -0.43837753 3.8918824
0.94362974 -0.67078424 4.3586998
0.23943348 -0.55045962 3.7928138
0.69384825 -0.06142053 4.7326179
0.099020056 -0.31312856 5.1059165
0.71394974 -0.75898689 4.5585241
0.81187499 -0.68715137 4.4513836
0.70244992 -0.79986262 4.4227228
0.091365591 -0.31119132 5.1087933
0.94003469 -0.47278839 3.8375232
0.63691556 -0.26048714 3.1711459
0.96176314 -0.26304549 3.2638865
0.41332221 -0.8319537 4.7387967
0.85820538 -0.21801512 3.2594852
0.673751 -0.86919302 4.444418
0.43324605 -0.68745679 3.2629666
0.67263746 -0.87207276 4.4495931
0.97603947 0.2272452 3.9906969
-0.050191682 -0.89595467 4.6489196
1.2003362 -0.43772531 3.8907723
1.130439 -0.45058903 4.2795324
0.94258344 -0.47207722 3.8388708
0.65348887 -0.42258221 3.525183
0.76711279 -0.33570969 4.7450552
-0.1700833 -1.0701367 4.7727952
-0.21131431 -1.0670029 4.7731442
-0.11116964 -1.0554044 4.6076403
-0.16667187 -1.0374398 4.5797029
0.90268046 -0.5795716 3.9664843
0.68296045 -0.67687923 3.7949634
0.98462999 -0.64991522 4.0955606
1.214927 -0.32782465 3.6234648
1.1300089 0.40017614 3.6037228
1.1137482 0.23256147 3.7769456
-0.19296704 -1.0696869 4.771111
0.99787438 -0.61124259 4.2257571
0.96413583 -0.80854881 4.0980344
0.76683176 -0.33697978 4.7431211
0.61380595 -0.14392383 4.9642119
-0.30847073 -0.38596353 4.7862473
1.2289414 -0.50520617 4.0842667
0.8644284 -0.99771565 4.0268846
0.95951688 -0.94010454 4.236454
0.96236223 -0.63675797 4.0557775
0.56240433 -0.4140687 4.910718
0.69417906 -0.91057235 4.471941
0.52538818 -0.6549744 3.3841882
0.54585737 -0.53015167 3.4226227
0.37394217 -0.23829211 3.0072365
0.56797916 -0.31555724 4.6622329
0.93945068 -0.77973431 3.985348
0.96598178 -0.7452113 4.0076246
0.26711103 -0.86612201 4.6323037
0.26020262 -0.80489135 3.1774836
1.2139233 -0.49522468 4.027709
0.35808048 -0.22457801 2.9924064
0.36745998 -0.79898864 3.0973313
0.45865455 -0.50550222 3.5233009
0.44183424 -0.52571571 3.503067
0.5236662 -0.55334532 3.1391208
0.96128082 0.26883391 3.5113933
0.46145165 -0.36943999 3.1919825
0.21245028 -0.92074871 3.0975299
0.28131446 -0.80618089 3.1880355
-0.11940267 -0.96044153 4.6148705
0.13663667 -0.32668203 5.0936427
0.23485528 -0.1386115 2.8128955
0.042445779 -0.21760176 4.7140465
0.049698807 -0.63202459 2.5049562
0.76671618 -0.3356404 4.7460279
0.97020471 -1.1813905 4.2244706
0.57635134 -0.13774438 4.9755797
0.71886194 -0.066315189 4.6987925
0.7373268 -0.087112702 4.6962528
0.10987791 -0.93313557 4.8731203
0.83651406 -0.69751376 4.4529042
-0.3235102 -0.38539505 4.7858567
0.60761142 -0.40871391 3.5182581
0.95001191 -0.85839391 4.24962
0.97449452 0.24325483 3.6917815
-0.10525546 -0.16990389 4.7244997
0.82720816 -0.68949705 4.4546871
-0.29992843 -0.4037571 4.7848115
0.99202687 0.234898 3.8843138
0.61227965 -0.33878309 3.3491848
1.326743 -0.47132024 4.0499678
0.53304911 -0.52765119 3.4147837
0.53681368 -0.52691656 3.416472
0.66908699 -0.79487056 4.4075503
0.85301179 -0.87320709 4.0820689
0.77627844 -0.62767339 4.5352159
0.25067076 -0.49405012 2.7812324
0.26333004 -0.34615162 2.8376651
0.21687475 -0.16390811 2.7844849
0.49756148 -0.48514813 3.6541092
0.47996643 -0.47823644 3.6475239
0.69923955 -0.91339689 4.4754381
0.96487707 -0.63721597 4.0535116
0.63237357 -0.26155677 3.1696911
0.62902606 -0.26928425 3.1834085
1.5287676 -0.39631122 4.0150895
0.47219872 -0.37375101 3.2017925
0.23331435 -0.82203412 3.272728
1.403597 -0.4165132 4.0829668
0.97247231 -0.7752037 4.0328598
0.89758772 -0.8411693 3.8846388
0.917566 -0.80689389 4.1372828
0.98802882 0.2187748 3.695755
0.59601355 -0.37284991 3.4252326
0.63551468 -0.26294625 3.1761172
1.2143908 -0.32465497 3.6221337
1.1353985 0.10302235 3.4992347
0.44620174 -0.32426396 3.1900554
0.28574422 -0.49527806 2.8050799
0.04935471 -0.41545427 2.5950232
0.22237585 -0.15817337 2.7845325
0.90959114 -0.88119388 4.09303
1.3038105 -0.50738376 4.0396199
0.97223192 -0.90695262 4.211257
-0.11777364 -0.68212992 2.7007904
0.94801533 -0.92457813 4.0013127
0.70828694 -0.8840012 4.4508886
0.65829909 -0.33123401 4.6480803
0.94844252 -0.74385083 4.2526803
0.72738791 -0.072461389 4.697526
1.0596374 0.28051224 3.7651093
0.9730854 -0.77205181 4.0354533
0.92137444 -0.95479119 3.8684616
1.2932026 -0.27297688 3.5368547
0.59309268 -0.52311981 3.8180757
0.64299864 -0.71897793 3.781692
1.2006583 -0.50209862 4.0433064
0.96914387 -0.94498169 4.2390189
0.97509521 -0.9728598 4.2005415
0.77789807 -0.3423253 3.2803273
0.49376079 -0.50365108 3.6804419
0.98348922 -0.98095298 4.219595
0.45920897 -0.49876326 3.6963167
-0.036966473 -0.95035124 4.6445489
0.88070792 -0.70456111 4.2530065
1.5266575 -0.39361024 4.0189528
1.2907531 -0.42629549 3.9273894
0.97255385 -0.97615534 4.2083158
0.81228453 -0.29424623 4.5670028
0.82973546 -0.37261194 3.5039864
0.89746934 -0.62975436 3.947202
0.89031196 -0.99888015 3.970242
0.82203561 -0.29923889 4.5669365
0.48990077 -0.49561176 3.6649299
0.64211857 -0.26230592 3.1686041
1.2179523 -0.32002234 3.6182289
0.9805218 -0.75850642 4.2611465
0.25476494 -0.80672783 3.1733518
0.23644249 -0.82328427 3.1605749
-0.60417098 -0.77497423 4.3698134
1.3763791 -0.24682975 3.5205638
0.86565232 -0.63866031 4.4144583
0.11878517 -0.82125348 2.5720601
-0.092864782 -0.37294468 4.9638796
-0.44863832 -0.39090684 4.9484406
0.68402845 -0.3811284 4.9030828
0.92588484 -0.3839815 3.4665139
0.85680002 -0.21857826 3.2559423
0.83492851 -0.20677067 3.2410526
1.2166873 0.41503474 3.5515947
1.0044979 -0.60912502 4.2292113
0.58090216 -0.6997748 3.7763898
0.89808309 -0.57310295 3.9674466
0.93428665 0.17235954 3.9901254
0.059374593 -0.81524092 4.8518934
0.53835845 -0.46514145 3.4978507
0.38165662 -0.67660064 3.2631145
0.96932644 0.21107207 3.691632
0.87442732 -0.54167718 3.9439778
0.88871104 -0.56673151 3.9616208
0.91869426 -0.39154691 3.4715326
0.97009683 -0.90195835 4.213788
1.1798455 -0.51413697 3.8980463
0.51109445 -0.34730732 3.219774
0.96414983 -0.81770056 4.3002214
0.50705171 -0.51342845 3.5080793
0.94129074 -0.65999299 4.2481165
1.0337988 0.033782698 4.4285874
1.1088811 0.12546287 4.3623309
0.90512788 -0.94857574 4.0327597
0.97830176 -0.48452559 3.8324728
0.62755495 -0.6611855 3.7694693
0.94891733 -0.81352812 4.3005829
0.6168865 -0.15756644 4.9698348
1.2300637 -0.54124314 4.0882173
-4.1181273 -1.4689324 5.3255
-4.4248195 -1.3147931 5.4341149
0.5480935 -0.85107744 4.5800438
1.1910311 0.040752202 3.5338433
1.2159623 0.0017753595 3.465668
-0.58589673 -0.40222734 4.9766212
0.18367268 -0.22225223 2.6720896
0.09707015 -0.21069868 2.5769303
-4.0958867 -1.4571253 5.886322
0.29793817 -0.91077328 3.0263255
-4.5444121 -1.4791263 5.9862566
1.2177595 0.059459131 3.5183797
0.76958418 -0.33987951 4.7413039
-4.2133074 -1.4918321 6.1736364
