# .PCD v0.7 - Point Cloud Data file format
VERSION 0.7
FIELDS x y z
SIZE 4 4 4
TYPE F F F
COUNT 1 1 1
WIDTH 186
HEIGHT 1
VIEWPOINT 0 0 0 1 0 0 0
POINTS 186
DATA ascii
0.22999702 -0.7630443 4.8454866
0.80779612 -0.51620758 4.5563731
0.80734277 -0.51505047 4.5547118
0.96245402 0.031360261 4.5729346
1.1408778 -0.43564752 4.0543427
1.1674279 -0.53288162 4.0195622
0.97075635 0.0084673725 4.5757179
0.97469693 0.016654316 4.5655804
0.69522411 -0.28464913 4.6958294
0.80792463 -0.51058716 4.5563569
0.80800432 -0.50827903 4.5576563
0.69699442 -0.29813087 4.685885
1.1909108 0.29670444 4.0057874
0.82238078 -0.65340006 4.5136271
-0.19227962 -0.15751962 4.7675319
0.14047939 -0.82657105 4.7785077
0.62897366 -0.29686412 4.8708167
0.57196885 -0.019070476 4.8429437
0.83716512 -0.66924846 4.4888511
-0.068782777 -0.22620901 5.1639738
0.68166912 -0.65961999 4.5934963
0.78173929 -0.64122856 4.5729928
0.56943953 -0.76743507 4.5577254
0.87953776 -0.47399548 3.9888537
0.65366727 -0.2698755 3.2900481
1.0425532 -0.48421982 4.3919077
-0.28595644 -1.0994394 4.5467863
1.1211185 -0.5280329 3.9973316
0.83933121 -0.52479059 4.4563084
0.82794416 -0.7901516 4.298223
0.53502089 -0.83437228 4.5786004
0.79151875 -0.71918142 4.4997034
1.1416239 -0.52688777 3.9955781
-0.4854463 -0.71766526 4.4220023
0.41893166 -0.68218189 3.3744166
0.81081802 -0.64874244 4.4083886
-0.10907017 -0.85077453 4.8153138
-0.28022587 -0.86970252 4.654851
0.93926466 0.2281899 4.1236649
0.57400149 -0.76724088 4.562736
-0.20552395 -0.81625587 4.7123733
0.25176015 -0.77369708 4.8458405
0.82882357 -0.80945098 4.2895026
0.88869393 0.17597942 4.1141601
1.1350926 -0.45064619 4.0661087
-0.31734338 -0.8902632 4.8450513
1.1282549 -0.51222199 4.2174754
0.31781811 -0.76648414 3.2408454
1.0277531 -0.44613767 4.4464288
0.62736428 -0.42002115 3.6487346
0.80236846 -0.59381521 4.5261922
1.1302373 -0.51083928 4.214993
0.85582691 -1.0056015 4.1676316
0.67252761 -0.65763128 4.5949965
-0.27097207 -0.97367924 4.6701722
-0.28467962 -0.90648407 4.8410621
0.73351514 -0.89742702 4.5342369
0.69314569 -0.42082691 3.6503689
0.91369432 0.27596655 3.8749912
0.80243999 -0.84225947 4.0340304
0.64363754 -0.36863732 3.5602791
0.75660741 -0.68006873 4.3934488
0.89502138 -0.67191279 4.1929865
0.31727839 -0.76767826 3.2334332
-0.5258047 -0.70796388 4.4152975
0.64744681 0.28426722 3.8442035
0.24524963 -0.47191918 2.8103335
0.88943338 -0.64398587 4.2552204
0.85442084 -1.0018922 4.1600833
1.1764545 -0.012569747 3.7175756
1.1388147 0.37912792 3.7484872
-0.28392228 -1.1283491 4.8438029
1.0514774 0.26717588 3.8463519
1.2028085 -0.53004104 4.3625832
0.86008465 -0.80115443 4.2604613
0.84574336 -0.690126 4.42377
-0.44724384 -0.28900817 4.8084946
1.3783246 -0.3865335 4.0749822
0.75736082 -0.98727804 4.1856694
1.1114455 -0.44873634 4.0758204
0.69929379 -0.66522998 4.5977607
0.61895585 -0.69202948 4.6570163
0.56037718 -0.71837598 4.5229292
0.80099255 -0.7748282 4.3044033
0.60970122 -0.68645579 4.6498704
0.67748356 -0.39875901 3.6130071
0.50071436 -0.65027386 3.5029988
0.5810923 -0.76424474 4.6544652
0.40919042 -0.23984501 3.1007252
0.39453989 -0.22948633 3.0733755
0.92671078 -0.3859117 3.5927327
0.91176122 -0.23896268 3.3746209
0.021954015 -0.76378584 4.9147887
0.17410384 -0.83710897 4.77246
0.10056812 -0.8020559 4.9319005
0.7914204 -0.42608979 3.6376679
0.87842607 -0.77584195 4.2098455
0.24864328 -0.79341054 3.2760687
0.80736089 -0.88891691 4.3518481
0.52221483 -0.65741301 3.5182331
0.83086646 0.10555017 3.9173388
0.39559904 -0.22585714 3.0840154
0.21272643 -0.83090591 2.7115395
0.35010719 -0.20385274 2.9310336
0.2024394 -0.90937918 3.1953697
-0.082289152 -0.14175685 4.7657614
0.84780228 -0.61850965 4.1345778
0.85086393 -0.62409139 4.1379395
0.83348131 -1.1691148 4.3980522
0.59979326 -0.026448352 4.8118768
0.6172418 -0.0482537 4.8117738
-0.06991151 -0.85376948 4.9521079
0.58655548 -0.39165631 3.5671413
0.8548249 -0.95508617 4.0413928
0.95403397 0.2440566 3.8131764
1.0251021 -0.44115847 4.445611
0.7054413 -0.67118841 4.5977187
-0.46212283 -0.28767326 4.8066254
1.4046841 -0.42099488 4.1122112
-0.2441334 -0.95240259 4.7710357
0.8166216 -0.85220379 4.0411911
-0.3227472 -0.92463481 4.8319168
0.58319324 -0.40404108 3.6369627
0.58864248 -0.40766981 3.63872
-0.31852049 -1.1384021 4.8305025
-0.3180258 -1.1439795 4.8292418
0.5802958 -0.40273178 3.6371665
0.89025301 -0.6462723 4.2602792
0.96718371 0.23370239 3.8256729
-0.2274588 -0.086110927 4.7603469
1.4012653 -0.41378066 4.1038966
-0.43959716 -0.30726108 4.8084335
0.96574497 0.2312438 4.0191612
0.60784835 -0.34045577 3.467119
0.682751 -0.72469687 4.5743389
0.25185132 -0.79229802 3.282815
0.66597086 0.35911801 3.7741079
0.40255052 -0.63908613 3.6778395
0.51821727 -0.21178122 3.185986
0.51242155 -0.5225206 3.5303485
0.51604229 -0.52192336 3.5323722
0.37363231 -0.61423349 3.538645
0.56706661 -0.16410965 2.9319916
0.87745064 -0.77140754 4.1997948
-0.19290869 -0.3123064 5.0174789
0.41776717 -0.24100365 3.1031678
0.29417822 -0.49666747 2.8715959
0.29797497 -0.49158055 2.8688145
-0.34015614 -0.35850942 4.824831
0.29173827 -0.49416742 2.8691585
0.30951759 -0.34772763 2.9245155
0.3155888 -0.18446149 2.8872926
0.39921033 -0.6690706 3.0359724
0.45661697 -0.46981427 3.763695
-0.2281771 -1.1024179 4.5502086
-0.17060062 -1.1085936 4.559967
0.64923316 -0.27075839 3.2881908
0.82234359 -0.80599713 4.2838154
0.42576626 -0.77590328 4.7024179
0.85819811 -0.96993506 4.3884621
0.41371378 -0.47992092 3.8023591
0.84867203 -0.96497673 4.3760328
-0.10043145 -0.20451131 5.1368527
0.24543884 -0.80772442 3.2630539
0.24912736 -0.82953358 3.2637784
0.22563073 -0.81112927 3.2574887
0.74132031 -0.61532128 4.5605383
0.60815644 -0.02795141 4.8160019
0.89036131 0.1788877 4.106916
0.518906 -0.52005261 3.5359814
0.944152 0.04755741 4.5707216
0.84760076 -0.92121637 4.1656585
0.84406418 -0.62453318 4.1335816
-0.45848379 -0.38318434 4.7360063
0.82959062 -0.80037749 4.4553151
0.50184107 -0.065708928 5.0390863
0.46750307 -0.1026592 5.0743284
0.40365666 -0.054160196 2.7406659
-0.033054233 -0.39847526 2.3140781
0.17979822 -0.20818898 2.6411343
-4.3114166 -0.89306384 5.3078375
-4.3282838 -0.89063054 5.3107405
-4.3533473 -0.88843614 5.3110642
-4.6515789 -0.97929424 5.0802531
-4.4199944 -0.98438537 5.0696669
1.1863337 0.014777801 3.6957297
