# .PCD v0.7 - Point Cloud Data file format
VERSION 0.7
FIELDS x y z
SIZE 4 4 4
TYPE F F F
COUNT 1 1 1
WIDTH 146
HEIGHT 1
VIEWPOINT 0 0 0 1 0 0 0
POINTS 146
DATA ascii
0.97829008 -0.59742975 4.3757434
0.7430532 -0.93869382 4.4090004
1.1687098 -0.57656622 3.8473771
1.0980287 -0.041755091 4.4059463
1.2344646 -0.46640247 3.8403237
1.1100889 -0.055124279 4.3961453
0.87088633 -0.38236833 4.5429344
1.2211779 -0.53825325 3.7709775
1.0041503 -1.0075808 3.835273
1.2473427 -0.53636968 4.0353723
0.48257425 -0.90919369 4.7184992
0.98260784 -0.38038281 3.3584027
0.46804565 -0.73119318 3.2831006
1.013742 -0.81866717 4.0838051
0.9731791 -0.56471473 3.9366922
-0.061241165 -1.0335186 4.5940318
1.0015812 0.17646886 3.9767616
0.95367277 0.12131222 3.9707453
0.98434448 -0.93924725 3.9362764
0.6708647 -0.46647665 3.507437
0.97385883 -0.67351329 4.3417587
1.2505449 -0.550596 3.9959784
-0.095706113 -1.1569012 4.7683163
-0.038069457 -1.0803672 4.776557
0.93876028 -0.63051981 3.9350009
1.0942762 0.069891512 3.4372184
-0.11864123 -1.1567547 4.7675028
0.68170333 -0.22398481 4.9535041
1.2091178 -0.4827109 3.8646231
0.88625234 -0.75590605 4.4216528
0.75421989 -0.97697538 4.4394159
0.54081786 -0.6972276 3.3655312
0.36935446 -0.27371308 3.005131
0.97025061 -1.0523795 3.936672
1.2508738 -0.54302901 3.9866297
0.37420323 -0.83649302 3.081255
0.78382909 -0.99667472 4.4184475
1.3648721 -0.56450891 3.9960458
0.46563181 -0.40803984 3.1831079
0.29165995 -0.84721434 3.1749122
0.92021066 -0.41657996 3.432677
0.91983569 -0.64069813 3.936933
0.83219552 -0.41314769 4.7194738
0.91516703 -0.82499135 4.3986926
0.83538806 -0.11478073 4.6292009
0.79418689 -0.15873551 4.6826224
1.556874 -0.44189698 3.9639058
0.99950689 0.19120753 3.9777224
0.62456691 -0.45313448 3.5025871
0.62164515 -0.4520511 3.5032508
1.013424 0.18698017 3.8700809
1.3641057 -0.51798379 4.0052419
0.55164659 -0.56984639 3.4005795
1.2069681 -0.46184108 3.8327751
0.8976503 -0.92762852 4.0449328
0.24124786 -0.525653 2.7775331
0.52082402 -0.53454113 3.6404967
0.9018985 -0.81489229 4.3980017
0.63133091 -0.30519089 3.1707883
0.75806707 -0.36067629 3.3167908
0.58228076 -0.74716508 3.7427506
0.55756944 -0.5975666 3.4691117
1.0125866 -0.82040989 4.0859666
1.1298345 -0.051161505 3.4549334
1.023638 -0.72749358 3.9957175
1.0137683 -0.82665449 3.9937675
0.66148436 -0.76891494 3.7699409
0.53318053 -0.47335264 3.5050263
0.60895377 -0.41516826 3.4109941
0.63744897 -0.2985782 3.1634212
0.32224748 -0.6857692 3.4146304
1.001139 -0.99953949 4.1919889
0.9547109 -0.93502992 4.0535622
0.95698071 -0.79370075 3.9080536
1.0166376 -0.81983751 4.0848708
1.0221359 -0.96274722 4.1686735
-0.1272824 -0.71722144 2.7062366
0.99024767 -0.97555774 3.9594061
0.89578098 -0.4193939 3.43346
0.93235147 -0.40167087 3.3855124
0.87566668 -0.89099258 3.8318
0.98519576 0.18667291 3.6791742
0.65710646 -0.32826918 3.1828003
0.93535519 -0.76209539 3.9156833
0.80492097 0.20098321 3.7311914
0.7671448 -0.94968414 4.4185252
0.41584259 -0.57516569 3.5124896
0.41974816 -0.578376 3.5212603
1.0144345 -0.82355863 3.9964144
0.62301487 -0.5750978 3.7997613
0.89933085 0.38359088 3.4304104
0.52903181 -0.65051591 3.6220043
0.8993752 -0.8831045 3.8361468
1.0347443 -1.0367526 4.1747174
1.5615869 -0.43653131 3.9687278
1.0233235 -1.0318438 4.1639805
0.93246555 -1.0499324 3.9286573
0.6437543 -0.29765356 3.1556845
1.0983438 -0.42780355 3.6759076
1.2116269 -0.54448432 4.1726875
-0.021169558 -0.4635447 4.9738736
0.7529065 -0.45852688 4.8838329
0.9402746 -0.42234424 3.4395971
1.0133309 -1.0418879 3.9131608
0.83836281 -0.24102257 3.2222359
0.86023504 -0.95276284 4.3456945
1.0508485 -0.6650002 4.1929021
0.72618085 -0.50667995 4.8836327
0.61175245 -0.75083572 3.7541254
0.70003033 -0.63790035 3.8535616
0.93411177 -0.62414682 3.9362974
1.0109726 0.30373052 3.6130843
0.13295653 -0.90060478 4.8451591
0.39292985 -0.71802664 3.2494199
0.98379129 0.16756931 3.6778457
0.95786494 -0.85281754 3.9033709
0.90961194 -0.76322579 4.4172931
1.0895189 -0.42855561 3.6816299
0.92443699 -0.61777568 3.930989
0.93338656 -0.43013844 3.4446895
0.68789464 -0.63872343 3.8545566
0.93069214 0.25150821 3.7222884
1.0200276 -0.9578495 4.1714077
-0.076726295 -1.254784 4.4669356
0.44772008 -0.480535 4.9920683
0.57968777 -0.57671934 3.4099634
0.27090296 -0.42862457 5.0673618
0.52518296 -0.55906904 3.4935479
0.63046694 -0.34047672 3.2390411
0.48888639 -0.52947879 3.6382413
0.9077667 -0.96854872 3.9992032
0.94204253 -0.81339628 3.8792655
0.98912621 -0.71726459 4.2128744
1.0785867 -0.026831195 4.4071698
0.93286318 -0.98199016 4.0172186
1.002462 -0.87505746 4.2614193
1.004541 -0.8735038 4.2551856
0.68518668 -0.23771384 4.958662
0.2627815 -0.84664977 3.1617734
-3.9707296 -1.630286 6.0180087
0.8316915 -0.41202104 4.7200532
1.2338585 0.052700248 3.4657333
-0.055659499 -0.7300396 2.7426255
-0.05400081 -0.70917219 2.7615564
-4.0766983 -1.6738251 6.3085542
0.71336246 -0.32281998 4.9118838
