# .PCD v0.7 - Point Cloud Data file format
VERSION 0.7
FIELDS x y z
SIZE 4 4 4
TYPE F F F
COUNT 1 1 1
WIDTH 259
HEIGHT 1
VIEWPOINT 0 0 0 1 0 0 0
POINTS 259
DATA ascii
-0.10361801 0.23488152 1.0715331
-0.31675455 0.24735275 1.0750346
0.084158085 0.19925642 1.0829159
0.47925928 0.093266703 1.1587142
0.12704293 0.052997757 1.2700208
-0.33794105 -0.045152266 1.2982558
-0.54870141 0.025499705 1.2993897
-0.34051219 -0.091495462 1.3571508
-0.67636532 -0.16084346 1.5067717
0.61370128 0.15258472 1.134068
-0.56944865 -0.22271028 1.5504547
-0.18183711 -0.26320809 1.6772505
-0.18183711 -0.26320809 1.6772505
-0.02438423 -0.25629964 1.645134
-0.021517362 -0.25249434 1.6336858
-0.74196446 -0.23198713 1.6341538
-0.042839594 -0.32664472 1.7524104
-0.17502458 0.13712421 0.97076863
-0.22193559 0.15814027 0.98980832
-0.71376407 -0.70566511 2.5741544
-1.0957723 -0.8858971 2.8206887
0.27958924 -0.023052204 1.1369199
-0.050806332 0.16912188 1.08419
-0.12804897 0.18129098 0.97080356
-0.041102309 -0.083466977 1.3867048
-0.30685842 0.22802497 1.0873908
-0.39588261 0.20816031 1.0986973
-0.057119105 0.11879706 1.0884131
-0.47619393 -0.24443698 1.6135103
-0.74758977 -0.16200353 1.566686
-0.15913309 -0.12256639 1.4333901
0.1264035 0.050450616 1.2739812
-0.15401299 0.26399195 1.0276921
0.40394649 0.044442676 1.2505878
-0.16911176 0.023939 1.1387872
-0.10807259 0.16159764 0.99790156
-0.49778846 -0.074511744 1.4069383
-0.74597603 -0.23340581 1.644866
-0.31143239 0.27655903 1.0434093
-0.31143239 0.27655903 1.0434093
-0.3397018 -0.27978641 1.7080301
0.31983361 -0.028273359 1.1375498
-0.090278186 0.19663364 1.0491312
-0.19310156 -0.070667505 1.3383082
-0.43560615 0.054291554 1.2548878
-0.49320871 -0.064944632 1.4264873
-0.11681058 0.054966114 1.1345299
0.13835093 0.23313293 1.0156037
-0.08545696 -0.0040752389 1.2352306
0.39064851 0.14484483 1.1005088
-0.39340046 0.20636602 1.0929605
0.30824187 0.16375901 1.0798334
-0.45928755 -0.11990891 1.4969192
-0.74572909 -0.17400901 1.5983883
-0.28176925 0.086237721 1.1715376
-0.32886115 -0.12132797 1.4211153
0.46166989 0.21514559 1.0335683
-0.40396264 0.25526047 1.0371089
-0.41164604 -0.048254743 1.3595864
-0.41164604 -0.048254743 1.3595864
-0.58441234 -0.17929187 1.5076436
-0.33013359 0.19817866 1.1301105
-0.32680941 -0.1721953 1.5539804
-0.33747467 -0.27754107 1.7043121
0.40140471 0.17152895 1.0686804
0.39026481 0.14578611 1.0970026
0.22580436 0.18455905 1.0612117
-0.4300805 0.088567093 1.2090672
-0.17082258 -0.20291831 1.5728582
0.12332822 0.045941867 1.2731094
0.12332822 0.045941867 1.2731094
-0.15705079 0.022737222 1.2893018
-0.087481894 0.03645714 1.0983523
0.42264524 -0.016600236 1.306161
0.42264524 -0.016600236 1.306161
0.15069453 0.2118265 1.0745692
-0.32645082 -0.17303398 1.5481476
-0.11134358 0.11765503 0.98293525
-0.41710606 -0.050288666 1.3635334
0.22055787 -0.42950743 1.3276204
-0.2880685 -0.71816844 2.5149837
0.15509123 0.23060371 1.0232155
-0.25518709 0.11679459 1.1275393
0.0040777973 0.075708322 1.0872229
-0.051833462 0.1683796 1.0897335
0.16618362 0.019764064 1.3108071
-0.5281508 -0.079578765 1.5050735
-0.34043986 -0.093232088 1.3532885
-0.57932353 -0.1855381 1.5169101
-0.17426056 -0.12507299 1.4406642
-0.18778853 -0.16867517 1.4381534
-0.18721798 -0.26376364 1.6770753
-0.074622922 -0.2781013 1.6852661
-0.09996593 -0.30393261 1.7194113
-1.0331154 -0.89002341 2.8351252
-0.73957229 -0.73256755 2.63676
0.4793185 -0.023170013 1.3045456
-0.010034309 -0.1001428 1.4289175
-0.53628182 -0.095994085 1.4233927
-0.40418589 0.25481141 1.0297996
0.52644724 -0.56326222 1.3251121
0.52703583 -0.56083828 1.3163279
0.52576226 -0.56080526 1.3213762
0.56189072 0.091839023 1.2041529
0.56189072 0.091839023 1.2041529
0.55971569 0.088485144 1.1895579
-0.33786535 -0.047032692 1.2985102
-0.4929148 -0.071354806 1.4056374
-0.32558739 0.28400719 1.0370883
0.46698356 0.15539989 1.088258
-0.2197372 0.22810863 1.0559461
-0.35233271 0.25914043 1.0701149
0.42959264 0.13383928 1.1054983
-0.3039231 0.23769332 1.079308
-0.022230903 0.05492641 1.2992594
-0.14847909 0.12966812 1.1624883
-0.073364042 0.010227405 1.2533845
-0.077579826 0.010824173 1.2781562
-0.51719981 0.10535908 1.2235242
-0.045227364 0.18787169 1.1055053
0.23436053 0.086128324 1.4031115
-0.50606388 0.10859962 1.211014
-0.648633 -0.26901427 1.6197407
-0.18958563 -0.36328188 1.8019886
-0.047771979 -0.37096861 1.7502066
-0.83654481 -0.33443764 1.7868259
-0.30879083 -0.14630833 1.5465803
0.56526661 0.19021934 1.0726737
0.64019322 -0.055189781 1.1812214
0.64225471 -0.053765658 1.1907836
0.085763633 0.022440182 1.2064641
-0.39300108 0.20563112 1.0910727
-0.26238912 0.050384309 1.0139488
-0.13114667 -0.96665657 2.452683
0.17685966 -0.99048877 2.2950954
0.18069321 -1.0173352 2.3725078
0.17694363 -0.99571431 2.3101065
-0.92590976 -1.0874548 2.7850745
-0.98348385 -1.1339202 2.9123261
-1.0671282 -1.195387 3.1033592
0.54905868 0.19993594 1.0151482
-0.46865642 -0.20988613 1.6109496
0.63743556 -0.051662341 1.1807394
-0.1703281 0.24980026 1.0175486
-0.043579932 0.12779009 1.074896
-0.043579932 0.12779009 1.074896
-0.22139816 0.16166314 0.99934155
0.43265435 0.23697469 1.0213841
-0.086927086 0.17119227 1.0736423
1.3131593 -1.0429881 2.4965372
0.46793354 -0.0087681664 1.248315
0.57927936 -0.052481316 1.1820896
-0.0839241 -0.0089190351 1.2726569
-0.12469827 -0.94928128 2.4272039
-0.111129 -0.86820334 2.1994729
-0.1057056 -0.75019348 2.2045629
-1.2142552 -1.0983648 2.8629467
0.96683651 -1.3223519 2.8849821
1.0673742 -0.94841522 2.3326771
1.2924135 -1.0736914 2.5392053
1.0888013 -0.97487044 2.4015453
1.0879145 -1.3829989 2.7090986
0.63317358 -1.0819147 2.4217196
0.7422179 -1.2761807 2.883862
-1.2581898 -1.141199 2.974896
-0.056332864 -0.48449638 1.6698449
0.53132355 0.15660411 1.1689528
-0.15448718 0.12188721 1.1839396
0.534729 -0.56931263 1.3346953
0.4268966 0.22558914 1.0324082
0.26684746 0.20689581 1.0531697
0.43599525 0.23484591 1.0491514
0.55965137 0.22670718 1.0244437
-0.22147961 -0.057884749 1.3160959
0.53747529 -0.46601459 1.4175947
0.53712022 -0.46536684 1.4392989
-0.67577595 -0.13314101 1.4709666
-0.24197789 -0.18040828 1.5567867
-0.14937349 -0.19187978 1.5480907
0.90645421 -0.36275911 1.5671283
-0.28920028 -0.23540513 1.5752144
0.97702748 -0.43692005 1.6697528
1.2002819 -0.77377909 2.1070569
1.1872942 -0.76491314 2.079097
1.1056224 -0.74499136 2.1341636
1.0974149 -0.72331262 2.0833549
1.1090138 -0.73838538 2.1148674
-0.10763323 -0.92415291 2.3305786
0.037758481 -0.97515315 2.2482138
0.17046903 -0.99732471 2.3109996
0.18069826 -1.0040817 2.336961
0.18526283 -0.99020708 2.3119767
0.098109961 -0.95342588 2.3131545
0.098591521 -0.97493839 2.3696108
1.1942369 -0.89763045 2.3557603
1.1517448 -0.86855441 2.2651634
0.59136271 -0.16815604 1.1161219
-0.048045639 -0.046061371 1.3961157
0.49371359 0.020186696 1.2794766
0.60131329 -0.16571116 1.1429607
0.21886007 -0.42431709 1.3233038
0.52571678 -0.50985175 1.3521219
0.52530557 -0.51188278 1.3546423
0.45825535 -0.39175305 1.1777297
-0.73978502 -0.10302292 1.6035783
0.49505839 0.21963736 1.0264722
1.1024661 -0.7229076 2.0833974
0.19395179 0.22010301 1.0260329
0.75490725 0.015260377 1.2154145
0.36835366 0.219558 1.0334625
1.3032581 -1.0625949 2.3430088
1.1418101 -1.2940845 2.6912115
-0.9840427 -1.1488013 2.9575472
0.56104386 0.078348808 1.2078688
-0.16642997 -0.12081741 1.4227755
0.58450985 -0.051634539 1.1979653
-0.17845368 -0.27200949 1.6965175
-0.065462291 -0.028844349 1.2981284
-0.52198642 -0.13362706 1.4675635
0.083681159 0.20245251 1.0993569
0.64076596 0.1267308 1.1340975
0.5929051 0.077402577 1.189055
-0.89930075 -0.55120635 2.1064353
-0.38511774 0.24906304 1.0514197
-0.51461607 0.067506373 1.2527552
0.57214391 -0.050874215 1.1536353
0.084575832 0.20000769 1.0836918
-0.40059665 -0.15805262 1.5704643
-0.81743586 -0.30892277 1.729874
-0.83738929 -0.31681243 1.7701908
-0.38629851 0.24284834 1.054808
0.011535104 -0.077482931 1.3524771
-0.16721971 0.18153647 0.96254766
0.038909998 -0.99460292 2.2839406
-1.2002223 -0.93993646 2.7706051
-1.0871215 -0.87899077 2.7911658
-0.58844221 -0.59317279 2.1382182
-0.89532298 -0.54874432 2.0959756
-0.65555817 -0.65754294 2.3623812
-0.32804504 0.11859144 1.2149594
-0.11584706 0.048059519 1.1167227
-0.0206782 0.28934959 1.0170225
-0.32754996 0.23438907 1.0916759
-0.15908279 -0.19656391 1.5904953
-0.33026016 0.11546837 1.2261448
-0.28765249 0.091952145 1.1980151
-0.39752847 0.1820953 1.1213353
-0.56057465 -0.21890704 1.5362688
-0.3904928 -1.0907825 2.6244876
-0.36528119 -1.0232414 2.4573281
-1.2661709 -0.64775211 2.48753
-0.12361406 0.076010741 1.1419659
0.088880822 0.022343028 1.2082864
0.09098696 0.021754615 1.2050874
-1.0982426 -0.69251502 2.3214033
0.69938099 -1.2546736 2.7998605
0.68034834 -1.2216055 2.7311175
-0.97293597 -1.0114964 2.6824698
-0.34348536 -0.18543886 1.5922536
