# .PCD v0.7 - Point Cloud Data file format
VERSION 0.7
FIELDS x y z
SIZE 4 4 4
TYPE F F F
COUNT 1 1 1
WIDTH 210
HEIGHT 1
VIEWPOINT 0 0 0 1 0 0 0
POINTS 210
DATA ascii
1.3226507 -0.44268101 3.6737547
2.1628368 -0.21983714 3.8685536
1.2184253 -0.25282133 3.4931214
1.7472172 -0.35082924 3.81125
1.9637434 -0.62976754 3.7772837
2.0028563 -0.11481233 3.5748298
1.7893118 -0.11221041 3.4799967
1.7025316 0.49645439 3.7725444
1.6713392 0.43267983 3.7908065
1.9978765 -0.1151534 3.5695987
1.928519 -0.042682488 3.187912
2.0240791 -0.011425568 4.5353718
1.9849938 0.037487652 4.7740622
2.0951142 -0.15927584 3.689646
1.8173796 -0.30580649 3.7829621
2.070296 -0.59752089 4.1544905
1.8542906 -0.035009198 3.3314719
1.9690188 -0.51024252 3.899188
2.0965765 -0.2585496 3.6091032
1.95855 0.16935532 4.7943916
1.9845772 -0.11817312 3.591305
2.1028836 -0.16017161 3.687367
2.3250358 0.0089430343 3.5175276
1.1912463 -0.39962384 3.6121092
2.197 -0.15041707 3.6366827
1.5259489 -0.16564357 3.3426597
2.0272574 -0.015028242 4.5214763
1.9311241 0.1689333 4.8229909
1.9200273 0.26415491 4.4334955
1.9901624 -0.21558067 3.5620544
1.9187131 0.22018327 4.5009356
1.4506689 -0.24533918 3.4860365
1.3805938 0.46496987 3.6633976
1.7891941 0.078323834 3.5241749
1.697744 0.51050144 3.7740321
1.308365 -0.24954833 3.5451379
2.1896429 -0.10415565 3.6441317
1.3022447 -0.33194071 3.715373
1.2826158 -0.32956672 3.7185035
1.8532286 -0.028226839 3.3265369
2.3251562 0.0064028199 3.5134804
1.9541217 -0.4743118 3.8043182
1.852451 -0.03218529 3.3306074
1.9268923 -0.48423195 3.7789607
2.3250556 -0.011604992 3.5075321
2.0871696 -0.61178428 4.1145992
1.9069389 0.052621093 3.4612348
1.5413791 -0.51524383 3.7517097
1.2937068 -0.34836611 3.7710061
2.3246315 0.0090250708 3.5178988
2.0865736 -0.65018457 3.9549561
1.8524644 -0.02738324 3.3254759
1.5477058 -0.1664363 3.3395476
1.511636 -0.46389663 3.7500625
1.9381151 -0.40493885 3.7995522
1.7376463 -0.20243536 3.5487611
1.7892684 -0.49171659 3.7384889
2.031316 -0.10573281 4.7181787
1.7866092 -0.11232191 3.4840782
1.8002566 -0.29673189 3.7858114
1.9701519 -0.14334291 3.50769
1.6581925 0.25730217 3.5207074
1.951219 -0.15598455 3.5186644
2.1319549 -0.18718712 3.7386191
1.7845253 -0.47832388 3.7451944
1.8822266 0.2027014 3.2981284
1.6689199 -0.3411631 3.7309937
1.8875793 -0.15691489 3.4902365
1.9135056 0.22858424 4.4973893
2.0429099 -0.048242018 4.7056966
1.3295124 -0.51230764 3.6595399
2.0799196 -0.62896168 3.9943073
1.7970877 -0.19181867 3.5342903
1.8325856 -0.4347555 3.730072
1.9299357 -0.45137864 3.7828698
2.1084812 -0.15441944 3.6702254
1.8829976 -0.18709092 3.5585716
1.523127 -0.37266642 3.7879119
1.9081995 -0.48703983 3.7760117
1.9798528 -0.47065455 3.8358433
1.6677252 0.43516064 3.7841356
1.8981477 -0.63232696 3.8617463
1.3091185 -0.51779783 3.6739774
1.8708048 -0.55981648 3.7336683
1.7324927 -0.560785 3.7519517
1.9488227 -0.027203372 3.1975784
1.9537309 -0.62959218 3.7873185
1.9607671 -0.43161345 3.8378954
1.8772172 -0.6820454 3.691586
1.8770353 -0.6842556 3.6962717
1.7503016 -0.35469279 3.8175972
2.2736502 -0.0042801104 3.4637368
2.055578 -0.10259575 4.6774321
1.4952114 -0.18386844 3.4170954
1.8886707 -0.69151413 3.7308171
1.8211694 0.19994359 3.4635093
2.0191123 0.46608743 4.027442
1.9160558 -0.65555876 3.7183101
1.9827597 -0.70646119 3.7734673
1.6665987 -0.57321173 3.7947445
2.0419712 0.37548158 4.1353889
1.548213 -0.45794341 3.7689772
1.7679231 -0.57199597 3.7376268
2.0622475 -0.5898726 3.9631276
1.8658094 0.18008573 3.3627005
1.7731702 -0.23149766 3.6037691
2.0301647 -0.44534892 4.2280273
2.0361757 -0.37728778 4.2296104
1.8643183 0.18392332 3.3519704
1.7279348 -0.35533729 3.838536
1.73103 -0.559816 3.7542701
1.7110953 -0.33573866 3.8270156
2.0327673 0.36160979 4.1569285
2.0232065 -0.20835587 3.5609233
1.3347337 -0.44512248 3.6966114
1.9750881 0.45836389 4.0321174
1.9369593 -0.41029063 3.797884
1.7955005 0.067538023 3.5210497
1.9462917 -0.09522666 3.5192926
2.1255586 0.55520076 3.8148909
1.7438504 -0.42154428 3.8073344
1.6056226 0.45667195 3.4194672
1.9378779 -0.65673375 3.8367455
1.88296 -0.52338541 4.4820848
1.8159257 -0.54848677 4.5492454
1.8251197 -0.62009954 3.7095902
1.9802008 -0.23005071 3.830267
1.9880872 -0.45428526 3.9256821
2.1220627 0.56019515 3.8121428
1.9169772 -0.29881063 3.826756
1.85558 -0.34781152 3.7819867
1.7401338 -0.20215836 3.544827
1.672433 -0.50960582 3.8247042
1.51934 -0.16203894 3.353976
1.8160931 -0.13569765 3.3561957
1.4771166 -0.17546251 3.3623378
2.1530507 -0.21976778 3.8929892
1.8045086 -0.13391952 3.3603315
1.2579904 -0.22916918 3.4654377
1.258922 -0.23202449 3.4653251
1.3404661 -0.44958675 3.6739683
1.6853726 -0.43793586 3.8175468
1.2288215 -0.34873223 3.6018045
1.6908069 0.41461015 3.7450686
1.9677061 -0.10943266 3.5597527
1.9442451 -0.091913916 3.5175564
1.3110689 -0.39108056 3.6841705
2.0725105 -0.43195823 4.0302405
1.7963966 -0.56304687 3.7378285
2.0381792 -0.37412292 4.0524106
1.9272881 -0.026613498 3.196203
2.0191441 -0.38629696 3.9663327
1.7534657 -0.6291818 3.6860285
2.0529234 -0.41690984 4.083262
1.8784587 -0.68123776 3.6885734
2.2019608 -0.14917222 3.6335156
1.4619595 -1.0071229 5.0279951
1.964504 -0.42809102 3.8192577
1.8715092 0.17919646 3.3534808
1.8531612 -0.40435275 3.7852392
1.8842878 -0.41659281 3.7736545
1.9356111 -0.62866801 3.7733204
1.8833206 -0.12316351 3.3525183
1.396588 -0.5274837 3.8514645
1.8603641 0.18056387 3.3332269
1.8833687 -0.42076924 3.7709017
1.7030282 -0.63227218 3.7434013
1.319828 -0.44829324 3.6908073
1.9128361 -0.53097528 4.4390106
1.9466901 -0.43845633 3.8027987
1.8728606 0.17344317 4.6004996
1.5050086 -0.83651596 4.9263058
1.9291309 -0.48062623 3.7833958
1.5213641 -0.46605957 3.7474716
1.712042 -0.43657932 3.7902367
1.8632966 0.16958971 3.3713908
1.5961645 -0.48177284 3.4779551
2.0686316 -0.098405309 4.6749544
1.9157481 -0.65573263 3.7201982
1.9374034 -0.054083224 3.1781373
1.5089351 -0.4635812 3.7492137
1.9743247 -0.026832085 3.3828731
2.016798 -0.18022031 3.5076022
1.5176799 -0.36962721 3.7993021
1.5767413 -0.33729208 3.8637819
1.6019182 -0.403166 3.8117867
1.926271 0.21222456 4.5351682
1.802358 -0.67056072 4.8266382
1.4962333 -0.36972374 3.785392
1.9919553 0.17346525 4.7440491
2.1432388 -0.18775311 3.7251086
2.0268207 -0.013957379 4.5221987
2.0470455 -0.33340439 4.0666804
1.4511946 -0.23202735 3.4289982
1.7013129 0.42046666 3.7669671
1.8759087 0.17402241 4.5958009
-0.44515076 -2.1276648 8.6231031
0.63099718 -2.0463021 9.2853251
1.9901631 0.074134886 4.7450294
0.69028324 -1.93414 8.8855724
1.607077 -0.40617931 3.8231976
-0.095795557 -2.1178768 8.7779131
1.2076021 -1.6909149 8.4184828
1.9389085 -0.33098164 3.9673927
1.1240664 -1.7721206 8.7468462
1.0489839 -1.3201967 7.1022577
1.8122962 -1.6669781 8.9356756
2.0483599 -0.33257884 4.0647531
1.5524668 -1.5963668 7.9804811
2.0034568 0.014526634 4.735085
