# .PCD v0.7 - Point Cloud Data file format
VERSION 0.7
FIELDS x y z
SIZE 4 4 4
TYPE F F F
COUNT 1 1 1
WIDTH 138
HEIGHT 1
VIEWPOINT 0 0 0 1 0 0 0
POINTS 138
DATA ascii
2.1715782 -0.33543596 3.6988654
2.3434663 -0.22432569 3.6399913
2.1242418 -0.4058781 3.7083123
2.285337 0.029546801 3.4494219
2.2938101 0.13745001 3.4137971
2.2877042 0.13572673 3.4103289
2.4240389 0.12001383 3.4993021
2.251509 -0.14141639 3.6612358
2.0677114 0.16653919 3.2248619
2.4135065 0.12552054 3.4897776
2.5485458 0.30663404 3.2588177
2.443063 -0.22926928 3.7481515
2.3890703 -0.2036501 3.6563997
1.9970477 -0.32595494 3.7507188
2.5876954 -0.33609506 3.7573864
2.6091304 -0.33554056 3.7636499
2.2250063 -0.11893377 3.6613367
2.2136319 -0.057162087 3.6722298
1.9407254 -0.22588946 3.763608
1.9674619 -0.21803872 3.7646868
2.1055994 0.019831998 3.4394269
2.2457609 -0.19426312 3.6214349
2.3555095 -0.18762293 3.642698
2.4284251 0.1268366 3.4737289
1.960721 -0.18687464 3.7686181
2.3082392 -0.30909315 3.6164963
2.3271143 -0.43108553 3.5775919
2.0653672 0.0058367164 3.4526143
2.567023 0.12130511 3.6924653
2.3161385 -0.42013162 3.5803361
2.2326784 -0.1814865 3.6704216
2.2106214 -0.057175327 3.6648679
2.2370214 -0.32514715 3.6479802
2.2573814 -0.35564104 3.6279504
2.2118778 -0.27730924 3.6652493
2.2756593 -0.15790008 3.6640632
2.43765 0.11923008 3.4750667
2.2453408 0.11636654 3.3934999
2.2644234 -0.35917214 3.6725307
2.1448638 -0.42882916 3.6773827
2.146857 -0.42994601 3.6733713
2.0300009 -0.16870239 3.7950723
2.2709439 -0.37875441 3.6089275
2.3707504 0.042458694 3.6669729
2.2644815 -0.10039831 3.6617103
2.5483923 0.090508632 3.6741502
2.0401471 -0.19332729 3.7845709
2.2405987 -0.32592177 3.6430645
2.5039876 0.14642814 3.4103251
2.1660042 -0.35580775 3.6953497
2.5625138 -0.27106091 3.7687819
2.2156456 -0.079687431 3.6654763
2.5979288 -0.3365021 3.7609551
2.0535262 0.15403649 3.2446256
2.1400659 0.01391485 3.4974132
2.2514055 0.041083883 3.3792012
2.2374926 -0.32567471 3.6499839
2.2780645 -0.27199808 3.6392198
2.2188413 -0.24837342 3.7563441
2.2952621 -0.19248588 3.64187
2.3030231 -0.16299209 3.6468439
2.3421197 -0.14989422 3.6193466
2.122297 0.021433193 3.532388
2.3723011 0.030990554 3.6585658
2.16506 -0.3568002 3.7003407
2.1267264 0.023504099 3.5191295
2.3115697 -0.4308475 3.5984948
2.3944974 -0.36081496 3.6364226
2.0356894 0.090485439 3.3113608
2.1022377 0.020586636 3.4445407
2.4476438 -0.24442446 3.7352202
2.2124662 -0.15093054 3.6818767
2.3573341 -0.42901969 3.59356
2.5810215 -0.31481245 3.7881126
2.2687819 -0.41374958 3.5814185
1.9844562 -0.27413377 3.7386651
2.4082966 0.012581036 3.7370837
2.0733285 -0.16471042 3.7813704
2.0561359 -0.19911973 3.7794459
1.9303219 -0.19048247 3.7732472
2.0756147 -0.13253276 3.8089306
2.331352 -0.22458266 3.6407204
1.9084307 -0.19736311 3.7791047
2.3693206 0.10576103 3.4750493
1.9475749 -0.22343537 3.7574787
2.0539458 -0.20474358 3.7880654
2.3210135 -0.14817075 3.6522141
2.1692305 -0.41076455 3.6784074
2.3760846 -0.18847154 3.6460674
2.2370751 -0.32538021 3.6491339
2.2109401 -0.22930481 3.6675608
2.3660338 -0.39561465 3.5925157
2.2623696 -0.2529386 3.6687553
2.2893438 -0.19021882 3.6439471
1.9548907 -0.28182551 3.7383726
2.3031061 -0.30507752 3.6320388
2.2291439 -0.19020075 3.672653
1.9583247 -0.18394659 3.7810409
2.0368536 -0.15617812 3.8011265
2.1769919 -0.1353115 3.7255399
2.1223371 -0.18139756 3.7208622
2.2792375 -0.27763319 3.6458163
2.051549 0.15637366 3.2579136
2.3069489 -0.42516243 3.5970428
2.4311445 -0.029991349 3.7666194
2.6208134 -0.25167584 3.9271953
2.0635662 0.17592312 3.2126107
2.1320951 -0.0072788107 3.4748878
2.1911681 0.20734982 3.237633
1.9342562 -0.18928285 3.7742822
2.1396472 -0.19078226 3.7744832
2.1949682 0.20020145 3.2378845
2.3756988 0.10502061 3.4674726
2.0363448 0.090745822 3.3124969
2.2637832 -0.38428324 3.6220009
2.3005385 -0.34290183 3.6188836
2.1354003 -0.35885113 3.7423589
2.4554343 -0.17009822 3.7579069
2.2699015 -0.11419272 3.6744628
2.0668042 0.14033709 3.2768097
2.3590727 -0.18426454 3.648165
2.4251533 -0.21400379 3.6821597
2.3972673 0.85570955 3.5875571
2.4339497 -0.028114112 3.7780364
2.0366004 -0.13749282 3.7616239
1.9569222 -0.14050777 3.8061063
1.9353021 -0.19336642 3.7807236
2.543293 -0.17403293 3.8241017
2.5233219 -0.025673583 3.8746302
2.0563238 -0.20079279 3.7776852
2.1597373 0.062957846 3.4497452
4.4406528 0.16403325 6.1077251
2.5238187 -0.024784293 3.872375
2.354804 -0.18933617 3.6427245
5.4418716 0.17555383 9.9850779
4.5186915 0.1612265 6.3014307
4.4243345 0.19826344 6.0336161
2.5420923 -0.17641903 3.8405743
