# .PCD v0.7 - Point Cloud Data file format
VERSION 0.7
FIELDS x y z
SIZE 4 4 4
TYPE F F F
COUNT 1 1 1
WIDTH 228
HEIGHT 1
VIEWPOINT 0 0 0 1 0 0 0
POINTS 228
DATA ascii
2.0914512 -0.24199505 3.7306285
2.3441176 0.14617848 3.337883
2.2540097 -0.244831 3.6767504
2.4951932 -0.25022751 3.5790992
2.3045321 0.22537567 3.3666229
2.079468 0.16269267 3.3709147
2.2981884 0.22310755 3.363997
2.445281 0.22012551 3.4354475
2.0647857 0.2226098 3.0457678
2.0552416 0.23191443 3.2070143
2.3289952 -0.0027407939 3.613389
2.0438011 0.35170916 3.4063501
2.2704418 0.1333684 3.3175781
2.0504465 0.23747857 3.2028275
2.4541745 -0.099583633 3.6038747
2.052501 0.2340569 3.2069402
2.4230366 -0.11926533 3.5926542
2.3940084 -0.39503434 3.7605546
1.994758 -0.07879816 3.8090866
2.0491195 0.23795456 3.2021687
2.2716568 0.0346299 3.6379626
2.4189155 -0.037553415 3.604635
2.0848262 0.18559776 3.3310728
2.0787718 0.16249667 3.3757575
2.2977691 -0.059642993 3.6487293
2.456363 -0.10029287 3.6044567
2.130204 0.095735811 3.418752
2.4180784 -0.086444862 3.5941095
2.2736142 0.031838544 3.6382506
2.544209 0.065604977 3.7625811
2.2639167 -0.2438181 3.6522238
2.4614727 -0.052302763 3.6304452
2.3999977 -0.33340502 3.5393107
2.4023299 -0.3349179 3.5436864
2.248136 -0.0325142 3.6991508
2.0811214 -0.18757571 3.7430422
2.4876814 -0.086253449 3.6282907
2.1416996 0.30676085 3.1962256
2.2167194 0.040611651 3.6644711
2.2475765 -0.18241099 3.6817551
2.3637388 -0.064285241 3.602541
2.2995129 -0.088030487 3.6369288
2.5144694 -0.11154967 3.6490493
1.9896873 0.23017652 3.1967797
2.4926622 -0.25017753 3.5867341
2.3316302 -0.26137176 3.5961227
2.3435602 0.19721921 3.4291856
2.1110334 0.10271423 3.4906271
2.2556226 0.2002396 3.3531392
2.0951834 -0.24434991 3.7371724
2.4187346 -0.043204196 3.6037426
2.2780824 0.1262573 3.3393133
2.3443825 -0.26285699 3.6395352
2.2274754 0.22267197 3.3397436
2.2318504 -0.34056085 3.6611867
2.526756 -0.055184655 3.6989779
2.3238816 -0.005250935 3.62222
2.0875859 0.073419161 3.4526241
2.1733241 0.16729863 3.4210925
2.1240177 -0.10946929 3.7746983
2.3734255 -0.21127675 3.5949042
2.2663155 0.21988478 3.3676915
2.0728655 0.168916 3.3680446
2.3118515 -0.23316935 3.6217928
2.5275209 0.012208057 3.7099571
2.3146884 -0.23240581 3.6124713
2.2749751 -0.31355223 3.5853007
2.5114093 0.24902424 3.3364608
2.3292086 -0.096295379 3.6168194
2.2495716 -0.26565427 3.6744843
2.1279459 0.095987201 3.4200132
2.0774431 0.17168328 3.3985372
2.644726 -0.15067996 3.6951764
2.4204571 0.35913494 3.1748288
2.0789206 0.16293982 3.3783953
2.2506096 -0.26431283 3.6647689
2.3102117 0.11890712 3.4203286
2.2668753 0.094988674 3.6147699
2.2933025 -0.026268872 3.6622894
2.2718201 0.011712819 3.6490684
2.2744861 0.012082975 3.6315839
2.211298 -0.11190204 3.7716551
2.3259852 -0.33111808 3.6047809
1.9971426 0.22965881 3.2080736
2.0445814 0.21913226 3.2287199
3.1845407 0.88483274 4.1371441
2.4173403 -0.087981142 3.5939708
2.3124535 -0.23213971 3.6197186
2.3472805 -0.17613976 3.6025658
2.4184208 -0.034977235 3.6031985
2.358721 -0.09556897 3.6010056
2.31603 -0.081389539 3.5293312
2.1711183 0.08807826 3.5072055
2.3991344 -0.050582457 3.5716805
2.2493291 -0.26653796 3.6795778
2.3888953 0.2403952 3.4158621
2.0399172 0.15682283 3.2987645
1.9921578 0.22904174 3.2082503
2.2973018 0.23800403 3.3712683
3.2034299 0.88083541 4.1006765
2.5249248 -0.13338251 3.6756947
2.2424502 -0.25890929 3.7420831
2.4317253 -0.32866395 3.5512848
2.0196941 0.43334293 3.2685933
2.1215916 0.12018418 3.4372363
2.6686833 -0.19232455 3.7131259
2.5318809 0.3966893 3.1670206
2.0529611 -0.13964435 3.7568083
2.1543298 -0.078711793 3.7666149
2.1396346 -0.11429345 3.7677479
2.0163043 0.43437436 3.2747931
2.0137303 -0.11476693 3.7772386
2.3966739 -0.12506197 3.5961325
2.3250492 0.20895505 3.3586853
1.993305 -0.12296758 3.7859817
2.0479352 0.24138559 3.2027276
2.1389525 -0.11975691 3.7767148
2.1753018 0.097205155 3.4671299
2.3976188 -0.3372806 3.552599
2.3821926 -0.049218077 3.6068919
2.36409 -0.070063435 3.6022067
2.5045524 -0.25386852 3.6737535
2.3257565 -0.00042226733 3.6305332
2.4389179 -0.085724004 3.5948792
2.3119133 -0.23190486 3.6189208
2.2811997 -0.13733256 3.638047
2.3529537 -0.093654484 3.6037536
2.3803189 -0.3095198 3.5357883
2.1831586 0.14783679 3.4111757
2.5429769 -0.30725899 3.5679586
2.3736269 -0.20759948 3.5931292
2.4472003 0.73825693 3.8465734
1.9908829 0.23109213 3.2033112
2.0419192 -0.106008 3.7812722
2.1200507 -0.072095595 3.7905872
2.1102266 -0.051613051 3.8139338
2.3238273 -0.12630446 3.6403499
2.2669981 0.096421167 3.6167681
2.3402894 -0.32696807 3.590389
2.5413077 0.19450684 3.5711174
2.247808 -0.044021808 3.6974347
1.9997871 -0.094511285 3.7887318
2.5101213 -0.21796198 3.6361539
2.682981 -0.066591628 3.7711236
2.6888149 -0.055030018 3.8021793
2.6951952 -0.063716128 3.836978
2.1848311 0.1540295 3.4204452
2.4845321 -0.26887298 3.5781412
2.0440974 0.22178142 3.2420874
2.2964835 -0.31139952 3.642926
2.4661849 -0.23934825 3.6067088
2.3475447 -0.17545342 3.6032155
2.3120875 -0.14415422 3.616147
2.389205 0.20596513 3.4519675
2.2941394 -0.064726159 3.6345162
2.26436 -0.21125323 3.6403401
2.3274324 -0.014904854 3.6242096
2.2537086 0.06919647 3.6598835
2.3820131 -0.32825065 3.5609913
2.7260725 -0.17022149 3.7831082
2.0489256 0.24055438 3.1951489
2.1628275 0.071800418 3.4512677
2.543525 0.064879328 3.7842581
2.394619 0.20067202 3.410356
2.3541832 0.1851999 3.4015925
2.2644477 0.03840109 3.6255589
2.252646 0.048002694 3.6460562
2.3786619 0.044860091 3.6352377
2.3722658 -0.24594209 3.581368
2.1673529 0.10631222 3.4296575
2.2951789 -0.30357665 3.5993748
2.0787768 0.16268972 3.3725345
2.2459419 -0.30369219 3.6625781
2.0012717 0.44216454 3.2033877
1.9358172 0.13372087 3.2977755
2.3005967 -0.084031418 3.6410062
2.2630308 -0.21548086 3.6771498
2.2253373 -0.26922357 3.7250378
2.2418573 -0.17165715 3.6877053
2.219357 0.042836674 3.6816411
2.5299239 -0.057953406 3.695322
2.5285194 -0.056055922 3.6866479
2.2348161 -0.067026153 3.7204678
2.0703392 -0.19994372 3.7403913
2.6180179 -0.021216016 3.7638662
2.6174173 -0.020679284 3.7559335
2.2665248 0.12263468 3.3367581
2.3072271 0.15723521 3.2994606
2.5226429 -0.29207671 3.5859089
2.6673687 -0.19038823 3.7121873
2.1479428 -0.10205051 3.7520785
2.2970126 0.23140509 3.3635287
2.2124908 -0.10958302 3.7745194
2.173964 0.16929391 3.4232423
2.6468022 0.0010458045 3.7529294
2.6843479 -0.054024342 3.7714479
2.4220316 -0.08265698 3.5989966
2.4525659 -0.10062744 3.600646
2.3927925 -0.055815414 3.5935855
2.0381517 0.15917684 3.3010955
2.4938388 -0.10647246 3.6251361
2.2947013 -0.065161586 3.6190271
2.0772622 -0.24449824 3.7217884
2.2268546 0.041602954 3.6658537
2.4644639 -0.23741671 3.6002631
2.3234785 -0.0028965822 3.6381078
2.3779418 0.076194488 3.6836791
2.1418061 -0.045391154 3.7846577
2.500613 0.082772553 3.7143836
2.1219802 0.11967903 3.4382553
2.0469806 -0.10388288 3.7751279
2.1135194 -0.054849036 3.7509696
2.4035769 -0.10983653 3.5932457
2.1397266 -0.11600888 3.7660203
2.249001 0.027062265 3.6405902
4.0682812 -0.85864836 8.463953
5.8362484 0.098226115 8.4685831
2.4175107 -0.088201642 3.5942683
4.7318692 0.67069685 5.4569077
4.6814346 0.71246684 5.3165612
4.9126749 0.39463174 6.121274
4.6360645 0.70311332 5.2473059
4.6564279 0.71325386 5.2682228
4.8619857 0.50559092 5.9492579
2.4598143 0.071796596 3.6618869
2.6605167 -0.025702935 3.7511356
2.6263819 -0.055292293 3.7665415
2.6584253 0.0059294011 3.7658589
