# .PCD v0.7 - Point Cloud Data file format
VERSION 0.7
FIELDS x y z
SIZE 4 4 4
TYPE F F F
COUNT 1 1 1
WIDTH 306
HEIGHT 1
VIEWPOINT 0 0 0 1 0 0 0
POINTS 306
DATA ascii
0.1190709 -1.2352468 2.7566071
-0.29231209 -1.3739581 2.8198247
-0.18758515 -0.57866907 2.9312708
0.31358832 -0.35014355 2.6178434
0.30147558 -0.53871745 2.8937984
0.12534161 -1.1871754 2.9907722
-0.30978379 -1.2302428 2.933784
0.12393575 -0.53096151 2.8752291
0.86042786 -0.60382807 2.9246054
-0.13275459 -0.51945186 2.8694146
-0.043432478 -0.54944736 2.9275241
-0.11433251 -0.61512601 2.9843853
1.0135653 -0.57099324 2.754468
-0.47264954 -0.99417853 2.9847937
-0.28704652 -0.6701718 3.0337799
-0.26201066 -0.94107246 2.9141281
-0.28407887 -0.66784853 3.0379901
0.091736369 -0.32360846 2.6581311
1.1235044 -0.20646158 2.4964864
1.1808745 -0.74148339 2.6172376
0.97339749 -0.50102967 2.82112
0.45403334 -0.71729904 2.8986032
-0.33028224 -1.1872437 2.9283338
0.97107691 -0.35426757 2.5462048
0.29413959 -0.32695633 2.5850022
1.002512 -0.67972183 2.6588912
0.20074235 -1.0778288 2.8836918
1.0009063 -0.73417813 2.6748123
0.13489042 -0.49589935 2.8572865
0.83099604 -0.7647379 2.8571713
0.98390484 -0.53769732 2.8198378
0.12878402 -1.2694688 2.909579
0.15345682 -0.64218307 2.9716663
0.090750948 -0.32431212 2.6578736
1.011282 -0.40821558 2.7466857
0.17243034 -1.2250004 2.7572348
0.29295737 -0.33193943 2.5838392
0.39090309 -0.45800912 2.6983232
0.41610223 -0.43529627 2.6702602
1.0018616 -0.48602125 2.7523327
0.91983473 -0.61577797 2.8953612
-0.29111847 -0.51587605 2.861057
0.80894768 -0.80144191 2.9276736
1.0519844 -0.7084834 2.630271
0.53775311 -0.52235037 2.797282
0.44592181 -0.71982884 2.8960769
-0.42577079 -0.98099315 2.9724216
-0.35941675 -1.4811701 2.9457037
0.46665713 -0.38848919 2.6136587
-0.65338302 -0.70041257 2.8560205
-0.29074207 -0.67463005 3.0345442
-0.54984701 -1.2217567 2.9021401
-0.3357816 -1.2828654 2.8771451
1.0704672 -0.82139736 2.5369172
0.83083802 -0.72197455 2.8902314
0.53035033 -0.52063358 2.7885218
0.28765538 -0.53688592 2.8888352
0.50032759 -0.58899629 2.9539242
0.96862036 -0.75890785 2.7608526
1.1301167 -0.59174138 2.6535239
0.8177439 -0.66800201 2.9338367
-0.43748611 -0.97914523 2.9700587
-0.28915465 -0.51777482 2.8613346
-0.30235526 -1.2748628 2.8478303
1.177586 -0.7673052 2.5887399
-0.60844857 -0.58449638 2.8739479
0.195794 -0.51847821 2.8611
0.83760101 -0.72484851 2.9065127
0.98533499 -0.67031533 2.7073522
0.96319854 -0.80579269 2.7960401
0.35296407 -0.47283071 2.7349222
0.97708857 -0.51379043 2.835772
0.44738171 -0.72195494 2.9033656
0.80971539 -0.6519019 2.9588635
0.29647967 -0.33255646 2.5934117
0.0016594917 -0.54009861 2.8718798
1.0528433 -0.80642444 2.5742593
-0.6694659 -0.5947113 2.8819928
0.87267435 -0.66026622 2.8707812
0.82970458 -0.77046043 2.8618042
0.44224945 -0.68072426 2.994055
0.51197392 -0.6676985 2.9670291
0.95400476 -0.83363628 2.7178969
0.39496648 -0.58056414 2.8907292
0.47704256 0.027076183 2.7679799
0.13912868 -1.2722697 2.9019973
0.95903063 -0.75709981 2.7642474
0.94371653 -0.26720408 2.5377576
0.9562546 -0.82067913 2.7831511
1.1396672 -0.8720482 2.6628413
-0.064701602 -0.36435977 2.7784936
-0.60582232 -0.63011068 2.8393314
-0.48612076 -0.69751006 2.9757667
0.11954449 -0.52974516 2.8689008
0.47589952 -0.57971323 2.9215021
0.95485938 -0.82445037 2.7355413
0.98210508 -0.60238647 2.8085351
-0.53802198 -0.72177726 2.9656861
-0.17749935 -0.44539219 2.7725844
-0.17414017 -0.4553827 2.8067093
-0.34569371 -0.96225506 2.9444346
-0.26956004 -1.1655494 3.0406392
0.13624889 -1.3222783 2.8394556
-0.33271599 -1.1912351 2.9500341
-0.10821809 -0.58226383 2.9356856
-0.61014163 -0.6297062 2.8352554
-0.30650198 -1.2793994 2.8428967
0.51772761 -0.51628864 2.7863133
-0.68006104 -0.71392649 2.9515295
1.012887 -0.35922712 2.559623
0.86816782 -0.63998026 2.8573971
0.77465504 -0.75356877 2.8906376
0.95743257 -0.64020681 2.8700678
0.34262136 -0.94280809 2.8488016
0.97978497 -0.62166709 2.7647033
0.47548109 -0.65727431 2.943346
0.88400888 -0.64722484 2.8873501
1.2343132 -0.47849289 2.7146099
-0.079019867 -0.54989618 2.8820245
1.1682608 -0.87987137 2.6796603
0.82215005 -0.60540813 2.972204
-0.54307175 -1.2315388 2.9182286
0.77817374 -0.68676311 2.9336877
-0.29077524 -0.95437723 2.9339931
0.87103438 -0.61018795 2.9437711
-0.31647018 -0.67393911 3.0478551
1.0145736 -0.46010864 2.7300949
0.12066093 -0.95533991 2.7345607
0.98191464 -0.33232296 2.5541279
1.0878407 -0.63458776 2.6390359
0.982885 -0.57534826 2.7964749
0.93497068 -0.84121311 2.7734308
0.3247672 -0.46233204 2.7657197
1.053866 -0.6023882 2.6782537
0.35396838 -0.78632343 2.9560323
0.032777444 -0.54737425 2.9037988
-0.0030860379 -0.57054007 2.9346042
-0.33538195 -1.1846373 2.9486804
0.82633299 -0.71574056 2.9154139
1.1146716 -0.43177992 2.7896497
0.78642821 -0.63584995 3.0052187
-0.6372844 -0.73694581 2.9010561
0.11935883 -1.1547947 2.8073561
-0.11090229 -0.58095109 2.9279091
-0.18869746 -0.53197014 2.8855243
0.36365059 -0.71291137 2.9794462
-0.60125208 -0.63125211 2.8319123
0.44279623 -0.7763961 2.8916628
0.19061635 -1.3212631 2.7214303
0.90960121 -0.27201253 2.5485442
0.98358607 -0.72959226 2.664541
-0.33522615 -1.2067913 2.9286301
-0.65262252 -0.70409185 2.861551
-0.066774115 -0.56493735 2.9168909
0.47520173 0.12104682 3.1783586
0.31136072 -0.49403766 2.80724
-0.65641159 -0.63920742 2.8468966
0.16007023 -0.49532998 2.8401322
-0.020429952 -0.58300829 2.9561563
0.26151291 -0.40636903 2.6975033
0.92646027 -0.64372599 2.8639004
0.084795512 -0.56198549 2.9136417
0.44050187 0.11477862 3.2053418
0.14033903 -1.3091098 2.8833802
0.9540084 -0.79387128 2.8006208
0.15826932 -0.64187169 2.9786623
0.11145651 -0.49662545 2.8300591
0.81918848 -0.31821433 2.6410174
0.43011877 -0.58677834 2.9162254
0.89595199 -0.59043187 2.9369199
1.0389078 -0.5626719 2.7132263
0.38252717 -0.58937192 2.9464796
0.79954928 0.18674062 3.0649381
-0.010804019 -0.52960086 2.8849857
0.38214564 -0.4345817 2.6590893
0.35930747 -0.34981582 2.6456177
0.55053544 -0.31610435 2.5996275
0.1352645 -0.62049389 2.9943326
-0.099997595 -0.62078518 2.9999974
-0.3256332 -0.67549926 3.0430517
-0.54361373 -1.2991654 2.8210115
0.99494648 -0.5398038 2.8637233
-0.26414755 -1.1320252 2.9712965
0.47781247 -0.58334827 2.9298966
-0.36047968 -1.3196019 3.0261075
-0.37546873 -1.3210796 3.0417392
-0.27662438 -0.94511849 2.919189
1.0363977 -0.60541081 2.6900222
0.56992513 -0.81578624 2.8964472
-0.33550137 -1.2771821 2.86484
-0.38681465 -1.3895537 2.8833413
0.13943905 -1.328826 2.8445458
0.23137112 -1.3161178 2.9093449
0.9773615 -0.76031113 2.7561698
0.76005846 -0.78113025 2.849395
0.52751803 0.24618238 2.863395
-0.19772978 -0.4734548 2.8088138
-0.35159299 -1.4851515 2.9930165
-0.67162192 -0.62771481 2.8449614
0.42301917 -0.74177587 2.9290152
0.94076616 -0.34689462 2.5041511
0.27724507 -0.53480357 2.8922877
-0.49440762 -0.7717362 3.1242464
-0.25196454 -1.190556 2.9059885
0.2761007 -0.267492 2.6248388
0.34864825 -0.31239492 2.6409514
-0.14005516 -0.58171731 2.9217014
-0.68302125 -0.65106678 3.0219822
-0.2599611 -1.6128397 3.1694944
0.2966623 -0.08389128 2.6457169
-0.29422423 -1.5395063 3.0773594
-0.52571398 -1.2038404 3.0686355
0.091871597 -0.32236239 2.6582906
-0.24842292 -1.1780144 2.9271383
0.27897763 -0.27032071 3.6494741
-0.10688764 -0.50590557 2.8745794
0.14893192 -0.49052387 2.8488598
0.10656133 -1.1129313 2.9493687
0.01068325 -0.33763725 2.6959465
0.11156604 -0.73034406 2.8421128
0.29293117 -0.45805481 2.7625532
-0.16005178 -0.43200865 2.8190012
0.96879363 -0.56194335 2.8247597
0.014749837 -0.5471673 2.889899
0.16518284 -1.2286251 2.8607035
-0.040877603 -0.59245247 2.9579346
-0.13611889 -0.6225583 3.0065398
0.44535354 0.096023776 2.5958195
0.44717485 0.098267458 2.5998693
0.17536005 -1.3095855 2.7068405
0.039256997 -1.2579166 2.6120744
-0.32048115 -1.5310999 3.0410488
0.43996298 -0.212152 2.4823833
0.34144345 -0.23774125 2.419426
-0.055731192 -1.0018545 2.764905
0.095817819 -1.2115244 2.8091667
0.19891308 -1.066543 2.8646412
0.5614987 -0.31789762 2.6099482
0.48810279 -0.49676573 2.7677417
0.50568843 -0.50116354 2.7971642
0.29057223 -0.17847048 2.4568934
0.99229264 -0.25696132 2.5886111
-0.44248173 -0.93198168 2.9984496
0.48822716 0.094460525 3.1852493
0.33257836 -0.24659465 2.5609598
1.0574015 -0.54630518 2.9092183
1.1817917 -0.43869355 2.7519789
1.0666285 -0.80567139 2.4838455
1.2469357 -0.82310843 2.5559204
0.2464429 -0.26511413 3.6099381
2.9589591 -4.9418263 6.7161236
-0.18123983 -0.46908742 2.8336101
1.0504925 -0.74827164 2.5989397
1.023854 -0.78176033 2.6705132
0.77700233 -0.33148864 2.6183577
0.93426675 -0.83818722 2.7742546
0.78598011 -0.71996319 2.9153683
0.95131826 -0.74347514 2.7535417
0.94599849 -0.54696065 2.7929389
0.789267 -0.66125619 3.0258799
0.9745478 -0.59690827 2.932143
0.80410385 -0.77382845 2.8604064
0.13287188 -1.2875766 2.8874099
3.046 -4.5903292 6.7114706
5.9300919 -3.6856537 5.568615
6.4529285 -0.75065714 4.1421227
5.5258493 -3.2676277 5.2962556
6.5555177 -3.7402596 6.0014839
4.620923 -3.7055283 5.9012618
7.5777426 -4.0676413 6.4727769
4.8103714 -3.6606429 5.8298178
2.9547482 -4.3782487 6.0554738
6.6451249 -2.4284308 4.2485414
6.4402962 -3.3855686 5.3891859
6.1488633 -3.3106246 5.2299976
5.7918835 -4.7607646 6.5875459
6.9442158 -0.76391184 4.3082628
5.9112301 -3.2228928 5.1163564
4.7534423 -3.9743259 6.2135186
8.3463545 -2.8441851 4.8445821
5.766746 -3.7243342 5.7139802
6.9517822 -3.6194768 5.639842
7.516037 -0.89117348 4.603622
2.8239067 -4.5858202 6.6858554
-0.31552476 -1.3527554 2.8288019
4.976378 -3.7893152 5.5526967
-0.13122305 -1.1874238 2.9454539
6.217885 -4.1701403 5.8200784
5.3011665 -4.3043685 6.6408153
5.0359874 -3.657774 5.818821
5.963829 -3.4415269 5.5356255
-0.33049729 -0.42655998 2.7585168
-0.735937 -0.54344618 2.9290755
5.1452522 -4.1991992 6.5361862
-0.67319143 -0.5300101 2.9305866
8.1699905 -2.8905988 4.4098687
4.5467572 -3.1690848 5.0016041
11.681516 -4.8861799 7.5671234
0.36805961 -0.23718463 2.5358298
7.1191511 -0.86123616 4.5747867
-0.074492998 -0.49417207 2.8487773
0.15694231 -0.49459714 2.8303022
0.89907342 -0.35070586 2.4794834
6.6528363 -1.4417429 4.0951457
6.9612675 -0.87031114 4.4313898
6.9641767 -0.87146521 4.4320121
