# .PCD v0.7 - Point Cloud Data file format
VERSION 0.7
FIELDS x y z
SIZE 4 4 4
TYPE F F F
COUNT 1 1 1
WIDTH 190
HEIGHT 1
VIEWPOINT 0 0 0 1 0 0 0
POINTS 190
DATA ascii
1.3879318 -0.25958946 3.9408386
1.178102 -0.28266656 4.0556374
1.4259065 -0.27826557 3.9175031
1.3401918 -0.076374158 4.003974
0.79109776 -0.051125877 3.5920987
1.3566511 -0.1464023 4.0103269
0.95929641 -0.041855566 3.6281469
0.65831548 -0.23037952 4.0594015
1.2120494 -0.18597631 4.0785942
1.3069377 -0.20854729 4.0819278
0.72700679 -0.53521448 3.9034708
1.3408834 -0.080245659 4.0111384
0.40494263 -0.15640134 3.7596607
0.76605147 -0.32199228 4.0312066
1.5115007 -0.058134571 3.9605565
0.78782183 0.0054159584 3.515177
0.73527974 -0.17446044 3.9285765
1.3526359 -0.34832323 3.9939947
1.2491529 -0.13816111 4.0939732
0.52149206 -0.14286925 3.765223
1.408486 -0.055444185 3.9189861
1.1855501 -0.33608255 4.0481858
1.4261736 -0.15584095 3.9393022
0.9139905 -0.20725118 4.100822
1.563087 -0.21749988 3.9227962
0.89946955 -0.052477047 3.6234748
0.52725589 -0.11588674 3.7131226
1.2095574 -0.18117921 4.0883713
0.73403555 -0.17558683 3.9238586
1.192952 -0.33659935 4.0509195
0.75619793 -0.1505955 3.8857045
1.3619328 -0.13492511 4.0194306
1.1823908 0.11886385 3.5329022
1.5315344 -0.15079072 3.9201319
1.1190948 -0.2013528 4.0867691
1.4751149 -0.18238789 3.9186122
0.94544446 -0.32077643 4.07688
0.94848317 -0.39040133 4.0509329
1.1476948 -0.1943128 4.0912514
0.91705287 -0.11903959 3.7758386
1.1387969 -0.29414609 4.0508509
1.3587891 -0.14714897 4.0107784
1.2421389 -0.21190214 4.0823412
0.51045185 -0.0078236302 3.5302701
1.3214831 -0.36988273 4.0420933
0.85337216 -0.064724207 3.6719964
1.4087429 -0.13074474 3.9658267
0.94312626 -0.12545542 3.8414447
1.2411973 0.017736934 3.7440369
0.88137889 -0.08913742 3.7074118
1.1911042 0.13874483 3.4959037
1.1911427 0.10969671 3.5415363
1.1380736 -0.29384232 4.0490308
1.1742791 -0.3405793 4.051496
0.82497573 -0.086328708 3.6963267
0.80231845 -0.086373657 3.6919379
0.86415631 -0.085901849 3.6865199
0.94126838 -0.32853156 4.0718198
0.93884611 -0.30901226 4.0686016
0.93650061 -0.0239855 3.6076224
1.3940921 -0.15661204 3.9605157
1.1984166 -0.011081054 3.7761383
1.3443457 -0.16713618 4.0283179
0.93956095 -0.025304796 3.608012
1.2300107 -0.20060129 4.0958385
0.80220121 -0.084695391 3.6963198
0.99153459 0.046323806 3.6076581
0.7543546 -0.14716469 3.8876622
0.75026906 -0.088739216 3.7189543
1.3024652 -0.025790021 3.8460453
1.5386351 -0.15517969 3.9306197
0.75749153 -0.0589117 3.6373031
0.5392856 -0.10683327 3.7122931
1.3166672 -0.3669351 4.0349813
1.0294665 0.066350512 3.5344155
0.81419438 -0.039494123 3.5989103
0.85464454 -0.071126342 3.6594205
1.3349948 -0.073262684 3.9939294
0.88321781 -0.00396726 3.2541001
0.90478063 -0.03660775 3.6584015
0.82074952 -0.085622542 3.7021515
0.89156228 -0.042448156 3.641933
1.2061371 -0.040149473 3.7826118
1.1986454 -0.012417262 3.7801149
0.838471 -0.14626344 3.9367051
0.78424203 -0.014486073 3.5259829
0.54236341 -0.13237987 3.7592583
0.54011494 -0.13155775 3.7662032
1.0573436 0.054159138 3.6671052
0.5075286 -0.39197755 3.811394
0.82669187 -0.09240187 3.7000024
0.51558954 -0.014309186 3.5142334
0.86512071 -0.084445022 3.6918752
0.52384984 -0.12695831 3.7406847
0.81958288 -0.09924937 3.7355509
0.74064195 -0.086137339 3.6979916
1.4064523 0.018522318 3.6818042
0.79183036 -0.046528421 3.59168
0.90963131 -0.11994199 3.7777598
0.9203077 -0.115125 3.7927573
0.80454034 -0.40030804 3.8878577
0.80561054 -0.39918891 3.8767118
0.49117231 -0.20229828 3.8970828
0.66422248 -0.37136498 3.9999299
0.48801768 -0.20509183 3.8942647
0.79941136 -0.022232607 3.5427268
0.78330517 -0.27850077 3.9212275
0.59564871 -0.30539614 4.0808554
0.79848373 -0.16829459 3.9292576
0.79434419 -0.053684857 3.6171508
0.70555842 -0.020097105 3.5978649
0.73845994 -0.080716766 3.7153921
1.4172864 0.10574628 3.7815957
1.190654 0.13964699 3.5110154
1.4229372 -0.2745465 3.9202588
1.298174 -0.027547477 3.8301854
0.92095089 -0.26332682 4.0688524
0.9309383 -0.2095972 4.1016831
1.2556885 -0.19770147 4.0683556
1.1530063 -0.19263525 4.0851803
0.79652119 -0.05238986 3.6152735
0.94027311 -0.12828341 3.8314221
1.5507041 0.030713588 3.9103818
1.1907889 -0.27689481 4.0589967
0.78342295 -0.27818352 3.9177423
0.74694216 -0.22181247 3.9647739
0.7793138 0.012919116 3.5126345
0.93065763 -0.2069819 4.1183743
1.1508437 -0.14835978 4.1153646
0.80016023 -0.085632935 3.6972404
1.1008135 0.11455712 3.5085711
0.66072357 -0.23052113 4.0445814
0.70833415 -0.38397658 4.1024213
0.67643148 -0.026527017 3.5787976
0.75232947 -0.06738808 3.5870767
0.90780813 0.023471503 3.6115112
0.87667942 -0.0045362236 3.2564559
0.38929915 -0.25471014 3.8923297
0.67888433 -0.036238652 3.5788143
0.78927666 -0.36497766 3.9132884
0.77509701 0.027099527 3.5403249
0.38478017 -0.14794175 3.7388577
1.2165738 -0.032271098 3.7834303
1.3047237 0.021325527 3.7948623
0.73982084 -0.17302854 3.9357159
0.79193419 -0.01635764 3.5455616
0.38462359 -0.1493794 3.7356393
0.33796549 -0.11730665 3.7008185
0.8020308 -0.017141905 3.5514936
1.5466231 -0.15610814 3.920332
0.86955231 0.037902713 3.5666285
0.85389876 -0.088651516 3.6953177
0.70941412 -0.093511879 3.7355697
0.43804836 -0.15189882 3.7833059
0.43751648 -0.15388176 3.7786119
0.43569008 -0.154368 3.7783189
0.81832498 -0.1031066 3.7242873
0.52537131 -0.12662593 3.7381451
0.3749384 -0.13698116 3.7807629
0.7851963 -0.010069239 3.5262938
1.33696 -0.16274215 4.036397
0.54186541 -0.31257007 4.162643
0.94795269 -0.36105931 4.0518184
1.1532595 -0.36341923 4.1018314
1.101795 -0.2346264 4.1007471
1.1011409 -0.23659131 4.1003857
1.1532414 -0.36082828 4.0881443
1.122023 -0.19989419 4.0922546
1.3064637 0.014538692 3.7867703
0.67454141 -0.26579177 4.0074849
0.57436579 -0.11663754 3.7374003
0.6790697 -0.018709198 3.5679324
0.76320469 -0.053234059 3.6126776
1.3227726 -0.016608547 3.8837483
1.3134027 -0.0294396 3.8539054
0.83576041 -0.15989684 3.9482977
0.92594337 -0.32182941 4.0582891
1.3284104 -0.21570176 4.0471721
1.1248643 -0.20385949 4.093801
0.53900868 -0.31335583 4.17556
0.37228012 -0.18114842 3.7928305
1.5121691 -0.2247474 3.9112601
1.7177647 -0.028857239 4.1172504
1.7721967 -0.15825516 4.0665135
0.94391966 -0.32796529 4.0647526
1.7595088 -0.15793659 4.0505652
0.77858859 -0.053946003 3.5930004
1.422666 0.042200588 3.8383074
0.74646717 -0.15333529 3.9045286
0.63039148 -0.32831648 3.994746
