# .PCD v0.7 - Point Cloud Data file format
VERSION 0.7
FIELDS x y z
SIZE 4 4 4
TYPE F F F
COUNT 1 1 1
WIDTH 141
HEIGHT 1
VIEWPOINT 0 0 0 1 0 0 0
POINTS 141
DATA ascii
1.2315718 -0.66239178 3.7745132
1.0283823 -0.69287407 3.899111
0.7928378 -0.72131461 3.9160428
0.78990942 -0.71979731 3.9147184
0.09922386 -0.56216812 3.7201176
0.68778968 -0.44140142 3.5732019
1.1951944 -0.48708916 3.86271
0.80972093 -0.7863068 3.9024882
0.62344521 -0.39263454 3.4939768
0.79376745 -0.39340788 3.5197828
1.2394264 -0.48135695 3.8014309
0.51232392 -0.62466961 3.9433618
0.55903256 -0.90961164 3.7469347
0.36488491 -0.49543744 3.6724794
0.3762981 -0.93339664 3.5899432
0.3282814 -0.58176601 3.7797306
1.0223799 -0.69973421 3.9065711
1.1600523 -0.62145549 3.9157081
0.2443122 -0.50552946 3.6722705
0.63069433 -0.74770796 3.7772608
0.79847348 -0.7896471 3.8869355
1.026183 -0.69428992 3.9001129
0.79704404 -0.72392768 3.9247139
0.61776018 -0.32681835 3.4249799
0.58334851 -0.55531061 3.815649
1.1960407 -0.75590026 3.8185444
0.77196795 -0.37953022 3.5052087
-0.077192903 -0.60306078 3.7279625
0.23286919 -0.6202423 3.7912793
1.206636 -0.54440212 3.8583803
0.37812132 -0.68655998 3.7562587
0.58941782 -0.44425285 3.6201367
1.1552879 -0.62053269 3.9159095
1.1750228 -0.78757793 3.8708212
0.65683156 -0.68913555 3.8075118
1.1490536 -0.82622576 3.830317
1.0332036 -0.74514717 3.88467
0.73338771 -0.40141708 3.5177727
0.36508903 -0.46348134 3.6231515
0.96085393 -0.5801236 3.9800403
1.2364099 -0.47635031 3.8003423
0.60255492 -0.52694863 3.7747612
0.59690756 -0.44060802 3.6281199
1.2927144 -0.68925458 3.7468934
1.1254534 -0.56139416 3.9588223
0.95392978 -0.62127477 3.9527359
0.79475123 -0.7916773 3.8962526
1.1670392 -0.78230017 3.8655629
0.6393106 -0.44046658 3.5877669
0.77352238 -0.37383297 3.5031757
0.6578508 -0.4514617 3.5868556
0.33232734 -1.0551835 3.7183926
0.68016577 -0.42570251 3.5418375
0.24798603 -0.50784492 3.6652377
0.14828199 -0.53029621 3.6848226
0.54957497 -0.39777699 3.5334466
0.329115 -1.0543993 3.6979458
0.36678085 -0.49140668 3.6606803
0.35203221 -1.1247463 3.6783295
0.61338615 -0.34507671 3.4331224
0.61404783 -0.34779176 3.4334657
0.34029153 -0.74892998 3.6877789
0.3775683 -0.93160695 3.5696483
0.50600547 -0.75827807 3.8971877
0.33888289 -0.56826317 3.808413
0.55103558 -0.39758977 3.5385265
0.3577359 -0.85834914 3.6207263
0.53857386 -0.91249907 3.7350535
0.78763479 -0.61819041 3.9699087
0.58808011 -0.40437213 3.4911134
0.78847915 -0.61768079 3.9867771
0.63751173 -0.44032705 3.5932503
0.58381909 -0.40687492 3.4895449
0.23284908 -0.61913788 3.7925704
0.2325757 -0.61990654 3.7913468
0.62859279 -0.74405521 3.7735229
0.66030198 -0.44450253 3.6055791
0.74696672 -0.44488072 3.5350235
0.54903108 -0.45000714 3.6361866
0.27895406 -0.50510132 3.6940675
0.27805716 -0.5064618 3.6892102
0.27619818 -0.5068481 3.6889799
0.23220648 -0.4922902 3.644371
0.17890687 -0.48740464 3.6175969
0.61818898 -0.4400233 3.5722184
0.66448188 -0.44846892 3.5853188
0.63595331 -0.44989243 3.5984282
0.30718657 -0.55943239 3.7943754
0.31201124 -0.56160408 3.7859209
0.34966734 -1.126169 3.6775768
0.27390462 -0.88832992 3.6203816
0.54867899 -0.44171086 3.6430681
0.10608424 -0.58278865 3.7563992
0.53972483 -0.36498427 3.5081804
0.32102907 -1.2453462 3.7522404
0.33621332 -1.0113575 3.7361314
0.75012499 -0.47043577 3.6001859
0.9001537 -0.34304044 3.5142255
0.74730778 -0.38402775 3.5342789
0.32685411 -0.63668388 3.7470107
0.41659272 -1.0871885 3.7722747
0.43788955 -1.127928 3.9435301
0.12149114 -0.47653669 3.6042347
0.40941629 -0.4678278 3.6245885
0.38762102 -0.95472699 3.6074486
1.1466377 -0.42729235 3.7033002
0.66022223 -0.57268196 3.8370156
0.36018699 -0.46680608 3.6153843
1.168026 -0.62214595 3.9222951
1.0024239 -0.77364838 3.9233115
0.13083299 -0.54233801 3.6965146
0.81764084 -0.78438795 3.9094923
0.27862066 -0.99880511 3.7091622
0.64378637 -0.55332434 3.8045213
0.52391058 -0.65379983 3.8865302
0.55915362 -0.47160718 3.652564
0.16321334 -0.54458684 3.7142665
0.16164625 -0.46572894 3.5888798
0.68535066 -0.54659557 3.8303804
0.2344466 -0.49198529 3.6394532
0.54767275 -0.83920878 3.914083
0.55603164 -0.84725887 3.9633141
0.12943521 -1.0211399 3.6900623
1.1864089 -0.7176733 3.8965604
0.11485825 -0.48070344 3.5925641
0.78469527 -0.49866101 3.7286179
0.093050838 -0.55655241 3.7096093
0.22469568 -0.49196571 3.6550164
0.17464335 -0.48602912 3.6218226
0.15431741 -0.49746364 3.5909321
0.69699347 -0.34667775 3.5219734
0.27330536 -0.89118224 3.6234663
0.16514619 -0.54422772 3.7213492
1.0328822 -0.75925821 3.9189813
0.48076153 -0.49589342 3.6980448
0.76511693 -0.47845161 3.7038629
0.11471999 -0.49724528 3.6323116
0.41750118 -0.56859678 3.8181388
0.40106431 -0.97833389 3.6652915
0.40751392 -0.47238681 3.6314228
0.55692971 -0.472498 3.6436644
