# .PCD v0.7 - Point Cloud Data file format
VERSION 0.7
FIELDS x y z
SIZE 4 4 4
TYPE F F F
COUNT 1 1 1
WIDTH 86
HEIGHT 1
VIEWPOINT 0 0 0 1 0 0 0
POINTS 86
DATA ascii
1.5935571 -0.23835744 4.0914583
1.8194278 -0.28600037 3.9506118
1.7430046 -0.026337041 4.0265613
1.1686063 -0.031584013 3.6499686
1.7628469 -0.095483877 4.0329018
1.7871374 -0.025418429 3.9649508
1.6246566 -0.13992909 4.1107745
1.7204556 -0.15840535 4.1084266
1.8109001 -0.11141438 3.9497466
1.7665654 -0.29765016 4.0198679
1.3154236 -0.0047052023 3.6588614
1.8048691 -0.0040372889 3.9371152
1.7254833 -0.36936188 4.0413561
1.2400848 -0.12100954 3.9920928
1.5161946 -0.12157916 4.1562667
1.6225766 -0.13507028 4.1206174
1.373717 -0.3534039 4.1091967
1.9300662 -0.14580955 3.9247568
1.562114 -0.15441397 4.1151552
1.8765517 -0.12224439 3.9345441
1.783725 -0.020878671 3.963191
1.7731076 -0.15205246 4.0317211
1.1550127 -0.12468129 3.9470391
1.1565115 -0.12725654 3.9466453
1.3391335 -0.2336731 4.1233826
1.3089193 0.040989917 3.6901321
1.5871005 0.10238551 3.7137425
1.8093748 -0.080619827 3.9956264
1.8012108 -0.2574726 3.9724901
1.8978586 -0.10897357 3.9463024
1.9317613 -0.094060495 3.9318843
1.6313418 0.06095491 3.7723713
1.5854456 -0.24234684 4.0869036
1.6738516 -0.12632912 4.1073923
1.5331501 -0.15907611 4.1250501
1.3363805 0.0067775454 3.6965768
1.3689766 -0.35577136 4.1029158
1.561643 -0.15075524 4.1276064
1.3771271 -0.23288944 4.143013
1.6944668 0.092855074 3.7517724
1.875421 -0.12172581 3.9322577
1.8421148 -0.071366124 3.9557955
1.7804528 0.037616391 3.930074
1.896106 0.017496049 3.9856415
1.7259085 -0.16045532 4.1081448
1.6560162 -0.16448942 4.1129942
1.7394506 -0.31965765 4.0701594
1.1669074 -0.026613729 3.6401217
1.2674962 -0.063708238 3.7598844
1.2674313 -0.063444294 3.7632258
1.0934213 -0.037806563 3.6908164
1.553715 -0.25133038 4.0875678
1.2488747 -0.06157209 3.7400796
1.2316465 -0.047386821 3.8054352
1.3569496 -0.27456418 4.1199446
1.8056552 0.16576749 3.6874917
1.3165169 0.00076783932 3.6560581
1.2857403 -0.0084459595 3.68571
1.1374732 -0.068651237 3.7797022
1.5701145 -0.29030421 4.077395
1.2702119 -0.39787626 4.1664782
1.6627182 -0.092117764 4.1246634
1.6317625 0.060479697 3.773392
1.2915913 -0.094926178 3.8609676
1.2032858 -0.02145399 3.6696711
1.2080808 -0.075927272 3.7920294
1.1251278 -0.061199252 3.7767763
1.1389982 -0.033883423 3.6741402
1.1818405 0.024120856 3.7828522
1.3371433 -0.22967897 4.1206474
1.3468317 -0.1750055 4.1519752
1.6680353 -0.14997689 4.0979681
1.566486 -0.14896174 4.1211867
1.3663242 0.076927587 3.6537464
1.288385 -0.0097059589 3.6859872
1.3474842 -0.17211097 4.1686101
1.0975847 -0.079847381 3.8034625
1.1857245 -0.063820809 3.7548275
1.613168 -0.28769556 4.0766182
1.6328917 -0.10222504 4.0925279
1.2413813 0.060220215 3.6182554
1.2956806 -0.067188673 3.6974709
1.210716 -0.16284788 4.0203528
1.5619597 -0.10581278 4.1499052
1.7606885 -0.068307698 4.0388789
1.9150995 -0.1689146 3.9253604
