# .PCD v0.7 - Point Cloud Data file format
VERSION 0.7
FIELDS x y z
SIZE 4 4 4
TYPE F F F
COUNT 1 1 1
WIDTH 163
HEIGHT 1
VIEWPOINT 0 0 0 1 0 0 0
POINTS 163
DATA ascii
0.22617826 -0.079426594 1.3923984
0.0080066472 -0.062506333 1.6758016
0.012927576 -0.056309365 1.6520793
0.45530194 0.36152676 0.9941864
0.35803911 0.23082152 1.2326931
0.42191163 0.14596108 1.3346751
0.21971631 0.24861003 1.1507498
0.32681233 -0.30008176 1.4188987
0.41718754 0.15474023 1.3343266
0.66082442 0.25626627 1.1361972
0.49305215 0.28220916 1.1119249
0.090447187 0.19892083 1.046793
0.15256619 -0.028336005 1.5344548
0.41585559 0.15084179 1.3320892
0.66853243 0.28212228 1.1040365
0.56539369 0.35131386 1.0256228
0.15966947 -0.10015054 1.666865
0.21813215 0.20293234 1.1546125
0.72096539 0.11259195 1.3477566
0.91202933 0.26562199 1.1568747
-0.2980063 -0.60216391 2.7957613
0.7758593 0.10836111 1.3446578
0.074346893 -0.0032361101 1.4329841
0.84293878 0.22252437 1.2324481
0.84008414 0.21813075 1.2182515
0.73626083 0.27192345 1.1199379
0.13052689 0.20723359 1.2377005
0.21743983 0.10107947 1.3547777
0.072889097 0.059815418 1.3765882
0.12611434 0.20634761 1.2462857
0.93038934 0.080285497 1.2125705
0.93295085 0.082439385 1.2218719
0.20209789 0.15915708 1.1917218
0.80988306 0.31757349 1.0389398
0.1619765 0.30944726 1.1376173
1.0130959 0.30426756 1.1319897
1.758876 -0.77427214 2.532429
0.86597073 0.076735862 1.2103302
1.4966425 -0.70765811 2.3807693
1.7432833 -0.80367881 2.578099
0.87853545 0.013439512 1.1865858
0.95741922 -0.168946 1.0670646
0.40161982 -0.32768151 1.558881
0.76248121 0.2164565 1.2106315
1.1849808 0.25479627 1.1375947
1.0325632 0.19479039 1.2354382
0.48286372 0.15543143 1.2816741
1.0118464 0.30318996 1.1329076
0.23063794 -0.0089258524 1.5517347
1.1322873 0.34010223 1.0544136
1.147284 0.34745324 1.0798551
1.0714135 0.32419482 1.0857468
1.0725286 0.32468763 1.0880809
1.0751401 0.32227737 1.0867305
1.0808169 0.3264834 1.1000143
0.78395444 0.24113101 1.1381322
1.0071367 0.30209723 1.1193341
1.179746 0.22236779 1.1975487
0.81901866 0.34555086 1.0459484
0.044456247 -0.140744 1.6792061
0.1621483 0.30790329 1.1360984
1.1310766 0.33777383 1.0550957
1.5277313 -0.50909221 2.1750779
1.6205698 -0.64667666 2.3921425
0.40189752 0.34095538 1.0656878
1.0145793 0.30515766 1.1379855
0.94949991 -0.16579998 1.0465101
0.5801791 -0.38035229 1.4554873
0.21045589 0.082692228 1.3184711
0.03898745 -0.10240935 1.7034316
1.6173937 -0.26620159 1.7032022
1.525515 -0.29888466 1.726595
1.5789562 -0.3348597 1.8704363
1.5471461 -0.32349756 1.8137431
1.5312068 -0.31833673 1.7989793
1.6453036 -0.368756 1.9925179
1.6682117 -0.56501538 2.0879486
1.6951233 -0.57156509 2.122962
1.5499699 -0.40493333 2.0512187
1.5913707 -0.47721487 2.0965462
1.7138234 -0.45741066 2.1083496
1.5642169 -0.45657983 2.0752099
1.5459969 -0.45652178 2.0137534
1.5928153 -0.47258908 2.1183879
1.7732229 -0.45634961 2.0799546
1.9243717 -0.53122586 2.1221375
1.2277514 -0.51404291 2.1686819
1.8314602 -0.50355202 2.0031734
1.8704072 -0.5010553 2.1585653
1.9434346 -0.56807917 2.2193894
1.9190493 -0.5633682 2.2097249
1.9246982 -0.56342572 2.2073004
1.6152232 -0.64582217 2.3902202
1.529025 -0.37806374 2.0022633
1.1207445 -0.50750619 2.1625652
2.101964 -0.61977714 2.187593
0.95345622 -0.16766089 1.0545387
1.0414715 0.16066897 1.2347283
1.0392389 0.16126111 1.2348334
1.0404156 0.16107433 1.233399
1.0379841 0.16137458 1.2293253
0.89568555 0.26529336 1.1443944
0.88572586 0.28052458 1.1552026
1.0109259 0.40671828 1.0253047
0.28722927 0.089309998 1.2483211
0.87153405 0.2108878 1.1950486
0.273927 0.16621605 1.2333195
1.1717597 0.22488526 1.1951063
1.1665242 0.21988952 1.1762402
1.0284891 0.19605057 1.224054
1.6814127 -0.29768625 1.7129521
1.680419 -0.29037648 1.7142012
1.754418 -0.30703363 1.8042457
1.6032749 -0.32799923 1.8876736
1.6613368 -0.33350739 1.8586142
1.7173793 -0.37551925 1.9970967
1.543301 -0.50413764 1.9568868
1.5540885 -0.38890636 2.049679
1.5331973 -0.41557172 2.068599
1.23791 -0.52108252 2.1912067
1.8090748 -0.47561571 2.0607159
1.2451631 -0.52116263 2.1986609
1.2473136 -0.54472429 2.267149
1.2252009 -0.53174096 2.1997361
1.1245919 -0.50989228 2.1624866
1.1491455 -0.53554922 2.252248
2.2370617 -0.63237244 2.40365
2.1299307 -0.59023541 2.2568178
1.2853429 -0.71891481 2.4680247
1.2711848 -0.70081133 2.4167633
1.29582 -0.72685385 2.4917457
0.87579244 0.080908597 1.2328788
0.3993763 0.33714783 1.0554138
1.1418239 0.26109987 1.2047573
0.65088207 0.31363869 1.0746962
0.87390858 0.20942017 1.2160956
0.69666612 0.16283962 1.3039173
0.72330803 0.27815199 1.10997
0.27085119 0.17733021 1.2331724
0.89052951 -0.22329976 1.0920254
0.59739751 0.35474136 1.0521556
0.80650836 0.16353892 1.3405404
1.5669481 -0.52357346 2.0165486
1.6452116 -0.58518499 2.2004371
1.6896091 -0.61674458 2.2942009
1.1362593 0.34005722 1.0653577
0.24435665 0.22484942 1.1874417
0.22674969 0.11434077 1.2174015
0.28096926 0.02955832 1.2704725
0.96367389 0.40080413 0.97671807
0.51803958 0.12912522 1.4224219
0.85018694 0.079866454 1.2211634
0.15796465 0.15431134 1.2185966
0.87835306 0.01718883 1.1738057
1.4834775 -0.62536657 2.305619
0.52883929 0.13035826 1.4480989
0.52959549 0.12558812 1.4030745
1.4796792 -0.61776221 2.2896619
1.5442286 -0.52690411 2.2360239
0.76068085 0.21518184 1.1993942
0.70270187 0.322218 1.0689441
0.63739222 0.22271994 1.4779881
0.92655927 0.00021506714 1.2515942
