# .PCD v0.7 - Point Cloud Data file format
VERSION 0.7
FIELDS x y z
SIZE 4 4 4
TYPE F F F
COUNT 1 1 1
WIDTH 194
HEIGHT 1
VIEWPOINT 0 0 0 1 0 0 0
POINTS 194
DATA ascii
-1.7301577 -1.1702299 3.1030784
-2.2977781 -0.66051024 3.1731403
-1.5071859 -0.56832987 3.260458
-1.7420677 -0.98143196 3.0970407
-1.34956 -0.56519687 3.3210678
-1.6998951 -0.47704041 3.2588246
-2.105161 -0.44232312 3.2033069
-2.307853 -0.65191627 3.2019508
-1.6993966 -0.76223642 3.1100721
-1.6997161 -0.48228177 3.2318776
-1.9047862 -0.92291319 2.9609606
-1.8820959 -1.052242 2.9325306
-1.6804906 -0.47221881 2.9781044
-1.8462794 -1.0424907 3.2239702
-1.9274369 -1.2036663 3.08338
-1.8963056 -1.008957 2.8933706
-2.0750608 -0.84504461 2.8720722
-2.1115618 -0.78712344 2.9617467
-1.733938 -0.95129943 3.1808014
-1.2573012 -0.58512437 3.3380437
-1.675699 -0.31439018 2.928118
-1.5177106 -0.52449852 3.266978
-1.6998398 -0.76326895 3.1062801
-1.2852194 -0.67884237 3.4172065
-1.6970611 -0.61682039 3.1685216
-1.7050338 -0.6554352 3.153657
-2.1037123 -0.44195157 3.2088819
-1.7841736 -0.74456763 3.1006989
-1.3802998 -0.55432236 3.3188298
-1.6036453 -0.39525175 2.9000573
-1.3018154 -0.55443376 3.3159213
-1.3649265 -0.588094 3.3531334
-1.5118494 -0.58248514 3.2684612
-1.5507551 -0.51490629 3.2573204
-1.5514307 -0.51287884 3.2680306
-1.6719815 -0.47786516 3.2075803
-1.5302625 -0.52786607 3.2868819
-1.3605428 -0.44212142 3.171819
-1.3605702 -0.47091118 3.1986358
-1.7298322 -1.0659721 3.2538028
-1.6367475 -0.38858187 3.0856085
-1.6745878 -0.36894241 2.9188533
-1.9084866 -0.91103154 2.9371326
-1.3079904 -0.5349018 3.3016677
-1.6233827 -0.32657406 2.9675317
-1.9878993 -0.83727825 2.9205284
-1.6501107 -0.43903676 2.9296508
-2.0577593 -0.83637339 2.8568497
-1.9445522 -0.84997386 2.9352145
-1.6251608 -0.3835384 2.9156907
-1.9733894 -0.86770284 3.0729082
-1.6502169 -0.49341112 3.2273562
-1.9120815 -0.91062313 2.9349775
-2.004149 -0.82059234 2.8915842
-1.9725003 -0.83084649 2.9058843
-2.0107088 -0.86725026 3.031224
-1.9699308 -0.97060364 2.8313644
-1.7488858 -1.0222238 3.0927112
-1.6983615 -0.42256013 2.9022257
-1.5158918 -0.58008611 3.282727
-1.2142483 -0.52271801 3.2611403
-1.6486958 -0.44036326 2.933296
-1.6275122 -0.39021656 3.0700734
-1.9800102 -0.89942509 2.8413794
-1.9469465 -0.85136408 2.9362121
-1.6960913 -0.89212 3.037256
-1.8168882 -1.0156293 3.1601467
-1.7711163 -0.5160709 3.2221427
-1.6077279 -0.50083941 3.2490783
-1.6875504 -0.44408262 2.930903
-1.6385803 -0.48584649 3.2367923
-1.647355 -0.48799625 3.2247336
-1.9353701 -0.84756953 2.9298196
-1.7311683 -0.45227501 2.9602122
-2.0695636 -0.88583446 2.8218715
-1.9632069 -0.96419227 2.8197289
-1.8982017 -0.91096455 2.953505
-1.6831071 -0.44873241 2.9354661
-1.6747614 -0.45053354 2.9313607
-2.2278125 -0.8558951 2.968189
-1.2338712 -0.5900023 3.3571174
-1.3210617 -0.55965704 3.2516973
-1.9189149 -1.0894134 2.9854364
-1.6889122 -0.44535214 2.9316423
-2.1518342 -0.49735832 3.1867037
-1.6601197 -0.77888376 3.1375482
-1.7201153 -0.45545733 2.9542472
-1.6781915 -0.46932355 2.9666178
-2.0049789 -0.74481767 3.0054269
-1.7789631 -1.1034535 3.0641537
-1.7580055 -1.1923223 3.0597425
-1.9883101 -0.9034887 2.8469279
-1.3345987 -0.56375188 3.3487568
-1.7333167 -1.0038533 3.0649889
-1.7012742 -0.33046573 2.8907015
-1.8844019 -1.0457041 3.2144406
-1.900475 -0.95854002 2.9686909
-2.3167055 -0.88888747 3.0521417
-1.9287881 -1.2387351 3.1330447
-1.6492695 -0.43999955 2.9217689
-1.8886219 -1.0752034 3.1681824
-2.4977915 -0.81497681 3.2604799
-2.4695415 -0.80491132 3.234169
-2.3153477 -0.75923765 3.131186
-1.6109787 -1.1553109 3.4028766
-1.6412607 -1.1562386 3.4113855
-2.0785344 -0.84539086 2.8860106
-2.4130042 -0.92694789 3.1438785
-2.3189552 -0.89118916 3.0504045
-2.3100886 -0.88572323 3.0466874
-1.9068431 -1.0855342 3.1942899
-1.6718464 -0.47262421 2.980958
-1.9161867 -1.2204498 3.1946352
-1.7394222 -1.1156882 3.0775084
-2.003963 -0.96352988 2.8079116
-2.3417151 -0.66414404 3.2368939
-2.2417047 -0.61868066 3.1408496
-1.8517318 -1.047035 3.2452152
-1.895875 -0.95850813 2.958884
-1.9819002 -0.97655874 2.8419614
-2.562583 -0.83055151 3.3235855
-1.7699169 -1.0918696 3.0385106
-1.75736 -0.60140324 3.1506884
-1.7409478 -1.0255895 3.0935254
-1.8768518 -0.89866245 2.9230802
-1.6975815 -0.47186041 3.0190542
-2.5397086 -0.84561092 3.3070469
-2.1357677 -0.79531533 2.9835052
-1.3464719 -0.56810796 3.3077071
-2.0035295 -0.96559209 2.8078496
-2.0280819 -0.75226086 3.0396774
-1.7523408 -0.96760356 3.1110938
-1.6591952 -0.46306428 3.0993035
-2.0331485 -0.98357284 2.8417974
-1.6970019 -0.65293175 3.1377323
-1.6142231 -0.33464137 2.9280736
-1.7336441 -0.99976301 3.1323078
-1.8024138 -1.0037228 3.1348934
-1.7537639 -0.97021514 3.1067426
-2.0390537 -0.33751726 3.0552385
-1.6390263 -0.48487782 3.1366701
-1.3319808 -0.49714279 3.225565
-1.9126234 -1.0883327 3.1992328
-1.8853639 -1.0474133 3.1921434
-1.9002621 -0.98932731 3.0115919
-1.7429515 -1.1088095 3.0640261
-1.302689 -0.49070853 3.2448719
-1.8492106 -0.93883586 3.0288997
-1.7298355 -1.1602443 3.0106218
-1.7592951 -1.2021997 3.1221588
-1.9163933 -1.2214311 3.1081779
-1.9935604 -1.2746199 3.1967814
-1.9105486 -1.2143607 3.1868777
-2.3022141 -0.6430167 3.195956
-2.2655194 -0.64176148 3.1591084
-2.3134003 -0.58472013 3.2349844
-2.3849967 -0.51251101 3.3934796
-2.2801704 -0.50985563 3.2580559
-2.2714674 -0.50922346 3.2496219
-1.7672949 -1.0262303 3.114073
-1.6899631 -0.59329736 3.1685634
-1.3377467 -0.58435881 3.4085414
-1.5817382 -0.50499737 3.234874
-1.7293303 -0.98822957 3.1350391
-1.9391811 -0.93276739 3.1216927
-1.6508249 -0.48123842 3.2149041
-1.7237219 -0.23152673 2.9911501
-1.8734093 -1.1349554 3.1212554
-2.1071012 -0.43969068 3.2000937
-9.5025568 -2.2305188 6.7663774
-8.6606073 -1.3676767 6.2474651
-7.4869428 -2.3790989 7.4330297
-8.1606989 -2.2963331 7.6242723
-8.4076786 -2.505012 6.5067086
-8.0902681 -2.2678099 7.5656242
-1.727282 -1.1303984 3.12147
-8.7294655 -2.1923935 7.0683265
-8.8289595 -2.5710993 6.8539867
-8.3677759 -1.6232849 6.4709806
-1.6466961 -0.93509805 3.1304507
-9.1192551 -2.7050183 6.9877586
-8.7886086 -2.1989269 7.1520252
-8.8590126 -2.2683029 7.4350452
-1.7433566 -1.0841577 3.2941723
-8.6391993 -1.734761 5.978241
-8.6780939 -1.8181618 6.8588018
-8.3337994 -1.3168 6.0827017
-2.3280537 -0.52188033 3.2986717
-9.4738941 -2.3423433 7.6405854
-8.944109 -2.2077818 7.4947643
-2.7845457 -0.54323822 3.8146665
-9.7851562 -2.2904739 6.9661422
-2.4658177 -0.80641639 3.2324564
-9.7312756 -2.4154434 7.2113571
