# .PCD v0.7 - Point Cloud Data file format
VERSION 0.7
FIELDS x y z
SIZE 4 4 4
TYPE F F F
COUNT 1 1 1
WIDTH 232
HEIGHT 1
VIEWPOINT 0 0 0 1 0 0 0
POINTS 232
DATA ascii
-1.337588 -1.145087 3.3433533
-1.3250984 -1.1780972 3.3248718
-0.98204195 -0.54413724 3.3790803
-1.0450016 -0.62620795 3.4938848
-1.385951 -0.9197371 3.3343391
-0.95854712 -1.3255732 3.5633907
-1.9559076 -0.9582988 3.4933221
-0.84284407 -0.6860435 3.6203635
-1.4514128 -0.5510084 3.1012557
-1.4116899 -0.64107615 3.4413714
-1.522357 -1.1411494 3.2239194
-1.2256584 -0.91884065 3.3522651
-1.3985298 -0.91537255 3.3230519
-0.88512027 -0.59590012 3.4856796
-1.3899729 -1.1877464 3.3962226
-1.3923826 -0.55513692 3.1422482
-1.7559394 -1.0614122 3.2405581
-1.2224166 -0.63350123 3.4574525
-1.6314011 -1.0856681 3.1937037
-1.8127668 -0.70448488 3.4633913
-0.97215003 -0.55909806 3.3938687
-0.9070977 -1.1537405 3.5036945
-0.8803128 -0.5985685 3.4795082
-0.91171265 -0.97990537 3.4184227
-0.97385561 -0.54015583 3.3849969
-0.98373061 -0.55129451 3.4093759
-0.94473946 -0.71026218 3.5899734
-1.0023521 -0.60443532 3.482533
-0.85715026 -0.60386729 3.5097783
-0.89293289 -1.2249485 3.4620492
-1.0442693 -0.52543843 3.3408957
-1.2017661 -0.68784875 3.4618003
-1.2575959 -0.63331008 3.4511585
-0.94468862 -0.53533 3.3238285
-1.0413575 -0.54484242 3.370919
-0.98097086 -0.62006336 3.4986196
-0.9506489 -0.5098564 3.34127
-1.3742647 -0.63274294 3.4300706
-1.3334531 -1.1271143 3.3431523
-1.2577194 -0.63056755 3.4617293
-1.3885254 -0.63209814 3.4137695
-1.2316794 -0.63809091 3.478858
-0.93813455 -0.46847519 3.2687318
-1.1016994 -0.52351481 3.3396678
-0.92654973 -0.48304674 3.3064227
-0.98549557 -0.49440715 3.3019836
-1.4544679 -0.50605744 3.1222563
-1.0918493 -0.54841715 3.3647442
-1.0435686 -0.52454787 3.3476114
-1.0259426 -0.56064618 3.4144673
-1.0806769 -0.57180822 3.4001806
-0.89353788 -1.2404722 3.4930151
-1.0473882 -0.61909711 3.4827578
-0.9792527 -0.62104678 3.5117614
-1.111854 -0.50285077 3.2867339
-1.093761 -0.51513588 3.3187742
-1.0923759 -0.50355428 3.29108
-1.2888333 -1.2096281 3.5025024
-1.0818568 -0.5100593 3.3101506
-1.3382903 -1.2349044 3.2852883
-2.12149 -1.3399398 3.5699136
-1.1127143 -0.50354183 3.2959325
-1.4778435 -0.64323831 3.1628945
-1.5312892 -1.1327301 3.2000034
-1.3888607 -0.50687933 3.1618581
-1.0146909 -0.58839738 3.467927
-1.0588932 -0.50842643 3.2982893
-1.0984492 -0.51602882 3.3480616
-1.4302602 -0.55003309 3.0910659
-0.98150206 -0.54401439 3.3822629
-1.7161533 -1.2239162 3.0917654
-1.0065109 -0.60137391 3.4693687
-1.5352808 -1.1278791 3.1887908
-1.7216922 -0.72756636 3.504421
-1.387723 -0.61728472 3.1239297
-1.5785353 -1.0979509 3.187042
-1.7018175 -1.1049148 3.1333108
-1.4229289 -0.64692473 3.1799493
-1.4364793 -0.61727059 3.0814724
-1.5818148 -1.0829549 3.1985717
-1.6372918 -1.22944 3.090909
-1.719754 -1.2389613 3.0608578
-1.6888331 -1.1749356 3.0872586
-0.95982647 -1.2655212 3.629756
-1.0392498 -0.54426128 3.3641782
-1.4873577 -1.2150955 3.1904285
-1.518191 -1.1272293 3.2183704
-1.0296998 -0.55535126 3.4026115
-1.9208581 -1.2045467 3.3636327
-1.6739765 -0.99795961 3.2963169
-1.3961977 -0.55550271 3.1131639
-1.401808 -0.55408961 3.1239882
-1.043048 -0.52220953 3.3547418
-1.0227877 -0.58547145 3.4262202
-1.3366358 -1.2273984 3.3271837
-1.536355 -1.1028323 3.1997893
-1.5350614 -1.1334203 3.1982629
-1.4698315 -0.49247062 3.1521454
-1.3405246 -1.2636278 3.3001902
-1.5854287 -1.2148685 3.1060176
-1.4758751 -1.2415425 3.2824306
-1.3341068 -1.1865129 3.3423669
-0.92207682 -0.61705375 3.5077412
-1.7608203 -1.0631369 3.2373755
-1.4711524 -0.64292383 3.1526535
-1.2048753 -0.68526655 3.4762669
-0.93162936 -0.55699199 3.416033
-1.3303 -1.2404597 3.2752335
-1.3816684 -0.54876977 3.2668769
-1.3770369 -0.55880457 3.1168666
-1.0352117 -0.54654479 3.3623631
-1.695599 -1.1505957 3.0887666
-1.4279048 -1.13774 3.4988346
-1.752062 -1.059859 3.2267058
-1.3221174 -1.0528537 3.2732222
-1.3296611 -1.1951928 3.2864332
-1.8069462 -1.1395795 3.1893909
-1.6941193 -1.1805692 3.0984664
-1.3892819 -0.61760885 3.1407115
-1.394604 -1.1910188 3.4167657
-1.8108947 -0.60023713 3.3355758
-1.3877703 -0.61747086 3.1313882
-0.9206351 -1.2081555 3.4488568
-1.4726356 -0.69225675 3.4421568
-1.7492231 -1.1623477 3.099076
-1.4391813 -0.62803197 3.1392672
-1.0545542 -0.51664448 3.2743449
-0.91750771 -1.1456308 3.4800446
-1.4761617 -0.64414734 3.1739287
-0.94839746 -0.53957272 3.3530188
-1.7039018 -1.1586721 3.1030614
-1.5817434 -1.2080523 3.0933032
-1.465045 -0.61147785 3.1196513
-1.5198172 -1.1286539 3.215024
-1.5172879 -1.1365906 3.3556149
-1.9401705 -0.80567652 3.513479
-1.4510604 -0.614061 3.1284621
-1.7978866 -1.1350651 3.1781912
-1.3400552 -1.2581726 3.2873302
-1.3415771 -1.2420315 3.2933707
-0.94839388 -0.50881648 3.3385081
-1.4908574 -1.3030819 3.260067
-1.440093 -0.62952864 3.1402376
-1.6826487 -1.1011475 3.1234961
-1.8469998 -0.77184975 3.4504461
-1.4396708 -1.2225342 3.4274724
-0.94906211 -0.71013325 3.564888
-1.4652996 -0.64500552 3.1669178
-1.4202211 -0.64687407 3.1751242
-1.5954689 -1.0935618 3.217833
-1.6614596 -0.99166 3.2711329
-1.6600299 -0.99025983 3.2687783
-1.5031031 -1.146219 3.2034924
-1.3792958 -0.91728038 3.3182158
-1.7006048 -1.1547388 3.0996637
-1.5906332 -1.2304167 3.1399598
-1.6187929 -1.1533034 3.1194711
-1.6232796 -1.0814503 3.1842113
-1.4465115 -1.2319459 3.4803345
-1.5083205 -1.1737564 3.2332666
-1.918285 -1.2024305 3.3604283
-1.5765615 -1.0963789 3.1844804
-1.447523 -1.2655709 3.4367893
-1.5190582 -1.2309847 3.5440173
-2.0957248 -1.161873 3.5926909
-2.0910256 -1.1575103 3.5835934
-2.0690107 -1.1431348 3.5535879
-1.9681889 -1.1146348 3.4251847
-0.95434904 -1.1767401 3.6166825
-1.6837282 -1.1711128 3.082778
-1.4266976 -0.6478315 3.1996186
-0.93313944 -1.2917799 3.6226101
-1.8718228 -0.9024837 3.376615
-1.9637876 -0.93941957 3.4944415
-1.9587594 -0.93419975 3.4859955
-2.0559819 -0.98030645 3.6144924
-1.4243919 -0.63225734 3.1463027
-2.0104718 -0.77891958 3.6041667
-1.5220557 -1.2247533 3.4757497
-1.9132662 -1.1982222 3.354053
-1.4590409 -1.3061687 3.406796
-1.4406847 -1.22621 3.4479289
-1.4669327 -1.2353508 3.4710293
-1.4691042 -1.2395495 3.4796612
-1.5129994 -1.176862 3.473001
-1.4789971 -1.1939362 3.5490711
-1.9563764 -1.0775599 3.4560623
-1.9335588 -1.0673482 3.4147758
-1.4659908 -1.4596905 3.5009048
-1.2825338 -1.2666627 3.3460371
-0.95951867 -1.2535115 3.5967944
-1.9819216 -0.97538352 3.5326738
-1.5048629 -1.173458 3.2230053
-1.5106679 -1.2213609 3.524092
-1.5607669 -1.2785313 3.6088662
-1.9954778 -0.77832359 3.5814323
-2.0644329 -1.2949134 3.4962249
-3.0730689 -0.89739728 4.8699141
-1.4445043 -0.77752274 3.374964
-1.3845731 -0.92041922 3.3318532
-1.7749904 -1.0733825 3.2654629
-1.5556016 -1.1899556 3.0755084
-1.7016492 -1.114777 3.1519618
-1.3906001 -0.6242972 3.3040366
-0.94475383 -1.3197169 3.5144448
-1.6263191 -1.222931 3.0941541
-1.6186303 -1.0986971 3.2570417
-1.5392985 -1.1189712 3.2051182
-1.3862048 -1.1781919 3.3893077
-1.3507639 -1.1363052 3.3536496
-1.3619623 -0.63700324 3.340055
-1.3089988 -1.2711177 3.3185604
-1.9219872 -0.94181526 3.445276
-2.047132 -0.82590407 3.6836324
-1.9602364 -0.80939597 3.5369635
-1.9626119 -0.80484575 3.5503888
-2.0700727 -1.2958903 3.5093801
-1.3486958 -1.1930428 3.3659422
-1.346421 -1.1948949 3.3467515
-1.3198853 -1.1450965 3.3799448
-0.94910878 -0.71271342 3.5367143
-1.3666006 -0.62944877 3.4187596
-1.4601694 -1.2187363 3.2407386
-1.9041498 -0.67288727 3.4067731
-0.88967127 -0.57833195 3.4537828
-0.84159482 -0.68161023 3.6237955
-6.3110313 -4.6396165 8.3208208
-1.2932324 -1.2269289 3.5452185
-0.89713776 -1.3337784 3.5207875
-1.9992317 -0.82925904 3.5835667
-1.3514231 -1.2057701 3.3907781
-1.4222753 -0.92563796 3.3299344
