# .PCD v0.7 - Point Cloud Data file format
VERSION 0.7
FIELDS x y z
SIZE 4 4 4
TYPE F F F
COUNT 1 1 1
WIDTH 428
HEIGHT 1
VIEWPOINT 0 0 0 1 0 0 0
POINTS 428
DATA ascii
0.11173649 -0.23616107 2.7561073
0.20150349 -1.1188672 3.1401141
0.19808383 -1.1861463 3.1254625
0.19667576 0.44486278 2.8965664
0.097104244 -0.250651 2.7414224
0.3893854 -0.35748202 2.8402328
1.0108442 -0.6419099 2.5489221
0.80058265 -0.26614988 2.6248212
0.81876481 -0.52525091 2.5781572
0.82325959 -0.54178995 2.6679885
0.047215927 -0.40730968 3.0698731
-0.27601638 -0.36575913 3.0444679
0.74339277 0.66818798 2.4857624
-0.24819435 -0.57028759 3.3854604
-0.21598531 -0.85213691 3.2968371
0.98843014 -0.085466817 2.3645337
-0.24443647 -0.56688732 3.3879595
-0.55477065 -0.79004675 3.8421285
-0.58509696 -1.2139257 3.5431461
-0.31208378 -0.89502794 3.3893661
0.80213612 -0.27400163 2.6987484
0.39344504 -0.54083443 2.9890709
0.66481531 -0.14734662 2.3585188
0.78377044 -0.4426654 2.8169696
-0.25273207 -1.2065394 3.2985535
-0.15138307 -0.43812355 3.1382995
-0.6712873 -0.62500656 3.3493178
-0.35474169 -0.61678636 3.5206811
-0.22818778 -1.0979449 3.3606865
0.062843695 -0.24160804 2.7157757
0.7830292 -0.27915955 2.6609807
0.24388674 0.37882203 2.8067822
-0.61639833 -0.55801058 3.3469212
0.32330778 -0.40198469 3.0085027
0.83597583 -0.35968122 2.5683544
-0.33833528 -0.90276527 3.416321
0.14961715 -0.18750061 2.5472274
-0.25047728 -0.57499659 3.3880546
0.62893146 -0.077000059 2.414681
0.2033276 -0.3888135 3.0217962
0.82530588 -0.53673518 2.6744509
0.9044258 -0.37087837 2.4961905
-0.35026076 -0.90294313 3.4183204
0.80521911 -0.45745426 2.608866
0.79731727 -0.27491733 2.6189129
0.81305557 -0.28338921 2.7123051
0.72857726 -0.41893041 2.9039612
0.43930331 0.47219872 2.9028115
-0.064437211 -0.43315923 3.1135945
0.42356852 -0.44023392 2.9998167
0.29228991 -0.42398611 3.0295959
0.81096107 -0.61910403 2.6489022
-0.35749957 -0.62037879 3.5185125
0.73092586 -0.55188507 2.8225443
0.81735265 -0.53565937 2.6809583
0.63564515 -0.085829347 2.4196904
0.63167202 -0.09951596 2.4224398
0.78708321 -0.28974944 2.6047924
0.26634157 0.38017139 2.7837465
0.32512388 -0.42428902 3.0351384
0.017623302 -0.3978743 3.0282924
0.39557171 -0.39969593 2.9862866
0.37920314 -0.36307597 2.8440769
-0.62015587 -1.3841877 3.5676286
-0.28143737 -0.38212636 3.0784752
-0.57491791 -1.1560507 3.6301484
-0.27817854 -0.8786813 3.3584604
-0.57935148 -1.1575592 3.6291373
0.19711484 -0.26042879 2.7309597
0.22350426 -0.31315264 2.7561643
-0.2264868 -0.58957309 3.3668985
0.1197724 -0.26662976 2.7222061
-0.61096901 -1.2599397 3.5025043
0.37469992 -0.35591218 2.8389924
0.29538131 -0.3324661 2.9911466
-0.52730507 -0.54333597 4.2568636
1.0885214 -0.60133708 2.4263477
-0.59901696 -0.66593909 3.3262584
0.81101394 -0.40070009 2.658181
0.77085197 -0.41695791 2.8098097
0.95515686 -0.58475888 2.7186584
-0.67859656 -0.59658605 3.4347038
0.22136939 -0.27820605 2.6960337
-0.60604149 -1.2747154 3.4817436
-0.26956004 -0.57543182 3.4098551
0.62900877 -0.22673292 2.5965247
0.24565095 0.46975061 2.796366
-0.5965175 -1.4125993 3.5069242
-0.59662896 -1.2151395 3.573041
-0.59932095 -0.68087292 3.356885
0.79294497 -0.34631136 2.8116319
0.43887702 -0.48192576 2.9581277
-0.25460061 -0.45861262 3.1984935
-0.39857993 -1.3703793 3.9089067
0.11571091 -0.26798177 2.7232831
0.13436721 -0.30152386 2.8235166
-0.67823279 -0.66413635 3.4205496
0.12326176 -1.0004212 3.1088898
0.18025251 -0.33269027 2.8861103
-0.53371757 -0.86388278 4.0449886
-0.40334353 -0.75560665 4.2704811
0.23197199 -0.32865617 2.8117273
-0.64718014 -0.61558568 3.4637129
-0.63318092 -1.3135259 3.5454447
0.25733143 -0.34421596 2.8344948
0.99901044 -0.62296516 2.6210909
0.021810856 -0.26779541 2.8049295
-0.62444305 -0.6316551 3.4893591
0.1325838 -0.30054331 2.7844918
0.10846988 -0.30369869 2.7988396
0.21925655 -0.97539949 3.240191
-0.55780876 -0.97772646 3.7308934
-0.39898917 -1.2602342 3.9745264
0.14685269 -1.1859241 2.9967623
0.1357099 -1.1543726 3.0205894
-0.62785459 -1.3067334 3.5187171
-0.55035603 -0.80069792 4.0872049
-0.4341417 -1.07888 4.2115793
-0.52028531 -0.64819592 4.1870584
0.14180733 -1.0290134 3.0797799
0.15392922 -1.0309794 3.1065152
-0.40551913 -1.0183003 4.1133718
-0.59264261 -1.3710328 3.4576516
0.12954 -0.30971083 2.8328731
0.072468929 -0.46703157 3.1921089
-0.62282282 -1.3324984 3.4862499
0.60504699 -0.10687902 2.4456825
-0.63567841 -0.68475485 3.4577603
-0.59109294 -0.66644633 3.3322437
-0.59519947 -1.2811912 3.4799018
-0.52445567 -0.9085502 4.0303216
-0.38412568 -0.76157117 3.4975207
0.20582245 -1.239484 3.083612
0.31407869 -0.28675884 2.7956896
-0.42037308 -0.8497293 4.3383045
-0.55048037 -0.78944182 3.8439128
-0.56280595 -0.98559797 3.7277634
-0.63264716 -1.3307784 3.4825616
-0.24128374 -0.44548479 3.1139359
-0.38738483 -0.7077198 3.6565175
-0.68026173 -0.64099139 3.4112225
-0.14235859 -0.47236064 3.2190843
-0.22940335 -1.203135 3.3178935
-0.39503434 -0.74576569 4.285821
-0.63751173 -0.68241978 3.3676424
-0.60926741 -1.2648227 3.6368115
0.23250063 -0.32402721 2.7973652
-0.54627913 -0.78497368 3.8451593
0.20803602 -0.39075994 3.0186117
-0.58641434 -1.1646568 3.6447313
0.3226254 -0.40575138 3.0021057
0.14086923 0.3839041 2.9122097
-0.67783272 -0.59016097 3.4344585
-0.57597679 -1.2312542 3.550739
-0.58887666 -0.66438013 3.3254285
-0.52887404 -1.2390449 3.4218132
-0.63124686 -1.3311058 3.5115829
-0.39604405 -1.3701782 3.9091964
-0.23010449 -1.0369984 3.3766656
-0.4105351 -0.86347586 3.9615014
-0.38560498 -0.60509199 4.3727927
-0.57926881 -1.2700758 3.4380715
0.0035174114 -0.42134339 3.1059163
-0.53513038 -0.85836208 3.8930831
-0.61346936 -1.4078199 3.5731337
-0.25207797 -1.167071 3.3449845
-0.64434177 -0.66789722 3.4388354
-0.58647972 -1.2089192 3.5319986
0.64448261 -0.17339525 2.3989034
0.81273699 -0.45069274 2.6115184
0.36959589 0.42617407 2.9130783
-0.60267222 -0.61963367 3.4945283
-0.59810883 -0.70621121 3.4053321
0.7538417 -0.21876934 2.6337702
-0.59905517 -1.2228409 3.5928445
0.15034892 -1.0313739 3.1007228
0.098937131 -0.86507261 3.0053957
-0.11548488 -0.43127474 3.1265655
0.05414445 -0.24899961 2.7095256
0.086855516 -0.29196876 2.8142085
0.089356937 -0.28807214 2.8471873
-0.57416523 -1.1055776 3.65923
-0.094427526 -0.51511812 3.2897463
-0.34517226 -0.68596309 3.6192884
-0.047132257 -0.46320903 3.2043097
-0.62965131 -1.3544239 3.5361905
0.049798552 -0.23672962 2.7783127
-0.63090783 -1.3310056 3.5121284
-0.60231006 -1.2376684 3.6202328
0.18198119 -0.35466617 2.9342787
0.24380951 -0.26033288 2.681556
-0.38118443 -0.81130511 3.4929292
-0.71567911 -0.78088629 3.8821485
-0.15173544 -0.49401185 3.1693966
0.10100759 -0.13944362 2.6920304
-0.63080937 -1.3677032 3.5581398
-0.61054337 -1.2728961 3.6025841
0.24472143 -0.26220334 2.6836801
-0.5704422 -0.58537191 3.3067529
0.63650095 -0.14274402 2.3441551
-0.63428438 -0.6206038 3.4843881
1.2331052 -0.54629564 2.3731956
-0.64188576 -0.68364227 3.3635757
0.19458328 -1.1858287 3.1032212
-0.13526061 -0.46771002 3.166574
-0.52735859 -1.1553493 3.5295618
-0.60582089 -0.67241311 3.3243711
0.16663793 -0.96559584 3.215414
0.13675913 -0.52845091 3.1433935
-0.52807653 -0.8844856 4.0260291
-0.60817194 -0.61309052 3.3140612
-0.71735573 -0.78971505 3.8803883
-0.61389309 -1.4070443 3.5854678
-0.66676211 -0.60020423 3.4393542
-0.21482116 -1.0834839 3.3722665
-0.61766565 -1.3923852 3.573971
-0.52657932 -0.90927368 4.038537
0.42708808 0.45665121 2.9141364
-0.65854865 -0.79822463 3.8782842
-0.63658315 -1.2996722 3.5957689
-0.63242471 -1.2912079 3.587918
-0.62116784 -1.3856871 3.5681608
0.13235481 -1.0369445 3.1064634
-0.3966752 -1.2574965 3.9764476
-0.083250619 -0.44970575 3.123024
-0.27629358 -1.2930411 3.8083174
-0.50656277 -0.75878787 3.7682588
-0.41152507 -0.86931551 4.1673512
-0.63074923 -0.61469507 3.4033971
-0.1879703 -1.046316 3.4422705
-0.61447328 -1.4020525 3.5570064
-0.62688226 -1.2812431 3.5534801
-0.53979087 -1.1687803 3.8816454
-0.57803619 -1.1656713 3.6507764
-0.53579539 -0.86260176 4.0422897
-0.21805815 -1.1958097 3.3037021
-0.57919985 -1.4542301 3.6427288
-0.62845391 -1.3535732 3.5343745
-0.65754431 -0.66125488 3.4326763
-0.58495486 -0.58103883 3.3188584
-0.53037369 -1.0574737 3.9514251
-0.35437691 -0.60818422 3.475033
-0.53492385 -1.3717725 3.4592266
-0.38712141 -0.64189363 3.4658203
-0.62255508 -1.3278103 3.5091217
-0.53252852 -1.0530382 3.9507298
-0.39247164 -1.3560493 3.8818595
0.054202933 -0.25196218 2.7127354
0.12924977 -0.36240107 2.7770629
-0.0024506988 0.31500632 3.2020295
0.013404526 0.32063293 3.1970766
-0.77211517 -0.58743382 3.4985065
-0.58988851 -1.4361348 3.5579202
0.63208354 -0.14651486 2.3562217
-0.50215518 -1.0584174 3.6000645
-0.54288405 -1.1800919 3.5071516
-0.12009239 0.25860497 3.0690989
-0.59212852 -1.2148964 3.5392363
-0.55938601 -1.4725779 3.6200578
-0.44215322 -1.3120348 3.7746887
-0.39268273 -0.54775584 3.2404156
-0.1815251 -0.42952555 3.160188
0.13408954 -0.8871538 3.1184065
0.19413732 -1.1170548 3.1478913
-0.076930679 -0.50828052 3.2883554
-0.66466355 -0.59743941 3.4378223
0.042938419 -0.42039841 3.1442294
0.15664488 -0.38538852 3.187355
0.0080754012 -0.420488 3.1057894
0.018960109 -0.46431905 3.1589198
0.092162557 -0.29589891 2.8415759
0.14596073 -0.23221044 2.7643247
0.19744475 -0.33669084 2.8734286
0.20306347 -1.0893101 3.0141125
0.020710316 0.35497308 3.3477619
0.2378305 -0.32319796 2.7969556
0.43098873 -0.25580767 2.8275671
0.14807598 0.039467447 2.7772644
0.60722077 -0.15839328 2.3616056
0.67780352 -0.69457406 2.7689552
-0.66841537 -0.64654267 3.4094918
0.85659331 -0.61738735 2.5114949
0.398653 0.42199531 2.8225965
0.54714 0.38342956 2.6891291
-0.56466669 -1.3150033 3.7014823
-0.3738597 -0.80856729 3.4939167
-0.40980786 -0.83507365 4.3331337
-0.19382665 -1.128347 3.3423216
-0.45410153 -0.40164196 3.2145112
-0.5957312 -1.4571917 3.5958681
-0.37644404 -0.635369 3.5446708
-0.5762158 -1.4534122 3.6427968
-0.34328783 -0.69091475 3.5861106
-0.52974355 -0.86801547 4.0419354
-0.61922008 -1.271069 3.5783994
-0.39324683 -1.1115923 4.0671868
-0.58746582 -1.1854435 3.5715971
-0.31810793 -1.0479822 3.4111371
-0.39619008 -1.0063643 4.1271119
-0.50181657 -0.63085294 3.3857996
-0.63429308 -0.79524827 3.9568288
-0.23130949 -0.4470427 3.1978269
-0.56579804 -1.2171006 3.4993753
-0.67968816 -1.3482592 3.5487919
-0.10721213 -0.49743795 3.2999918
0.13569713 -1.1343079 3.1963887
-0.55684423 -1.3976412 3.7093318
-0.64893526 -0.63647437 3.4093189
0.20002361 -0.39076775 3.0224378
0.22394101 -0.3123619 2.7600141
0.84609884 -0.59582871 2.441483
0.96986687 -0.58640856 2.4772778
-0.51782268 -0.64649892 4.1860189
-0.61486274 -1.4028057 3.5574126
-0.60911465 -1.2757671 3.483839
-0.20099935 -0.40045139 3.1610248
-0.21343768 -0.28447917 2.9843218
0.1373179 -1.0077795 3.084511
-0.12966079 -0.49440178 3.3050883
0.14497839 -1.0066289 3.0769835
0.16945438 -0.94471323 3.1351013
0.093729414 -1.0009891 3.1647425
0.050656565 -0.29653373 2.7903156
-0.57162231 -0.6644429 3.3566351
-0.6253888 -1.291101 3.4976759
0.1089648 -0.33943507 2.8519943
0.15261167 -1.1541151 3.0162065
0.12945406 -1.1132162 3.039583
-0.5805757 -1.2517358 3.6578076
-0.10714797 0.22367488 3.2130275
0.34590024 -0.19317439 2.6338243
-0.56197685 -1.2991278 3.4176979
0.47867584 0.44558108 2.9024069
0.35995862 0.27713445 2.7528486
0.35351676 0.25249949 2.7587693
-0.40838721 -0.80736846 4.3676677
-0.18470462 -1.0107185 3.4113948
-0.11022533 0.21389619 3.2017133
0.37755319 -0.36465612 2.844471
0.41233161 -0.23061328 2.6277664
0.56314462 -0.14784051 2.5698869
1.0143518 0.009023943 2.2505045
-0.43096715 -1.1809729 4.1503849
0.87759191 -0.60510433 2.6657791
0.81382269 -0.27676746 2.6067326
-0.55288756 -1.1001524 3.6657448
0.275895 0.34771103 2.8679421
-0.18119635 -1.0471822 3.4493952
-0.61878896 -0.81274396 3.969866
-0.31980851 -0.3325932 3.1065753
-0.57923996 -1.2258142 3.6520452
-0.31521922 -0.40614992 3.1463363
-0.421049 -0.49963737 3.2218697
-0.43197298 -0.51452267 3.227819
-0.6838094 -0.55122221 3.438277
0.13117981 -0.93856531 3.1501827
0.11329196 -0.92762703 3.0971549
0.15352467 -0.91141719 3.0782692
-0.21691801 -0.45574313 3.1643472
0.10737814 -0.34611034 2.8097403
0.1955397 -0.29799512 2.7039013
0.19539708 -1.101137 3.0210712
-0.40982118 -1.1437497 4.0505285
0.15771304 -0.90504688 3.1429303
0.03086425 -0.52388239 3.1861651
-0.64459747 -0.61853838 3.4670677
-0.18040679 -1.035982 4.5676804
-0.63057697 -0.62386173 3.4809775
-0.60146874 -1.3864515 3.6826019
0.56465405 -0.93170804 3.9462616
1.7184162 -0.39459345 2.9507489
1.0098251 0.44934747 2.666523
1.533591 -0.36714977 2.8616517
0.82435918 -0.33350581 2.613833
-0.35958797 -0.61596787 3.4722877
-0.151061 -0.40259022 3.115602
0.81222689 -0.24163017 2.6757643
-0.3686651 -0.88664788 3.469969
-0.60208762 -1.2128146 3.5624051
0.12722209 -0.47273049 3.160737
0.12011535 0.19530794 2.6221268
4.0113511 0.6048032 0.72369736
4.4563007 0.58610225 0.58039445
4.2165794 0.92769158 0.85076505
4.476213 0.4387334 0.4779838
3.5428405 1.0536205 0.88082486
3.6706455 1.0033425 1.0228729
0.14177844 0.22010098 2.6098084
4.1084476 0.70186442 0.79950708
4.2298236 0.73336285 0.72034031
4.0228176 0.99028921 0.92428666
3.7759709 0.88831484 0.95370412
3.6376452 0.49598727 0.53937006
3.6880476 0.31415433 0.62152523
3.6240027 0.98749119 0.86067158
3.6240027 0.98749119 0.86067158
3.0364347 0.74113345 1.2072586
3.8190358 0.93598676 0.93229312
3.2566547 0.73982298 1.19186
3.9528062 1.0140288 0.91331244
-0.60310668 -1.2778819 3.6481299
4.0269127 0.33192438 0.55464488
-0.53812408 -1.1072809 3.9219615
3.6334302 0.4755525 0.63866991
-0.62895417 -1.3415043 3.6002555
3.5392513 0.54038674 0.45789257
-0.59123415 -1.4184226 3.6405206
3.5588605 1.1158997 0.56980985
3.7223134 0.48606491 0.69857341
5.5202746 1.2504882 0.35047096
3.699152 1.2662445 0.59364289
4.6292629 0.93360519 0.69262379
0.16620456 0.11339064 2.9594529
3.5829623 0.70550466 0.626477
3.5087724 1.1503004 0.69255918
3.7469175 0.49637163 0.64614421
4.0228524 0.53518063 0.51766688
0.68652093 -0.91818452 2.9552946
4.4541793 0.75709188 0.68493986
0.42006469 0.34008786 2.756026
3.3913856 0.97466153 0.82520962
3.5649815 1.1275859 0.55436659
3.3672028 0.94066268 0.92531919
-0.34652221 -0.70232886 3.5360587
0.19316164 -0.27995849 2.7794414
3.6621256 0.56608415 0.77245808
-0.200904 -0.41049621 3.114445
-0.51581395 -1.2004907 3.6722796
