# .PCD v0.7 - Point Cloud Data file format
VERSION 0.7
FIELDS x y z
SIZE 4 4 4
TYPE F F F
COUNT 1 1 1
WIDTH 210
HEIGHT 1
VIEWPOINT 0 0 0 1 0 0 0
POINTS 210
DATA ascii
0.21049418 -0.15129662 2.7305236
0.51990086 -0.31438598 3.0146313
0.9680081 -0.32437965 2.6572175
0.32342622 -0.26224419 2.9423766
0.98528886 -0.39823523 2.625005
0.0094792806 -0.44329053 3.2591298
-0.2186857 -0.39578173 3.186867
-0.44336036 -0.7750079 3.7927947
-0.074845389 -0.79834294 3.2637672
0.37380129 -0.22815119 2.80795
0.95246655 -0.15178172 2.7562196
0.26771763 -0.19962363 2.7809784
-0.1726353 -0.84885609 3.3490198
0.098688401 0.46306336 3.0888989
-0.5395208 -0.59043407 3.3030658
-0.14102872 -0.30572045 3.0338192
-0.088743001 -0.80193418 3.2664814
-0.21235327 -0.39814028 3.1872661
-0.0062637799 -1.0431149 3.2714422
0.80425918 0.037690222 2.4906921
0.95132971 -0.15306151 2.6735961
0.95239615 -0.16547416 2.76724
1.0011926 -0.41090286 2.7262661
0.39043283 0.48610127 2.848551
0.77256131 -0.47803953 2.8938053
0.36804277 -1.1071267 3.1020849
1.2655789 -0.45534199 2.4839125
-0.068499506 -1.0795561 3.2952027
-0.37073502 -0.75869954 3.708581
-0.44841477 -1.1861466 3.4706979
0.21310958 -0.15147966 2.7363539
0.34406337 0.55318058 2.8594859
0.78562123 -0.05968076 2.4581218
0.98345542 -0.41854176 2.7105086
0.17899935 -0.33437705 3.0726061
-0.17500137 -0.85113794 3.3468201
-0.49831599 -0.64774197 3.413547
-0.46002504 -1.2319194 3.4294546
0.32193032 -0.24514125 2.9023364
0.33440644 -0.26604241 2.9490192
-0.50448132 -0.60126925 3.4407859
-0.46041343 -0.62796062 3.2799189
-0.46984091 -1.3590244 3.4855003
-0.44211477 -1.1801987 3.4615986
-0.21019967 -0.92001778 3.9984887
-0.44112545 -0.9608286 3.6736686
-0.42315161 -1.1666232 3.4059348
-0.12229537 -0.28554562 3.0272813
-0.36059713 -0.82405442 3.8756487
-0.45429909 -0.78948021 3.7910674
0.28351247 -0.97321671 3.0573304
-0.45443371 -0.62222004 3.2802112
0.26520035 -0.85625678 3.1322875
-0.44236699 -1.1390442 3.5767882
0.17542306 -0.09807016 2.7254117
-0.43284908 -0.86173272 3.9883838
-0.20130451 -0.85252476 3.3463116
0.53953838 -0.25678244 2.8657527
0.4729706 0.52017719 2.9743273
0.8058058 0.043453407 2.4667602
-0.41841456 -0.65069789 3.3275299
-0.55367327 -0.79088396 3.8201504
4.7931199 1.414794 1.2326312
0.15544829 -0.30547649 3.0297968
-0.068863027 -1.0028385 3.4000216
-0.41983399 -0.65187967 3.3278046
-0.26110372 -0.59401613 3.4903209
-0.14402005 -0.52758557 3.3871834
-0.13278747 -0.33394432 3.1069131
-0.3697021 -1.0321378 3.5432408
-0.054340042 -1.0016873 3.4019785
-0.42946056 -0.65745604 3.326582
-0.047152556 -0.99978095 3.4034679
-0.3119916 -0.62606913 3.4427035
-0.50338876 -0.60368556 3.4419224
-0.4169032 -1.0398315 3.8741808
-0.34085494 -1.2034475 3.6764033
0.24209137 -0.15396066 2.7527783
-0.41484991 -1.1530688 3.8161919
-0.46405521 -1.2304294 3.4278102
0.11126269 0.38690466 3.230782
0.72345698 -0.059464235 2.4306273
1.1123531 -0.37458146 2.5127578
0.51770324 0.55157012 2.9728882
0.39915586 0.44736478 2.9175863
0.48920301 0.51471376 2.8984103
-0.5124824 -0.61622357 3.4380021
0.7273944 0.53388786 2.9583528
0.24846615 -0.75954866 2.9812629
0.31720594 -0.86960644 3.1213381
0.38246015 -0.99136931 3.1786747
-0.020743517 -1.2287633 3.2508914
0.47360188 0.52265459 2.971765
0.79832685 -0.084282123 2.5048459
-0.46916926 -1.3189706 3.4201491
1.3801881 -0.40708876 2.4527316
-0.28052735 -0.60135329 3.4921288
-0.63042331 -0.78761172 3.8048253
-0.083980076 -0.80544221 3.2630103
-0.17884119 -0.37140962 3.1626654
-0.17441711 -0.84684312 3.3491526
-0.31253251 -0.88569611 3.9152172
-0.29997778 -0.85486102 4.1750145
-0.084135473 -1.050429 3.3119471
-0.30838874 -0.73724437 4.251832
0.39354917 -0.89443338 3.2297275
-0.55210739 -0.6200456 3.3585007
0.33614516 -0.2077533 2.7255123
0.46399245 0.018912477 2.5080621
-0.31177574 -0.74131006 4.2486267
-0.36150286 -0.7549895 3.7133276
-0.44263509 -1.082921 3.5945826
0.24609813 -0.15291381 2.7539208
-0.49631327 -0.60027462 3.4434752
0.23301198 -0.40478757 3.1765649
-0.37556547 -1.033541 3.5405869
-0.18065971 -0.90990353 4.0195937
-0.41098318 -1.2672255 3.3463666
1.0327073 -0.10563546 2.5866072
1.0702441 -0.53387994 2.5588572
-0.48116624 -1.278394 3.4403329
-0.27048728 -0.85927045 3.9466734
-0.39331549 -1.1224208 3.4351876
0.44212401 0.2258364 2.551666
-0.48380005 -1.2785945 3.440479
0.40216908 0.44393551 2.9169638
-0.49650872 -0.2089496 3.0257912
1.1510761 0.059745733 2.4406466
3.7074745 0.69553959 1.0675995
0.067895956 -0.43542284 3.2780089
0.27159768 -0.21407829 2.836206
0.40146744 -0.95480466 3.0909479
-0.41811383 -0.59993196 3.2841971
-0.44505632 -1.180045 3.4605305
0.43785533 -0.34381086 3.0602016
0.46589231 0.0052035614 2.5010788
0.30588487 0.46989 2.9953201
0.41271192 0.45052707 2.9138458
-0.40527087 -1.1401281 3.4678662
0.49217299 0.50687885 2.9041967
-0.41781583 -0.8985725 3.9741397
0.29639089 -0.9694885 3.0930283
0.31108111 -0.27310386 2.9484658
0.37931421 -0.24101599 2.8351693
-0.45567805 -1.3460457 3.4888988
-0.10536182 -0.39772847 3.1475418
-0.23220888 -0.58219433 3.4877257
-0.37627774 -1.0325954 3.5392513
0.01619707 -0.44666162 3.2575746
-0.51153946 -1.2777039 3.5124867
0.28503239 -0.96302849 3.0846562
0.21428768 -0.42106324 3.1734512
0.3152715 -0.22177599 2.8724418
0.34317023 -0.24465424 2.8201752
-0.062475115 0.25181982 3.086096
-0.30296507 -0.8567701 4.1753755
0.37361982 -0.23426345 2.8186743
0.48395947 -0.25697592 2.8548927
-0.49613327 -1.2678298 3.5069487
0.7349605 -0.44483295 2.8955157
0.68501157 -0.14241828 2.695756
1.0180966 -0.4058865 2.5340142
0.4824155 0.51284564 2.9747519
0.5627169 0.58257115 2.9766936
-0.42632857 -0.9042154 3.9847004
1.0637182 -0.44997171 2.68648
0.6872285 -0.34670299 2.977001
0.96067363 -0.42136705 2.5583427
-0.42638078 -0.90246403 3.9854071
0.39517096 -0.94844544 3.0448234
0.1668044 -0.30324316 3.0304317
0.18752758 -0.20267117 2.7867317
-0.22919407 -1.0323828 3.3748984
-0.47903773 -1.3668054 3.488306
-0.39123985 -1.2834449 3.7270792
-0.059926301 -1.1438965 3.258189
-0.52285957 -0.63771743 3.3885972
-0.48544058 -1.2491059 3.5012519
0.24060312 -0.1581447 2.7580884
0.72914314 -0.57786101 3.4370866
1.3387367 -0.43124583 2.632797
0.96766853 0.07601922 2.4416993
0.53017294 -0.29682463 3.0086279
-0.24938102 -0.57781172 3.4575162
-0.09880206 -0.42485139 3.2283454
0.25646576 0.29133341 2.6617918
0.3608464 -0.99512917 3.1774824
1.3244174 -0.43448177 2.4681933
4.95051 1.3415958 1.0242194
4.7555294 0.99881119 0.86554742
-0.44794059 -0.77497381 3.7929914
4.821486 1.4379576 1.036222
3.5834067 1.180681 1.2581304
3.8886926 1.2992164 1.2993443
0.53649247 0.057512775 2.4753807
-0.45542809 -0.63805401 3.3108203
1.181941 -0.5057866 2.6021922
3.6746783 0.69360572 1.092755
3.7989151 0.90795416 0.80161732
0.35116294 0.55112535 2.8579855
3.8168762 1.0193267 0.88521314
3.9351671 0.86364734 0.99480581
3.4759333 0.73634118 1.2159023
3.3362107 0.99887758 1.4937383
3.1744323 1.1914158 1.2264725
3.8252215 0.87152761 1.0872945
3.7838874 1.4604465 0.84983385
3.8701215 1.3192323 1.3147267
0.78289557 0.015362252 2.3968899
3.6486516 0.96213788 0.97371596
