# .PCD v0.7 - Point Cloud Data file format
VERSION 0.7
FIELDS x y z
SIZE 4 4 4
TYPE F F F
COUNT 1 1 1
WIDTH 172
HEIGHT 1
VIEWPOINT 0 0 0 1 0 0 0
POINTS 172
DATA ascii
-1.1208018 -0.52867514 3.2352433
-0.87198704 -0.462881 3.1704984
-0.9835248 -0.38034961 3.0895827
-1.7166593 -0.38174251 3.2443449
-0.60579675 -0.84580839 3.5067182
-1.0787275 -1.2297517 3.290216
-0.78335124 -0.65811682 3.3980017
-0.68945712 -0.79405695 3.5684617
-1.3121201 -0.43568665 3.2289627
-0.79224515 -0.39667696 3.0629213
-1.5599649 -0.86281496 2.9725642
-1.2133936 -0.74731618 3.1156452
-1.5829073 -0.95013696 3.1853192
-1.3773991 -0.69148207 3.0885398
-1.9354883 -0.68459672 3.1829593
-0.79575962 -0.5489918 3.2715476
-0.60062826 -0.95036858 3.4122069
-0.86930978 -0.40477449 3.0966284
-1.7605968 -0.72034967 2.997983
-0.56472379 -0.76067716 3.4710293
-0.69136852 -0.59673262 3.2964706
-0.78400606 -0.77566838 3.3503547
-1.7146195 -0.38155049 3.2497413
-0.66088873 -0.56703383 3.2556698
-0.56204098 -0.76306611 3.4788229
-0.52125698 -0.81406194 3.5076463
-0.79750073 -0.63211292 3.3934336
-0.92883641 -0.44568107 3.1628997
-0.66457987 -0.5672521 3.246629
-0.85005176 -0.52056825 3.2416012
-1.1620227 -0.47199205 3.2485712
-1.1395285 -0.48810846 3.2647686
-0.56296551 -0.75576627 3.4618559
-1.3107961 -0.31423214 2.9004829
-0.9746961 -0.46235329 3.1902554
-0.98292762 -0.37836972 3.083128
-0.87106317 -0.40386903 3.0944591
-0.98408151 -0.37952361 3.0922477
-0.89856565 -0.3822839 3.112987
-1.6076764 -0.7925086 2.9670241
-0.91732168 -0.50280285 3.2557609
-1.4028821 -0.83709633 3.0641391
-1.4045824 -0.84119111 3.0689828
-0.66019976 -0.58013409 3.2222176
-0.74269485 -0.58151162 3.3076131
-0.96665055 -0.55651218 3.3096337
-0.62525851 -0.62638485 3.3313494
-0.87147975 -0.46317813 3.1736751
-1.2586049 -0.27638164 2.9611783
-1.293117 -0.38697863 2.9241049
-1.7199051 -0.76885492 2.8870096
-0.95682657 -1.0442524 3.3022089
-1.5996265 -0.78801918 2.9526424
-0.92639589 -1.0878469 3.2854486
-1.2973328 -0.31319904 2.8491094
-1.6645522 -0.68814135 3.05791
-1.3902719 -0.46439767 3.2239103
-1.2423327 -0.44707584 3.2110279
-1.7657226 -0.72032028 2.994719
-0.86644047 -0.4071537 3.0981843
-1.3654729 -0.39682412 2.9416642
-0.53391981 -0.74929953 3.4444103
-0.51844913 -0.8073467 3.511687
-0.69284147 -0.78314525 3.517833
-1.7493407 -0.71626502 2.9892244
-0.77093214 -1.045242 3.4920714
-1.5772939 -1.0292912 2.9950678
-1.5640621 -1.0191092 2.9756663
-1.6485839 -0.68261719 3.0309532
-1.3594786 -0.69849098 3.0833724
-1.7327175 -0.81399274 2.8494005
-1.4304142 -1.0497831 3.0582066
-0.92440599 -0.56732678 3.3911936
-1.3442407 -0.27589372 2.8929775
-0.97900492 -0.40627879 3.1103547
-1.576825 -1.1816481 3.1398773
-1.9443018 -0.68977767 3.1885972
-1.2588652 -1.11525 3.3877563
-1.7377993 -0.77786928 2.9180229
-1.5869768 -0.93821472 3.2698617
-1.9610395 -0.81959617 3.1060326
-1.9675473 -0.82061052 3.1151395
-1.7419686 0.1660023 3.6360903
-1.7743726 0.18405029 3.6893909
-1.7352936 0.15295514 3.6097343
-1.0720388 -1.3663421 3.1953347
-0.72561079 -0.85601091 3.4362993
-1.4948208 -1.001215 3.0753884
-1.0854092 -1.32608 3.272028
-1.7894696 0.1825368 3.7099016
-1.6496571 -0.83301413 2.8957353
-0.83995259 -0.52924716 3.3082492
-1.3831693 -1.0223289 3.012563
-1.4024682 -0.090115517 2.8143244
-1.3656316 -0.70105654 3.0967605
-1.7826508 -0.72825152 3.0220172
-1.4378157 -1.182667 3.1126854
-1.396194 -0.91848838 3.1005378
-0.947846 -0.46248952 3.1834004
-0.93562669 -0.53925467 3.2843668
-1.5524775 -0.93051815 3.0210931
-1.3892264 -1.1068811 2.9986434
-1.5294307 -1.1211147 3.0738561
-1.3878444 -1.1094648 3.0472903
-1.5319942 -1.1310905 3.0881245
-1.5929103 -1.19455 3.1966007
-1.5521721 -1.1591643 3.1919491
-1.8872013 -0.44475147 3.3159804
-1.2866107 -0.38818163 2.9181056
-1.3130033 -0.54543829 3.1627655
-1.5775721 -0.87532157 3.1358078
-1.4676467 -0.13644233 2.9758911
-1.1837311 -1.0342505 3.3814054
-1.5426446 -1.1326582 3.0622139
-1.2898405 -0.38645726 2.9151225
-1.3826644 -0.46095109 3.2182946
-1.2193785 -0.56275654 3.2351446
-0.97772026 -1.1677952 3.2289987
-0.99132639 -1.2343103 3.1557078
-1.0241227 -1.3160297 3.2058063
-1.0178457 -1.3015997 3.1781974
-1.6377589 -0.67815769 3.019953
-1.0807416 -1.2758254 3.3076251
-1.7921016 -0.32032108 3.1968043
-1.5769273 -1.1686585 3.1516609
-1.3677286 -1.0251642 3.2658362
-1.9414203 -0.59669077 3.2686179
-1.5641333 -0.92490888 3.1441743
-0.96678305 -1.3241873 3.1294503
-0.63656515 -0.87733394 3.5314717
-0.97970402 -1.374629 3.1986394
-0.97120124 -1.3067663 3.106657
-0.98126751 -1.3353269 3.1477757
-1.0072277 -1.3516271 3.1658721
-1.0822262 -1.4110538 3.2531347
-0.71964413 -1.0731288 3.3710587
-1.6501312 -0.84529543 2.8850141
-2.0180173 0.08764787 3.6498399
-1.3307285 -0.041920662 3.628268
-1.8415465 0.15020248 3.7414057
-1.8425441 0.14751843 3.7424526
-0.76900214 -0.69031888 3.3929484
-0.81558037 -0.86706674 3.2043307
-1.7442738 -0.76939464 2.9149609
-1.323296 -0.63713998 3.1224554
-1.3985118 -1.0073011 3.0646124
-1.3914627 -0.9905082 3.0802648
-1.2415547 -0.43931526 3.1982279
-1.3039067 -0.42753249 3.230757
-0.87409669 -1.0211219 3.1737399
-1.7138548 -0.38569981 3.25769
-1.9130255 -0.67682898 3.1641431
-0.5748353 -0.992024 3.5433049
-1.0683178 -1.1360281 3.3548884
-1.3048378 -1.091331 3.3579419
-0.94311988 -1.0885801 3.232286
-0.78091872 -0.65452981 3.4017713
-7.3346214 -2.1392434 8.2444963
-1.2860551 -0.8874833 3.1134572
-1.5317261 -1.0175419 3.1732252
-1.9309362 -0.45614871 3.3611956
-8.6396017 -2.1423805 8.3990278
-8.9431562 -2.1968222 7.9981332
-8.2552395 -2.0456209 8.0878792
-7.80933 -1.9500937 7.7369008
-1.9648236 -0.69141412 3.2171333
-8.2587032 -2.1297858 7.9086647
-7.8586049 -1.958813 7.7755113
-1.3420227 -0.25380224 2.9179683
-1.0646012 -0.56580061 3.3398163
-0.88431633 -0.39217687 3.081624
-2.5170906 -5.0734262 7.7028804
