# .PCD v0.7 - Point Cloud Data file format
VERSION 0.7
FIELDS x y z
SIZE 4 4 4
TYPE F F F
COUNT 1 1 1
WIDTH 161
HEIGHT 1
VIEWPOINT 0 0 0 1 0 0 0
POINTS 161
DATA ascii
0.41571146 -0.54800594 2.8161936
-0.36066693 -1.4308666 2.9346299
-0.39589995 -1.4579936 2.9048972
0.36442572 -0.77839869 3.1198111
0.084932916 -1.4966056 2.9040549
0.08626505 -1.4999926 2.9114401
0.36714256 -1.0043286 3.1106403
0.43588239 -0.82172817 3.173569
-0.56158984 -0.71385634 2.8114967
0.97321582 -1.0101998 3.1072686
-0.29098564 -0.78852266 3.0735803
0.34511662 -0.69512248 3.024323
0.98002714 -1.0847577 3.0728354
-0.42097577 -1.2859299 2.9267483
-0.099541038 -0.63964427 2.9658129
-0.24720322 -0.60034752 2.9163041
-0.48793969 -1.0336773 2.9760137
-0.3491742 -1.2842046 2.9900975
0.47028264 -0.68395883 2.9469969
1.0608108 -0.70846975 2.9559343
0.96273476 -0.84594274 3.2201524
0.76791888 -1.0751617 3.2034786
0.41461283 -0.61526835 2.8764453
-0.0036586255 -1.4315979 3.0595169
-0.45355809 -1.0340307 2.971323
-0.63728583 -1.2485299 2.8819196
0.048360679 -0.70238096 3.0513911
0.097226016 -0.79392391 3.1534605
0.90796161 -0.98670459 3.2630291
0.59548593 -0.40081617 2.6062455
-0.24486475 -0.60362387 2.9172711
-0.0723821 -0.54883069 2.850358
0.088589482 -1.1212242 2.8972383
0.56161541 -0.6373778 2.8850086
-0.32801986 -1.0246007 2.9570622
-0.24341452 -0.60504735 2.9193666
-0.34813768 -1.2786218 2.9490528
0.56336784 -0.64110553 2.8943505
1.0157278 -0.84315181 3.1593976
0.90648401 -0.98848146 3.2767622
-0.50295311 -1.0290914 2.9683824
0.74652129 -0.96509844 3.3051472
0.30816349 -0.57372051 2.8805699
0.15159619 -0.70356715 3.0457437
0.042246845 -0.70071822 3.0431168
1.0080147 -0.84658152 3.1510227
0.75028396 -1.027957 3.2402
0.95194274 -0.85846877 3.2261162
0.44306868 -0.68604964 2.9364607
1.041863 -0.61086947 2.9606888
0.55267215 -0.77538931 3.0699589
0.0094837155 -1.4871696 2.987777
-0.35066715 -1.2761658 2.9713366
0.70267779 -0.95392889 3.2950161
0.36633471 -1.0044239 3.1058071
0.52504152 -1.0862393 3.2060845
-0.55288494 -0.65433949 2.8285062
0.34184766 -0.61820632 2.9089596
-0.40495205 -1.2239422 3.0305822
0.41434515 -0.54922765 2.8223178
0.97547179 -0.76026154 3.0964627
0.92373711 -1.1027063 3.1379187
0.27904212 -1.1526353 3.0651937
0.97231901 -1.0738617 3.0681443
1.1998531 -1.2165442 3.0118713
0.13854009 -0.70342422 3.0410311
-0.31152776 -0.75022984 3.0872238
0.46350607 -0.91727364 3.232712
1.2165211 -1.2210529 3.0203421
0.3722055 -0.67881674 2.9943514
0.98016548 -1.1255784 2.9189782
0.90693659 -1.1600106 3.1205058
0.95064545 -0.85930514 3.2260306
-0.47494745 -1.0258951 2.9534616
-0.0022474458 -1.0692996 2.9427836
0.41696769 -0.57151985 2.855634
-0.0025362847 -1.0708566 2.9430726
0.20651489 -0.49584669 2.8302538
0.86666548 -1.166189 3.1401212
0.76379752 -1.0773952 3.2070765
-0.15635654 -0.64656079 2.9717619
1.1177518 -1.2670563 3.1373057
0.52180475 -0.6436801 2.8972633
0.22077006 -0.70708787 3.0445399
0.34638783 -0.81421083 3.167269
0.8504318 -0.60358304 2.9605739
0.91280621 -0.98978698 3.2620072
0.56573272 -0.62058407 2.8862333
0.33608046 -0.90552902 3.1485524
0.09834516 -0.7919476 3.151448
0.36483407 -0.9999997 3.1026595
0.42038441 -0.56975436 2.8408027
0.41554523 -0.61406422 2.8762515
0.052588116 -0.70322037 3.0577021
-0.29145476 -0.79551053 3.080838
-0.03710733 -0.62969792 2.9710207
0.084965967 -1.3691994 2.9255536
-0.31538698 -0.75728595 3.1095932
0.45001066 -0.82345724 3.1864583
-0.61045724 -0.65052104 2.803318
0.3693279 -1.0871624 3.1704841
-0.24741001 -0.59979171 2.9190869
0.08683724 -1.2455087 3.0361526
0.10573234 -1.1797069 2.9650321
-0.60969609 -0.64439017 2.75056
-0.67977846 -1.2208776 3.0099092
-0.60225087 -1.2591877 3.0043945
-0.10714886 -0.7344451 3.0833027
0.090132542 -1.4953252 2.8919582
-0.54939139 -0.65371156 2.8053217
-0.56153893 -0.60183448 2.8258202
0.11575145 -0.81233454 3.1104629
-0.29151896 -0.77961409 3.0678332
0.2258576 -0.49445918 2.8451562
0.44530085 -0.69124919 2.9645021
0.58409947 -0.79062349 3.1352105
0.38370442 -0.79106212 3.1634183
-0.011665132 -1.3407154 3.1284461
-0.61189103 -0.60892284 2.8458316
-0.55185825 -0.61004782 2.8531179
0.14476047 -0.5134114 2.8402739
-0.0050794072 -1.0675719 2.9354291
0.71069938 -0.93053919 3.3269117
-0.61134869 -0.60559154 2.8435681
0.53278553 -0.46552277 2.7057972
0.13604017 -0.70127648 3.0362043
0.8095479 -0.69386351 3.0178447
0.3375088 -0.88432002 3.1973028
1.1061802 -1.2621065 3.1310816
1.1253039 -5.3377051 7.5194492
4.172688 -4.5211892 6.8244619
1.1212592 -5.346827 7.527739
4.1789923 -4.5323896 6.8393188
-0.71511847 -5.0928245 7.0378304
5.3700566 -5.3908887 7.1892915
4.9995136 -5.1300869 7.1215024
5.8777509 -5.8142314 7.9129906
3.4968879 -5.0088458 6.8609619
0.97979099 -5.70082 7.4763703
1.4404662 -5.5361576 7.3459191
3.5554094 -4.9014235 7.3465662
4.3423605 -4.3799529 6.4898114
2.9520266 -5.057869 6.8616142
2.9308715 -4.9155412 7.2892919
2.9959378 -5.0104351 7.4711332
0.97748494 -5.4654789 7.692924
3.5754166 -5.0840869 6.9619575
3.0948107 -5.0947523 7.4827685
1.1407975 -5.4936194 7.6945062
5.108757 -5.17869 6.9319139
3.5870657 -5.0691357 7.1015773
-0.57518744 -4.9350471 6.810051
4.0138049 -5.0822401 6.8932357
-0.60505217 -5.4074349 7.3834448
3.8324351 -5.2111192 7.7335091
3.9562259 -4.9838786 7.4124303
3.0027323 -5.0289264 7.4713588
4.2564192 -5.6700072 8.3445377
-0.57572573 -4.9872217 6.8738194
2.1507437 -4.9797254 7.3661399
3.8253641 -4.7623029 6.8280463
