# .PCD v0.7 - Point Cloud Data file format
VERSION 0.7
FIELDS x y z
SIZE 4 4 4
TYPE F F F
COUNT 1 1 1
WIDTH 120
HEIGHT 1
VIEWPOINT 0 0 0 1 0 0 0
POINTS 120
DATA ascii
-1.2284005 -0.28111449 2.7270277
-0.29981205 0.088542208 2.4435835
-0.11806259 -0.099172466 2.8107049
0.4391264 -0.12757096 2.6405423
0.42715561 -0.12135241 2.6349502
-1.5760202 0.10086085 2.4889028
-1.1739005 -0.26471695 2.7109792
-0.10092544 -0.093740955 2.8151059
-0.68653095 -0.20888482 2.8523347
-0.87211162 -0.147348 2.7063508
0.37551153 0.16156904 2.4377086
0.38391638 0.048660267 2.7301292
0.27929345 -0.22867557 2.7840869
-0.90381902 -0.60702449 2.8525791
-1.3124963 -0.53416699 3.1727812
-0.44295424 -0.18104194 2.8707747
-1.2203716 -0.32856303 2.6921036
-0.45451126 -0.10147917 2.7431145
-0.74176717 -0.056735985 2.5951524
-0.39009821 -0.53434575 2.6580954
-0.44990531 -0.18881111 2.8555739
0.47923559 -0.032520082 2.6200902
-0.7943539 -0.56198812 2.807399
-0.72816312 -0.80717051 2.8297582
0.41977128 0.057049744 2.6583574
-0.36911964 -0.73821914 2.9302857
0.24221399 -0.11466438 2.8764713
0.41219568 0.05000959 2.6524887
-0.50183725 0.69085109 2.7819157
0.37941593 0.034654181 2.7397475
-0.12302095 -0.10419624 2.8154824
-1.3461031 -0.53052318 3.6339636
-0.1564429 0.70120424 2.7700148
-1.5215416 -0.07541541 3.7587507
-1.2237746 -0.39236251 2.8183267
0.26541609 -0.18186671 2.8057005
-0.57019669 -0.15396388 2.8184853
-0.18345493 -0.0072678095 2.5810823
-0.79610318 -0.8410455 2.8281968
-0.77620488 -0.09955813 2.6593475
-1.2173157 -0.93312973 2.8526154
-1.2374449 -0.88087481 2.94277
-0.19446519 0.78076857 2.6447918
-0.17659521 0.702546 2.6457996
-1.5715963 0.10638163 2.4944203
0.41908535 -0.21780115 2.68572
-0.45778462 -0.10319391 2.7432711
-0.85974842 -0.30322853 2.8989692
-0.38523892 -0.053493388 2.7422948
-1.2458876 -0.34072006 2.8168924
0.067033038 -0.31093484 2.8516948
-0.26038975 -0.016266406 2.6390457
-1.4972564 -0.16748047 3.6917529
-1.4436049 -0.28678107 2.7877791
-1.6781542 -0.29573706 3.7399406
-1.6270502 -0.2451418 3.722306
-0.39290768 -0.53737551 2.6566365
-0.75416863 -0.085649945 2.6800003
0.37848991 0.03345722 2.740063
-1.4602921 -0.42899483 3.8816631
-0.44591129 -0.10060753 2.7464719
-1.2288866 -0.39464799 2.8017635
-1.3259062 -0.80126148 3.247607
0.044183943 0.68248677 2.8316364
-1.2927282 -0.9112193 3.1826072
0.41655686 -0.25063065 2.741343
0.07852947 0.70312047 2.8603208
-1.1739882 -0.41309288 2.7604153
-0.028828191 0.63607877 2.7873619
0.2769683 -0.23140982 2.7887814
0.52091461 0.095818289 2.6022854
-0.33135366 -0.065766051 2.649555
-0.44299155 -0.17919812 2.8683648
-0.19524679 -0.11848631 2.8353846
-0.10194697 -0.09419582 2.8198838
-0.88616145 -0.7560457 2.8455575
-0.32219985 -0.62699831 2.8049018
-1.135252 -0.87052715 2.8585536
-1.6131103 -0.37992626 2.9067893
-0.8196758 -0.84978652 2.9119995
-1.6184889 -0.23439789 2.3078427
-1.1827555 -1.1071482 3.252748
-1.5450504 0.26826686 3.1341538
-1.5723109 0.24153401 3.0860054
-0.7374652 -0.22241493 2.838351
0.46540233 -0.061271504 2.6117039
0.36091501 -0.10234407 2.8193648
-1.3548241 -0.52277136 3.632647
0.04225897 0.69183242 2.8248146
-0.08380986 0.18701071 2.5568852
-1.2150213 -1.1082804 2.8852403
-1.4863071 0.057950888 3.502403
-1.5850674 -0.090221427 2.6883566
-1.4275398 -0.42193285 3.4996793
-1.4157221 -0.4138898 3.5606666
-0.44183251 -0.18944877 2.8675306
-1.630258 -0.17635874 2.4510698
-1.5710425 -0.012518145 2.4552858
-1.5737212 0.10557585 2.4947383
-1.2136214 -1.0173106 3.3224201
-1.2971622 -0.58806992 3.2355826
-1.2514887 -0.7983036 3.5036187
-1.2166406 -0.89231288 3.4722185
-0.82014537 -0.29688078 2.925638
-1.3994046 -0.40829039 3.5995395
-1.237517 -0.34434703 2.8320227
-0.39006457 0.30660474 2.446382
-1.2012112 -1.0191162 3.3437531
-1.2280879 -0.39635727 2.8032129
-1.247112 -0.9228034 3.2710698
-1.2402054 -1.3042443 3.2449808
-0.48693326 0.085139476 2.5123196
0.4472627 -0.25333068 2.7657619
-0.064789124 0.13833705 2.4634776
-1.2961978 -0.91393238 3.2025404
-0.26928651 -0.019576659 2.633146
-0.87957329 -0.2972112 2.8902786
-0.35164183 -0.68438262 2.9336431
-0.18737894 0.77839446 2.6458054
-1.407232 -0.41402489 3.5430369
