# .PCD v0.7 - Point Cloud Data file format
VERSION 0.7
FIELDS x y z
SIZE 4 4 4
TYPE F F F
COUNT 1 1 1
WIDTH 160
HEIGHT 1
VIEWPOINT 0 0 0 1 0 0 0
POINTS 160
DATA ascii
-0.86285305 -0.44705418 2.687196
-0.16550601 -0.047342885 2.3594198
-0.34684566 -0.39929295 2.7463753
-0.37910187 -1.1673809 2.6369159
0.18313999 -0.24581753 2.5778811
0.68048304 -0.23195617 2.2930965
-0.87242424 -1.1315821 2.8027282
-0.47912571 -0.49113429 2.7795277
-0.85911441 -0.49760997 2.6498902
0.70110714 -0.30231571 2.2554786
-0.57451993 -0.31914544 2.626615
-0.89653468 -0.75546849 3.1436915
0.6531927 -0.071087576 2.4080291
0.15475085 -0.3550469 2.6410251
0.00048948795 -0.98258042 2.6222048
0.66962737 -0.41448697 2.3627236
-0.26746669 -0.069679148 2.3692317
-0.56240308 -0.78890532 2.7400582
-0.89769411 -0.75650418 3.1417854
-0.59241819 -0.80047065 2.76105
-0.79793984 -1.191415 2.6527004
0.21074365 0.760405 2.3597033
-0.47263494 -0.21538112 2.4984834
0.54758543 0.10397509 2.0517664
-0.12956339 -0.35267439 2.6826003
-0.46597999 -0.73610628 2.677074
-0.56836903 -0.32176203 2.6276834
-0.38978559 -0.97915709 2.66629
0.11372279 -0.064213701 2.2794833
0.67314261 -0.056128483 2.3313129
-0.2440889 -0.2921147 2.6219509
0.10025816 0.58211297 2.5082042
-0.90178877 -0.76329213 3.1318491
-0.09231513 -0.11046018 2.3836038
0.65117598 -0.085916892 2.4172466
-0.46624836 -0.73313689 2.6829448
-0.0038248182 -0.98124146 2.6089571
0.095740326 0.57240438 2.4884458
0.69526565 -0.38379514 2.3737853
-0.12346053 0.78689754 2.4105549
-0.83505708 -0.78674954 3.5989437
0.0047921948 -1.0373299 2.5487778
-0.38420942 -0.97527164 2.6878033
0.99859285 -0.35338709 2.1524024
0.57453215 -0.36176819 2.4704254
-0.81156194 -0.73247343 3.0738113
-0.066163011 -0.11949663 2.3893783
-0.86232144 -1.0826082 2.8750474
0.073787071 0.5712955 2.5026519
0.1059639 -0.27145749 2.6120312
0.69314015 -0.29512745 2.2541697
0.68580359 -0.33199421 2.3367901
0.68868423 -0.2955837 2.2547739
-0.16293448 -0.25979578 2.5812876
-0.8401283 -1.321546 2.7222371
-0.93556541 -0.5500108 2.7178245
-0.13539334 0.71327519 2.418365
-0.15300694 0.70589483 2.4082229
0.011617059 -0.84247291 2.7007241
-0.86587763 -1.1678872 2.7313411
0.20297876 -0.38948447 2.5872459
-0.79646593 -1.011224 3.4213977
-0.68798888 -0.59774482 2.8335056
0.0060660429 -0.15729009 2.4459529
-1.1126069 -0.48857459 2.8121765
-0.89968163 -0.54128224 2.809109
0.6866399 -0.39306399 2.3249996
0.65036923 -0.087172039 2.4176507
-0.86938101 -0.69390255 3.9046843
-0.89820218 -0.70792609 3.8718939
0.56777829 -0.35982528 2.4668572
0.0037951218 0.27695972 2.3796659
-0.83055478 -1.3832622 2.7871768
-1.2741215 -0.58908957 2.9419048
-0.89673287 -0.58775824 2.7735
-0.93406093 -0.56400979 3.6725883
-0.42553633 -1.1541908 2.6208441
-0.88785273 -1.0285277 3.1967814
-1.2789061 -0.58814543 2.9354904
-0.89246035 -0.75305247 3.1469901
0.2056798 -0.17450342 2.441103
0.6957764 -0.36873141 2.38903
0.014419314 -0.84134322 2.7026553
0.1053175 -0.06209014 2.2737885
-0.85110623 -0.60085601 2.7204871
-0.0046677855 0.60177332 2.5840778
-0.95890206 -0.5720275 3.6198385
-0.94273406 -0.54856056 2.7158215
-0.80534822 -1.1954179 2.6530247
0.56857365 -0.35895586 2.4653761
-0.9108842 -0.69715697 3.853045
-0.83024061 -1.2632442 3.0392847
0.18743996 0.34533799 2.1744668
-0.3340466 -0.39578333 2.7496862
-0.79516613 -1.0146254 3.4158156
-0.90357476 -0.86213785 3.6215277
0.43598342 0.22989838 1.927218
0.6679762 -0.071044773 2.3296027
0.55326092 -0.35901603 2.4591441
-0.43988863 -1.0740938 2.6673503
-0.36561534 -0.26355961 2.5910521
0.20066324 -0.2408053 2.5839264
-0.43068263 -1.0894934 2.6573322
-0.011232661 -0.84430444 2.6950312
0.033424068 -1.0984967 2.5073879
-1.2510966 -0.59710842 2.9557471
-0.46103799 -1.031372 2.7619512
0.59934944 0.87731212 2.3417141
-0.85211915 -0.78891826 3.5716376
-0.44155949 -0.22099581 2.5224891
-0.89876127 -0.92603016 2.9951177
0.68789607 -0.23350814 2.2963731
0.65340662 -0.22884566 2.488071
-0.7925154 -1.0227375 3.4094336
-0.84407413 -0.77930927 3.6000462
-0.83884114 -0.18943872 2.4197018
-0.080638699 0.32157481 2.1846116
-0.098349214 0.318939 2.181623
0.32079667 0.548437 2.6203208
0.15604356 0.058715411 2.3454504
-0.84598219 -1.3042219 2.7966499
-0.8399049 -1.3170707 2.8046098
-0.19683002 0.74822748 2.3915641
-1.277028 -0.29182246 2.7593896
-0.11917278 -0.35380086 2.6925654
0.19133018 0.7497912 2.4443924
-1.3680075 -0.36294115 2.5304098
-0.86817837 -0.81397402 3.1957366
-0.73190516 -1.130327 3.3865099
-0.47407833 -0.48133335 2.8183281
-0.89772207 -0.66482228 3.5857618
-0.93437159 -0.85380864 3.3093104
-0.7769202 -1.2382843 3.2079332
-0.24456255 -0.05713167 2.3765392
-1.2575314 -0.27996284 2.7789869
-0.33252993 -0.067072146 2.1886933
0.17305203 0.4912827 2.4084461
-0.00043149613 -0.99619484 2.4526494
0.58354336 0.11588898 2.0553668
0.052839048 -0.04485599 2.0401578
0.3341628 0.8354311 2.414943
0.27997658 0.05087205 2.0909019
0.4203521 0.22049749 1.924072
1.1312395 -0.34296721 2.1120393
-1.3399917 -0.34748015 2.552582
0.15663683 0.017598242 2.2466328
-1.157945 0.011629213 2.4151573
0.31765074 -0.22652602 2.627768
0.51271886 0.14235413 2.1254809
0.69530326 -0.058472443 2.3168008
-0.86500376 -1.1363592 3.1379714
-0.53951246 -0.48175028 2.7959611
-0.0034793573 -0.8477869 2.7001512
4.9817524 1.5898535 1.6552809
4.1565042 -3.6747718 6.0722599
4.1597705 -3.6837332 6.0810523
-0.055454437 0.14156039 2.0141885
5.7607527 1.2430334 2.2961948
4.7272525 1.5015731 1.6774539
4.0662184 -3.643271 6.011363
