# .PCD v0.7 - Point Cloud Data file format
VERSION 0.7
FIELDS x y z
SIZE 4 4 4
TYPE F F F
COUNT 1 1 1
WIDTH 91
HEIGHT 1
VIEWPOINT 0 0 0 1 0 0 0
POINTS 91
DATA ascii
-1.0991981 -0.34351063 2.7771666
-0.22302271 0.073736481 2.4063778
-1.0877296 -0.98748475 3.2428505
0.0041260067 -0.10923637 2.7498484
0.54155678 -0.10877011 2.5231562
-0.75357682 -0.19249405 2.7223701
-1.1241032 -0.60430551 3.2269106
-0.63241398 -0.60045427 2.8092449
-0.77739584 -0.66590136 2.8792527
-0.17422958 -0.84530354 2.8172269
0.011685001 0.87616253 2.5530682
-0.74853456 -0.65482676 2.8634856
0.5067538 0.076355755 2.5485833
-0.30867162 -0.20736231 2.84147
-0.78048825 -0.66569412 2.8818212
-0.63975054 -0.094422683 2.5999329
-0.26152325 -0.55522138 2.6187122
-0.64652741 -0.60404581 2.8080962
-0.56699425 -0.84599483 2.8195295
0.515526 0.074484281 2.5458944
0.36958641 -0.10810323 2.7781646
0.50772411 0.06715554 2.5407162
-1.1279811 -0.61287302 3.2150524
-0.33556077 -0.12099685 2.6981163
0.48485377 0.049228586 2.630605
0.54359525 -0.19387884 2.5888507
-0.036886033 0.050507665 2.4425163
-0.082091518 0.70103538 2.6044157
0.40596843 -0.22443609 2.6912758
-0.088778995 -0.017938538 2.5296609
-0.2224554 0.082550429 2.4061682
-1.050686 -0.99470061 2.8910692
-1.0579326 -0.94546717 2.9827983
-0.108495 0.69058383 2.6050158
-0.075966984 -0.1342082 2.7770755
0.54621035 -0.16811702 2.4852765
0.40224123 0.17490993 2.2960312
0.53051353 -0.20037849 2.5686545
-0.34017074 -0.12884873 2.7174504
-1.1045364 -0.40492633 2.8673549
-0.15883385 -0.031305853 2.5950317
-1.0939072 -0.40943724 2.8820255
-1.0685021 -1.1688466 2.8886676
0.53326136 -0.26199377 2.5605769
-1.0363764 -0.98923922 2.8833961
-1.1788347 -0.49941766 3.9816561
0.39961252 -0.22281225 2.6869068
-0.32816502 -0.12573023 2.7194624
-1.0137374 -1.2500231 2.9163477
-1.0866797 -0.45779324 2.8496809
-0.42235169 0.04981976 2.4862363
-1.0931312 -0.41192827 2.8832567
0.13093427 0.67904055 2.7669463
-1.0867569 -0.98121613 3.2264991
0.53526151 -0.23393349 2.6236963
0.16704711 0.70097244 2.7923043
0.078194261 0.25396541 2.2667084
-1.0355266 -0.47309029 2.8026376
0.40055168 -0.2220145 2.6854703
-1.2145634 -0.50628388 3.926194
-0.69526571 -0.33361647 2.9309499
-0.10911423 0.68092126 2.5951195
0.4088662 0.29524171 2.3111269
0.0054649543 -0.13415921 2.7710171
-0.4554078 -0.22640753 2.9207883
-0.61135018 -0.098146759 2.6273744
-0.60269701 -0.26250619 2.8386557
0.53583449 -0.10431047 2.523047
0.4810726 -0.089414835 2.7094302
-1.0460998 -0.85434604 3.5171981
-1.0878335 -0.60194629 3.257817
-1.4060276 -0.29663903 2.7046812
-0.9160201 -1.0396402 2.7828562
-1.0256064 -1.1831205 2.9288297
-1.404808 -0.2951465 2.7073407
0.015723476 0.87724239 2.5605121
-0.98880571 -1.0849823 3.3557241
-1.0944926 -0.40832049 2.8814881
-1.006799 -1.0806323 3.3313053
-0.84198958 -0.13651089 2.6857882
-0.14517289 0.18509597 2.5834789
-0.46905473 0.038504593 2.2986221
0.0041747126 0.61684459 2.5378737
0.046442144 0.90816098 2.5896513
0.45397642 0.22910646 2.2525213
-0.16876233 0.18379103 2.3810856
-0.10807809 0.37045732 2.2779198
-0.25227129 0.8834492 2.520534
0.13234077 -0.08488746 2.8124752
0.53913039 0.071699612 2.533967
-0.168126 -0.034972604 2.5900187
