# .PCD v0.7 - Point Cloud Data file format
VERSION 0.7
FIELDS x y z
SIZE 4 4 4
TYPE F F F
COUNT 1 1 1
WIDTH 190
HEIGHT 1
VIEWPOINT 0 0 0 1 0 0 0
POINTS 190
DATA ascii
0.38534033 -0.41552144 3.0384955
0.82668847 -0.28379571 2.7773633
-0.33412528 -0.90301687 3.3874907
0.10242101 -0.48648098 3.2139575
0.85671228 -0.42018861 2.8491125
0.39247435 0.54664105 2.6710179
-0.27448508 -0.37424129 3.0525486
1.0387909 -0.095193297 2.4592206
0.67095149 -0.15891476 2.4183736
-0.24760643 -0.86332792 3.3038762
0.17530355 0.12204371 2.7624183
0.68929857 -0.097478077 2.5039046
0.82594126 -0.28811613 2.6948385
0.085540436 -0.30042139 2.8687522
0.8258937 -0.29704595 2.7888844
0.96359837 0.74503648 2.6501892
0.86294705 -0.54590791 2.757421
1.1255941 -0.2581659 2.5771542
0.93026811 0.72716218 2.6669569
0.85920918 -0.59942597 2.784344
-0.64193052 -0.61348045 3.4693859
-0.47457188 -0.76637149 4.2670546
0.19472277 -1.1961684 3.1542628
-0.62660456 -1.2217989 3.5196218
0.84024668 -0.52909976 2.6544631
0.66613597 -0.19498827 2.4748433
0.84494632 -0.55326694 2.7418301
0.26522437 -0.26471639 2.723598
-0.14626384 -0.40400302 3.1302629
-0.54433197 -1.0689602 3.5855267
0.19157788 -0.34105814 2.9222689
-0.65406281 -0.63642997 3.4675748
-0.25624838 -0.39728117 3.1381381
0.82514113 -0.2982001 2.7895854
-0.61997384 -1.2165074 3.5103536
-0.60949796 -0.98964399 3.7141211
-0.25475955 -0.35525382 3.0454013
-0.46492428 -1.2671468 3.9680557
0.1170346 -1.0601056 3.1039472
-0.60421604 -0.66577864 3.3082578
0.19421634 -1.1836727 3.1534259
-0.62536502 -1.1150914 3.6355739
-0.36292353 -0.90539598 3.3847129
-0.71290374 -0.80855018 3.8551614
-0.39968902 -0.80681646 3.4920106
-0.69140315 -0.65746886 3.3928342
-0.71446437 -0.80909085 3.8533607
0.021672098 -0.38846329 3.0506728
-0.23822604 -1.0598094 3.4449356
-0.57135618 -0.69526887 3.3571711
-0.25547233 -0.46418691 3.2016597
-0.58426136 -1.2989583 3.3958995
-0.65132606 -1.3416563 3.4615116
-0.26802155 -0.40006968 3.1266994
-0.54090869 -1.0691587 3.5869572
0.1354986 -1.1657292 3.0472693
-0.58123511 -0.70041585 3.356087
-0.59023088 -1.0621506 3.917603
-0.59880978 -0.79686862 3.8285027
-0.5815838 -1.1767918 3.8528023
-0.59335822 -1.1774495 3.8638816
-0.64414114 -1.2668519 3.4782982
0.331406 -0.41393432 3.043582
0.38796431 -0.36570781 2.890801
-0.78679276 -0.80119228 3.8416836
0.30222863 0.34699589 2.9123168
0.39554071 0.40915224 2.8913038
1.0430058 -0.60761762 2.6543982
0.092811957 -0.84799719 3.0197344
-0.10455703 -0.52443898 3.3033824
-0.090264559 -0.51434928 3.2985039
-0.62154555 -1.2348313 3.6376641
0.15536614 -0.95591599 3.1643007
0.1258574 -0.37972286 3.0757573
-0.63805622 -1.3870239 3.6501763
0.37058416 -0.44801459 3.0700977
0.46509421 0.31784162 2.7858622
-0.46400425 -1.1269975 4.0562024
-0.64161211 -0.49082804 3.3415701
-0.46392253 -1.1267968 4.056489
-0.57596648 -1.3193221 3.7919636
-0.65926868 -0.62407142 3.4637458
-0.39539891 -0.87113148 3.4764035
0.17161101 -1.100031 3.0526199
-0.20031285 -1.2932266 3.3046632
0.33296347 0.38565138 3.0835981
-0.65748292 -0.68786746 3.3449991
0.86209333 -0.37978262 2.8061795
0.677378 -0.21840519 2.5225408
-0.79088056 -0.80269367 3.837368
-0.46611014 -0.87189192 4.2121911
-0.65818101 -1.393086 3.5428021
0.12503438 -0.30902985 2.830452
0.20855381 -0.31105635 2.7442846
0.38309458 -0.40247205 3.044349
-0.62010407 -0.55486077 3.3264029
0.11490271 -0.47983244 3.2135723
-0.55769026 -1.1615646 3.4863956
-0.7107324 -0.65571582 3.3837557
-0.54681867 -1.0703756 3.5843148
-0.63465577 -0.51832819 3.3375018
-0.59425646 -1.0572929 3.9386566
0.74804074 -0.557136 2.8887942
0.90999722 -0.24796951 2.6067393
0.926862 -0.67826587 2.5952067
-0.66362727 -1.313431 3.4924712
0.30507526 0.34340423 2.911844
0.94105095 -0.52346879 2.5626011
-0.66697735 -1.319423 3.5234699
-0.63960475 -1.3866618 3.6501102
-0.46591538 -0.86854935 4.2101851
-0.23896977 -1.0608294 3.4454808
-0.44605905 -0.72549516 3.6636903
-0.46450701 -1.1281254 4.0564332
-0.56687981 -0.64513636 3.3116758
-0.4625887 -1.3850746 3.8962936
-0.62289864 -1.2162522 3.5092592
-0.61491406 -0.80263162 3.8243229
-0.64143705 -1.2434645 3.5953436
0.30171657 -0.43922129 3.0845318
0.31594238 0.34935752 2.9085598
0.84721988 -0.55335325 2.5858507
0.24945965 -0.3422296 2.8554134
-0.64171666 -1.380366 3.5437031
-0.54747695 -1.0694475 3.5829399
-0.1019983 -0.52084267 3.3047609
-0.66135365 -0.62726277 3.4638927
-0.61031574 -1.2322032 3.6343386
-0.23141854 -0.46245351 3.1689107
-0.6727497 -0.64762896 3.3936203
0.18622366 -0.31853595 2.8914785
-0.46918848 -0.87363964 4.2126012
-0.46309966 -1.266481 3.9706218
0.24418962 -0.33583325 2.8386378
0.88112235 -0.54892552 2.5652435
0.47183263 0.47626844 2.9675415
-0.65412635 -1.2753133 3.6150637
-0.57561886 -1.2651409 3.7075243
-0.70913261 -0.80333465 3.8604827
-0.60466528 -0.8792097 4.0263534
-0.58807337 -0.66607344 3.3368487
-0.51285595 -1.0937481 4.1984138
-0.510369 -1.0929134 4.1991301
0.086731732 -0.38333598 3.183007
-0.12629125 0.20517209 3.2345514
-0.33397102 -0.43128806 3.1986551
-0.013586476 -0.88606775 3.0315185
-0.074465454 -0.42665726 3.180563
0.22983003 -1.0412407 3.0913386
0.11386707 -1.1514342 3.2061636
0.15362281 -0.35578528 3.073117
0.069154918 -0.26228642 2.7422478
0.23917903 -0.32514715 2.7902868
-0.090927482 0.23993927 3.3745911
0.428864 -0.42208222 3.0567071
1.0028591 -0.49228334 2.5367122
-0.10345954 -0.45437342 3.1727569
0.033119556 -0.38675863 3.0513065
-0.4997662 -0.8310861 4.3534112
0.86559194 -0.25998685 2.621958
1.242981 -0.72893399 2.3757651
-0.59983921 -0.8082087 4.0902181
0.86567003 -0.54533374 2.5821435
-0.66605258 -1.3999811 3.5437133
-0.66561359 -1.2997785 3.5636477
-0.23537093 -1.2063529 3.3085151
0.26653749 0.36434913 2.8415153
0.0024005231 -0.40774253 3.0557411
1.6207559 -0.48894376 3.1377473
1.0534412 0.43918279 2.7712128
1.3696101 0.35010371 3.0469201
0.95720202 -0.4026978 2.5651913
-0.28032866 -0.41201094 3.1260164
1.1860492 -0.59472519 2.5027571
4.9018645 0.94881248 1.020101
4.6913495 0.61013383 0.87287426
-0.60793775 -0.79933381 3.8263974
4.7776041 1.0516738 1.0275748
3.5273089 0.86297637 1.249902
3.8377573 0.96809536 1.288895
-0.12073473 -0.51591378 3.2781549
-0.60148168 -0.80650091 4.0918727
3.8647025 0.51967853 1.0011098
-0.61469275 -0.98940945 3.7055225
3.2703023 0.70228225 1.4903067
3.7689812 0.37837628 1.0901289
3.6471231 1.0251067 1.1754733
3.7547662 0.53632033 1.0924408
-0.61758804 -1.2336439 3.6294074
3.8200958 0.98954725 1.3033873
