# .PCD v0.7 - Point Cloud Data file format
VERSION 0.7
FIELDS x y z
SIZE 4 4 4
TYPE F F F
COUNT 1 1 1
WIDTH 169
HEIGHT 1
VIEWPOINT 0 0 0 1 0 0 0
POINTS 169
DATA ascii
0.60503662 -0.48708525 2.6260357
-0.077374287 -1.2155173 3.002696
-0.029435588 -0.3962923 2.9258089
-0.44972911 -0.9132489 3.2755258
-0.18062921 -0.32773528 2.8298438
0.59740144 -0.32480073 2.7318895
-0.64659423 -0.8295548 4.2465386
-0.0073807454 -1.2374811 3.1081238
-0.82558113 -0.76921791 3.3667676
0.59905767 -0.42894143 2.6290939
-0.81583363 -1.2798566 3.4996986
0.014818097 0.41545582 2.8194091
0.19319414 -0.39861625 2.8418794
0.097566485 -0.47209927 3.045084
0.097566485 -0.47209927 3.045084
0.61097693 -0.55524123 2.5946417
0.60670596 -0.5555318 2.596092
-0.17255896 -0.46010795 3.0616956
-0.46837765 -0.62352622 3.3661153
-0.63882035 -1.0770512 4.0979257
-0.68371695 -1.3518984 4.1076717
0.5966903 -0.32597369 2.7326024
-0.47325432 -0.40279576 3.0227733
-0.63890177 -1.3270996 3.9421384
-0.80799991 -1.5223992 3.596283
-0.80547518 -1.2300843 3.6042252
-0.60939676 -0.69379425 3.4977601
-0.4930529 -0.63404673 3.3898098
-0.79849327 -1.0517361 3.6927478
-0.64074701 -1.331785 3.9361997
-0.85306859 -0.69692743 3.4559014
-0.78460121 -0.85764509 3.8119609
0.16416076 -0.40145293 2.8472605
-0.29811475 -0.56176907 3.2687089
-0.050134853 -0.99799919 3.1219599
-0.5823319 -0.9846527 3.42681
-0.71678108 -1.4916533 3.9578602
-0.091513254 -0.42149386 3.0404818
-0.82043308 -1.4465396 3.628813
-0.63729101 -1.1878412 4.0316768
-0.75480914 -1.3792766 3.7692106
-0.058187041 -1.2371827 2.9776318
-0.86073291 -0.74476701 3.3317921
-0.84533215 -1.4509933 3.5213661
-0.4451738 -0.91700333 3.2720337
-0.63828278 -0.93437326 4.1903234
-0.84395772 -1.4518485 3.5220919
-0.6409151 -0.81448412 4.2639785
-0.75563788 -1.1188593 3.9091246
-0.64451337 -0.81852418 4.2609768
0.018527389 -1.2944497 3.0669918
-0.85228831 -1.3717915 3.4728045
-0.6306383 -0.95517844 3.9516814
-0.77991229 -0.99065745 4.0003538
-0.28130317 -0.55182987 3.272661
-0.8219884 -1.4462016 3.6288011
-0.082518734 -0.34940028 2.8196878
-0.63820589 -0.93100816 4.1883473
-0.64789975 -1.3417343 3.9262328
-0.63776833 -1.1889793 4.0319118
-0.69329679 -0.68981743 3.3195617
-0.82661194 -1.5431336 3.5720637
-0.80074149 -0.86362213 3.8082464
0.085446231 -0.47826487 3.0429094
-0.309535 -0.56851101 3.2752757
-0.65813857 -1.3496193 4.0982957
-0.80562568 -1.522694 3.5966406
-0.64131838 -0.93617392 4.190815
0.018309817 -0.37335521 2.8001153
-0.77115381 -0.98480451 4.0047922
0.82550269 -0.67656028 2.5689209
-0.8393839 -1.3347542 3.595417
-0.6492641 -1.3299612 3.7256179
-0.78270382 -0.94204223 4.0090213
-0.77113169 -0.98303366 4.0054502
-0.68198401 -1.156798 4.1757421
-0.67948836 -1.155931 4.1763864
-0.50479287 -1.4743031 4.2818141
-0.5893681 -1.0460869 4.3963947
-0.76233983 -1.5396441 3.6164129
-0.70772523 -1.1728107 4.3093395
-0.61405188 -1.0671576 4.376092
-0.66240692 -1.4160718 4.0619426
-0.012744118 -1.147023 3.0051403
-0.69302499 -1.6161203 3.9290957
-0.8464964 -1.433154 3.5122414
-0.54622012 -0.48161131 3.1777134
-0.68094611 -1.672367 3.7863982
-0.064226061 -0.39709133 3.0371921
0.037168682 -0.36681864 2.8009903
0.14628866 -0.45893666 3.0196052
-0.65848607 -1.4144071 4.0622826
0.76906115 -0.51466125 2.4720604
-0.96213758 -0.83438104 3.8547695
-0.64680386 -1.3537039 4.1930542
-0.67922038 -0.69208938 4.4066701
-0.44238994 -1.1573061 4.5144958
-0.38990429 -1.06092 3.3509777
-0.34581733 -0.82145059 4.7967029
0.020603022 -0.96302325 3.1043055
-0.31395462 -0.57192367 3.2762101
-0.31634542 -0.50075763 3.1440947
-0.44125161 -0.2129999 4.0831742
-0.12477706 -0.33398166 2.8446496
-0.53087217 -1.3855147 4.2975812
-0.78141254 -0.96354657 3.8698359
-0.54699582 -1.2751971 4.3420181
-0.39076889 -0.47780001 3.1412761
-0.17620838 -0.43339747 3.0176589
0.66621548 -0.64309108 2.6848345
0.58655 -0.67727286 2.7125757
0.63530034 -0.66648394 2.6919491
0.67245412 -0.2951977 2.7153542
-0.57814062 -0.97795385 3.4104548
-0.76038641 -1.2341912 3.8373899
-0.85989511 -1.4377877 3.5132852
-0.61651158 -1.059709 4.3803148
-0.63134998 -1.0593749 4.3699403
-0.58803135 -1.0425482 4.3952355
-0.6657303 -0.92306763 4.308836
-0.66790092 -0.92333382 4.3128905
-1.0574383 -0.80578434 3.7858183
-0.43114325 -1.4697855 4.257597
-0.61391973 -0.79285735 3.5049269
-0.35166284 -1.4500663 4.1561122
-0.57527143 -0.66974634 3.4945395
-0.63851929 -1.0812136 4.0927291
-0.87502027 -0.73175931 3.4040775
-0.56383717 -1.3313826 4.292212
-0.68941092 -1.3574878 4.1425815
-0.71585155 -1.7251387 3.8233807
-0.74916369 -0.58466196 3.356663
-0.66005063 -1.3497117 4.0997806
-0.65474743 -1.3459063 4.1067672
-0.84193295 -0.73396569 3.4227324
-0.30123556 -0.81761825 4.8267322
1.0977366 -0.49974519 2.609612
-0.67386752 -0.67186451 3.3076489
-0.27796701 -0.78711379 4.8491349
-0.26437652 0.26204583 3.0195844
0.80436331 -0.77154487 3.5714164
0.8043049 -0.76802242 3.5708213
0.49701253 -0.42610809 2.953007
-0.49362752 -0.63473153 3.3887894
-0.49528691 -0.46075621 3.1035759
-0.69395632 -1.3524137 4.1008387
0.620839 -0.6536023 2.6608863
0.95262128 -0.61382413 2.4310937
4.5934639 1.0035158 0.84473485
4.3835654 0.66301131 0.70087832
-0.79375345 -0.86023444 3.8101277
3.5385346 1.003139 1.148165
0.81157339 -0.67677236 2.5706737
3.4231899 0.60149503 0.6641649
0.021806538 0.41313121 2.8177855
-0.77851713 -0.86995035 4.0751629
3.4468894 0.71447664 0.74409103
3.4725177 0.41441399 0.94555378
2.8195307 0.91659278 1.0967619
3.4559216 0.57208025 0.9499861
3.4269662 1.1552982 0.69712275
3.521023 1.0241606 1.1634482
3.2186625 0.41431841 0.85538834
-0.70160282 -1.3818909 3.7271073
3.5008345 1.0261693 0.9906128
3.4446926 0.60730106 0.6436832
-0.67954391 -1.0897769 4.1933866
-0.29939476 -0.81914341 4.8279505
-0.57870436 -0.9805482 3.4098361
