# .PCD v0.7 - Point Cloud Data file format
VERSION 0.7
FIELDS x y z
SIZE 4 4 4
TYPE F F F
COUNT 1 1 1
WIDTH 436
HEIGHT 1
VIEWPOINT 0 0 0 1 0 0 0
POINTS 436
DATA ascii
-0.13506532 0.6634447 2.431016
-0.3529588 -0.56935591 3.2386677
-0.53226626 -1.2664571 3.424509
-0.40110224 -1.3569812 3.6584606
-0.76449764 -0.62199628 3.3866048
-0.50513536 -0.46101639 3.0978847
0.42258 -0.060583197 2.3447073
-0.13342872 0.67032629 2.4262557
-0.35209522 0.42884743 2.9205191
-0.44850722 0.61895126 2.5885856
0.079680651 -0.29251859 2.7557373
-0.37686628 -0.91324401 3.2667494
0.45336604 -0.30769086 2.4941361
0.18251689 -0.27125856 2.7313924
-0.072826274 -0.10733644 2.420752
-0.12644912 -0.31783548 2.8246686
-0.41863176 -0.64152449 3.3891282
0.15465058 0.067117132 2.0604937
-0.37323824 -0.42413992 3.0115898
-0.24568392 0.45300171 2.6892061
-0.94242042 -0.7935816 3.6972234
-0.51203173 -1.2100112 3.5106888
-0.52376169 -1.2921034 3.4996884
-0.26235995 -0.37068135 2.9270329
-0.22363964 -1.3093324 3.9686987
-0.94127637 -0.78122282 3.699255
0.24828221 -0.055038679 2.2984967
0.068467893 -1.4142553 4.1057229
-0.24286647 -1.3969685 3.7282553
-0.74143344 -0.73884362 3.3624954
-0.097280256 -0.24647468 2.673207
-0.26620758 -0.80253834 4.1217175
-0.19858482 -0.33859211 2.862504
-0.25229576 -1.3284885 3.9682219
-0.50519019 -1.4481099 3.3650713
-0.67937344 -0.69916934 3.4195709
-0.66712332 -0.76578313 3.3250272
-0.65771288 -0.70819163 3.3748641
-0.54591215 -1.3591863 3.4792013
-0.25364643 -1.1214658 4.0493708
0.090677828 -0.23938705 2.5822604
-0.24642871 -1.2904115 3.7994659
-0.41190284 -1.1029332 3.8197508
0.027936317 -1.0662984 2.7594645
-0.25551718 -1.1244822 4.0498738
-0.36079347 -0.68759829 3.4467692
-0.26087332 -1.0572172 3.9519935
-0.27785987 -1.6870539 3.6887143
0.12489981 -1.1479988 2.7984059
-0.41235599 -0.96813565 3.9050267
-0.69784403 -0.81965536 3.79546
-0.54309875 -1.4383881 3.3774335
-0.6644702 -0.80539238 3.6850972
-0.94647151 -0.7836498 3.7006395
-0.52696848 -1.4588051 3.3759406
-0.50023186 -0.85064876 3.7374351
-0.087598242 -0.057183459 2.3186364
-0.42318702 -0.61460304 4.1529617
-0.50836366 -1.2689976 3.5048373
-0.24893484 -1.0387001 3.968338
-0.41978198 -0.64975673 3.4075456
-0.030509356 -0.25773683 2.6554093
-0.56428838 -1.3890876 3.3963389
-0.25061345 -0.65401685 4.2272406
0.44471818 -0.31761295 2.2331312
-0.30106872 0.22381744 2.4180028
-0.095697835 -0.15862282 2.4648871
-0.17306529 -0.28924793 2.5758698
-0.51452428 -1.4623952 3.4578576
-0.52583891 -1.2924626 3.5008621
-0.058470372 -0.23256178 2.5837283
-0.45579508 -1.5013942 3.5015883
-0.71332026 -0.73693126 3.3719347
-0.18454349 -0.22676632 2.6034777
-0.51792723 -1.4626706 3.459291
-0.41237181 -0.96944076 3.9134426
-0.41319379 -0.96908617 3.9163017
-0.24212503 -0.89111948 4.0391374
-0.24505757 -1.3938779 3.7261729
-0.41603667 -0.84840959 3.9804993
-0.41809639 -1.2229463 3.7466033
-0.50864977 -1.2205733 3.5308084
-0.42810988 -0.92525733 3.9222414
-0.043387495 -1.3241426 4.1153512
-0.46357641 -1.5044538 3.5041142
-0.34342757 -1.2937508 3.6019115
-0.4147135 -0.86211914 3.9882405
-0.76834524 -0.61934799 3.3836787
-0.27163094 -0.18482195 2.5380585
-0.36342219 -1.2851939 3.5987971
-0.30745062 -1.3090773 3.7487841
0.12410969 -0.20554855 2.5536764
-0.23254025 -1.3181946 4.0093074
-0.44677004 -1.5183938 3.4764297
0.0051333024 -1.2866666 4.1712198
-0.037716791 -1.333226 4.1231537
-0.085436165 -1.2782576 4.1224513
-0.022035697 -1.2904537 4.1474476
0.023214715 -1.3394296 4.1436353
-0.045555975 -1.2581135 4.1610999
-0.15670151 -1.0709867 4.1998453
-0.20685872 -1.319077 3.6290402
0.03544252 -1.3372515 3.9333971
-0.081939541 -1.2519964 4.1390753
-0.22999333 -1.3178411 4.0102248
-0.22037415 -1.31107 4.0111938
-0.22635189 -1.3447384 4.0426769
-0.84765518 -0.43878779 3.550019
-0.4345586 -1.149983 3.3988397
-0.195856 -0.37479168 2.9506502
-0.10080747 -0.30286124 2.8103838
-0.06428133 -0.22457598 2.5742857
-0.32787153 -1.088838 3.8874934
-0.27789888 -1.4512506 3.8310304
-0.28016165 -1.45207 3.8313575
0.031844005 -1.3933061 4.1020918
-0.46083653 -1.5031219 3.5035689
-0.40484133 -0.96538597 3.9237108
-0.42148924 -0.92950124 3.9201887
-0.25801545 -1.060681 4.0652423
-0.4361721 -1.4465762 3.5676532
-0.21852881 -0.39488724 2.9624333
2.5463593 1.1929046 -0.32360211
-0.41363707 -0.71326137 4.072341
-0.17572181 -1.3110105 4.0474172
-0.24654898 -1.3409231 3.9960558
-0.25865683 -1.6914704 3.6956568
0.043081421 -1.0629332 2.7514491
0.054942939 -1.0022453 2.7550468
-0.10223202 -0.3326751 2.6957998
-0.42133406 -1.5167621 3.5137277
-0.2474917 -0.89763176 4.0605559
-0.051968627 -1.1259929 4.2287626
-0.13006216 -1.0137892 4.2484775
-0.061000116 -1.1307995 4.2246437
-0.15857698 -0.95052826 4.2577252
-0.0019990832 -1.2711756 4.1931982
-0.047858529 -1.096243 4.2535992
-0.74497294 -0.73478407 3.35899
0.13480981 -1.3888143 4.0697145
0.08601398 -1.3634518 3.98036
0.085720472 -1.3624538 3.9781117
0.058803007 -1.077009 4.3158569
0.090332672 -1.3819052 3.9740686
-0.44869009 -1.5191361 3.476979
0.048104975 -1.0191101 4.345624
-0.2538577 -1.1230174 4.0505486
-0.50548106 -1.041607 3.6180177
-0.033974156 -0.30583268 2.7954412
-0.047691893 -0.25134853 2.6016428
-0.54281497 -1.4382281 3.3767991
-0.41881445 -1.330157 3.6440492
-0.21264651 -0.32710707 2.5823379
0.56557769 -0.38504571 2.2853217
-0.88605523 -0.428882 3.5437992
-0.40931526 -1.2314218 3.7313809
-0.28481966 -1.6903764 3.6940722
-0.025747336 -1.3091267 3.9823806
0.064667985 -1.3878937 4.1013799
-0.27975145 -1.4918792 3.5261641
-0.23574814 -1.5484004 3.8016763
-0.52801508 -0.83892798 3.8480124
-0.074839398 -0.50311178 2.8966663
-0.26043183 -1.4347519 3.8338871
0.020080291 -1.3073692 4.1646276
-0.23652177 -1.3199278 3.9360676
-0.18203373 -0.2461454 2.6035786
-0.93552667 -0.78173798 3.658474
-0.7918933 -0.82262641 3.7673624
-0.41203085 -0.98563761 3.9015989
0.40406913 -0.12625574 2.2683709
-0.042478845 -1.2614722 4.1610289
0.0060536927 -1.3008569 4.1664338
-0.11259623 -1.0936279 4.2130704
0.028523756 -1.2775401 4.1776791
-0.073275194 -1.1825398 4.1825013
-0.51345372 -1.0516971 3.6173098
0.072224379 -1.3833543 4.0570269
-0.040524449 -1.2040415 4.1877093
-0.058480941 -1.1275122 4.2249017
-0.16412543 -0.97799939 4.2576423
0.028368412 -1.202263 4.2256422
-0.15963463 -0.97586107 4.2642465
-0.059121132 -1.3238981 3.9853082
0.089242861 -1.3624864 3.9782748
-0.07529103 -1.0680329 4.2508755
-0.086311117 -1.0041955 4.278523
-0.40822583 -1.5092682 3.5064621
-0.22160228 -1.310608 3.9589236
-0.49949563 -1.2799894 3.5283244
-0.83991021 -0.41322073 3.5405707
-0.074735522 -1.2865102 4.1197782
-0.76148236 -0.62921423 3.3884645
-0.28442961 -0.38718697 2.9523423
-0.40402845 -1.1290917 3.3900719
-0.22795884 -0.31330144 2.6599908
-0.54746169 -0.49481693 3.1129394
-0.51097304 -1.1276352 3.5700376
-0.24113531 -1.3891935 3.7247674
-0.74549121 -0.72105521 3.3463461
0.22028157 -0.72812879 4.5951385
-0.63717365 -0.90559691 3.8502703
-0.075605363 -1.1811963 4.182476
-0.093049444 -1.2694521 4.1226091
-0.79123712 -0.8486492 3.7765167
-0.092422798 -1.266734 4.1234908
-0.5150497 -1.0100614 3.8163657
-0.025001645 -1.2928442 4.1466551
0.053839173 -1.388754 4.0967731
-0.033247039 -1.2170281 4.1817212
-0.070527792 -1.2280924 4.169867
0.063465245 -1.3782904 4.1447945
-0.41130888 -1.2249238 3.7333443
-0.27963448 -1.6868087 3.6877773
-0.41796902 -0.72097325 4.0785398
-0.16313617 -1.0011622 4.2346463
-0.52792346 -1.2922533 3.5024803
0.059724394 -1.3904521 4.0531774
-0.98511863 -0.42535064 3.5263495
-0.25863689 -1.1797394 3.8835192
-0.34529987 -1.4277763 3.583652
-0.0077299206 -0.99886817 4.3227158
-0.28290167 -1.0509462 3.9356232
-0.75030017 -0.70614767 3.2848341
-0.073963687 -0.98131824 4.2960463
-0.41011837 -0.85113424 3.3511484
-0.081920713 -1.33158 4.1234794
-0.17015077 -1.088384 4.1924953
-0.021434594 -1.3370309 4.128056
-0.1803977 -1.1127274 4.179512
0.010311913 -1.1610056 4.2591763
-0.13989775 -1.0279281 4.2468529
-0.47527573 -1.5015335 3.4575686
0.067214079 -1.0141159 4.3517714
-0.10927276 -1.3523653 3.9596319
-0.95603859 -0.45731282 3.5509963
-0.66467142 -0.74066406 3.2856061
-0.24716146 -1.1838878 4.002985
0.18145518 -0.88962185 4.4867253
-0.82635492 -0.64506811 3.4910657
-0.47998914 -1.4328917 3.5428572
0.10793015 -0.22219382 2.5693312
0.029844485 -1.2746657 4.1800418
-0.97771084 -0.52189475 3.5750606
-0.22654462 -1.532024 3.8189607
0.58359045 -0.37713051 2.2679822
-0.89574522 -0.55188143 3.6202123
-0.30101138 -0.5904091 3.1440151
-0.36619902 -0.048119605 2.1984429
-0.34655699 -0.24068332 2.6750352
-0.85779804 -0.16509065 3.0475318
-0.34828535 0.73875374 2.4844081
-0.53086179 0.48073927 2.6920555
-0.21387574 -0.23172498 2.4858322
-0.39903578 0.57262892 2.6294289
-0.22301272 -0.80581659 4.2430844
-0.26217759 -1.3403631 3.7569046
-0.24884541 -0.18648779 2.6390975
-0.074352786 -1.2582242 4.1330075
-0.079797931 -1.25202 4.1397858
-0.13584095 -1.369858 3.9596343
0.012176853 -1.3206836 4.1509151
0.0052849231 -1.3045014 4.1527929
-0.2516937 -1.3279257 3.589926
-0.043099619 -1.3134923 3.902313
-0.047911752 -1.3151085 3.9019241
-0.32534459 -1.0872607 3.8863182
0.044007022 -1.336079 3.9274378
-0.27923605 -1.3212119 3.7601132
-0.87973922 -0.43336493 3.5430045
-0.9472723 -0.78496063 3.7024217
-0.87813443 -0.42114484 3.5405803
-0.11367806 -1.0940621 4.2114491
0.081403896 -1.3479434 3.9625876
-0.41632843 -1.5381935 3.4074833
0.18039893 -1.2927163 3.8752813
-0.22746322 -1.5304559 3.8178363
-0.08198823 -1.0576295 4.2510324
0.0090799388 -1.1111593 4.2736549
-0.35509592 -0.70974988 4.1421351
-0.044317767 -1.0143936 4.2980771
-0.9436993 -0.78483015 3.6971552
-0.41402081 -1.1604304 3.7878244
-0.51505262 -1.2304597 3.4803591
-0.33711186 -0.7164104 4.1699085
-0.40883645 -0.77984315 3.3332753
-0.38136315 -0.89452457 3.3143489
0.062886134 -1.0466992 4.3424463
-0.50352609 -0.36282209 2.9708681
-0.71108919 0.034461219 3.5620122
0.38785186 -0.77083814 4.5554719
-0.47031 -1.5062257 3.4366274
-0.64529043 -0.00046197113 3.5563769
-0.64491665 0.013889397 3.5569668
-0.18408003 -1.1816498 4.1219716
-0.24808477 -0.31540897 2.909085
-0.21705726 -0.27186289 2.6374204
-0.51702547 -1.4551972 3.37163
-0.19312732 -0.24517909 2.6067111
-0.22629954 -1.548233 3.8083689
0.058831841 -1.3893287 4.0542517
0.02692553 1.1757338 2.512763
-0.44710883 0.51012629 2.7036352
-0.43854597 0.486101 2.7003381
-0.90719682 -0.23838994 3.1000838
-0.41597468 -0.10779976 2.3418005
-0.30534345 0.043094009 2.2773156
-0.42411372 -0.61317849 4.1524544
-0.041658219 -1.3243328 4.119627
-0.11307091 -1.0977139 4.21106
-0.95761496 -0.49830049 3.552511
0.053242598 -1.3550938 3.9725299
0.019908644 -1.2105788 4.2238512
-0.95552808 -0.38170251 3.5186932
-0.24795909 -1.0355835 3.986599
-0.23642258 -0.94471061 4.1615624
0.060612887 -1.4038752 4.0055761
-0.15965927 -0.959117 4.2583008
-0.25009969 -1.3465012 3.9870553
-0.6884886 -0.69236827 3.4133041
0.057497159 -1.0803722 4.3169875
-0.73470473 -0.79744458 3.3113832
0.10722544 -1.3221751 3.8667912
-0.51734555 -0.52445233 3.1756485
-0.22892776 -0.73142385 4.2790275
-0.45213804 -0.84123695 3.3634186
-0.36574876 -0.70495898 3.4920511
-0.3103801 -0.66631013 3.3913672
-0.46736339 -1.5065217 3.4373832
-0.68467849 0.061398428 3.5900416
-0.43706542 0.47664437 2.684772
0.1477304 0.018556545 2.0887206
0.43486768 -0.087247811 2.2619648
0.28048077 -0.16545667 2.3209035
-0.076295286 -1.2581875 4.134932
-0.11983773 -1.0089251 4.2837825
-0.25500074 -0.79091817 4.1332912
-0.25372267 -1.0512546 3.9508016
-0.25655138 -1.0510919 3.9596505
-0.54468727 -1.4284596 3.4404485
-0.25014293 -0.65279961 4.2234602
-0.96302098 -0.64172894 3.6129565
-0.18971527 -0.19735175 2.642679
-0.084766179 -1.056115 4.2505388
-0.24960788 -1.142248 3.8991284
-0.25638488 -1.1259847 4.048985
-0.40781179 -1.2336223 3.7245445
-0.33821359 0.25271103 2.4041917
-0.30562785 0.26919156 2.4672387
-0.06130188 -0.40089709 2.9428413
-0.30387571 0.2692821 2.4648824
0.25880182 0.062780067 2.0406816
2.5229528 1.2841867 -0.26435453
-0.41741848 -1.1632112 3.7895172
-0.4180415 -0.85663486 3.9879503
2.5585921 1.2201446 -0.22921453
2.5758832 1.1857328 -0.3244825
-0.48158494 -1.4713011 3.5070243
2.3645658 1.8387223 -0.23710556
2.522135 1.2295911 -0.26642048
2.3392043 1.8604469 -0.10427302
2.4320993 1.8032533 -0.11148223
2.4584882 1.3225287 -0.33997682
0.059486631 -1.0672355 4.3267474
-0.76984543 -0.87269181 3.7991085
-0.41373059 -0.72077709 4.0850964
0.24986827 0.0027575113 2.1310053
2.4655657 1.1213622 -0.22198205
2.3801768 1.2260765 -0.42060411
2.5145283 1.7080336 -0.76497215
3.3400624 2.910002 -1.3188752
2.175216 1.6923964 -0.64888996
2.2202528 2.0445738 -0.33543682
1.8059764 1.2382411 -0.1473331
2.1370747 1.6719052 -0.52742404
1.4978476 2.095655 -0.30246451
-0.43135664 -1.4442264 3.5648115
2.2338467 1.9483955 -0.4068971
1.7245604 1.5365145 -0.66253054
0.30158916 0.077693895 2.0661721
2.0462894 1.2439784 -0.48365635
2.4082394 1.3877076 -0.4782688
2.2226782 1.2969688 -0.65558666
2.1280584 2.0646908 -0.57809091
2.2030625 1.5282024 -0.68051916
-0.0043002027 -1.2585618 4.1807637
7.8284717 0.29911047 1.9234461
1.7579561 2.0934634 -0.41294777
7.4768014 -0.16212639 1.8716435
1.2417009 1.391631 -0.35115734
1.4466616 1.2350127 -0.71986866
1.2650611 1.4303205 -0.53396308
1.0519137 1.5127993 -0.52698117
6.7389431 0.32059404 2.6541097
1.0452909 2.0810289 -0.42437053
2.0630205 1.8632849 -1.1288879
1.4364277 1.329651 -0.63340968
1.2433167 1.612132 -0.43679926
-0.31748062 0.34315428 2.4676104
2.783978 1.5908011 -0.68444347
1.4654216 2.0480566 -0.24912116
2.0029733 1.8292241 -0.74405897
1.3297858 1.3679692 -0.56625772
1.2078519 1.3743461 -0.56923372
1.2432113 1.8474736 -0.56079471
2.3537452 1.4053886 -0.57059848
2.135442 1.5888989 -0.76661104
1.9053282 1.2170805 -0.25300142
0.84756041 1.4687895 0.1382823
1.5815431 2.1735468 -0.4168157
1.2469925 1.5658946 -0.40679103
0.85410649 1.4223871 0.34901148
1.153645 1.3244032 -0.86209679
1.5298357 1.5148005 -0.62081397
1.1184195 0.83284891 -0.11592773
1.4315588 1.4965714 -0.74565667
2.0875897 1.401687 -0.98600256
1.0968868 1.4379588 -0.68668002
1.1640806 1.6217279 -0.51970184
2.2329185 1.4170783 -0.70280808
2.1776462 1.6575578 -0.63983613
1.4372952 1.6185292 -0.52297527
1.5846334 1.3653566 -0.71247482
1.2474244 2.0389872 -0.34299293
1.1906251 1.7967571 -0.44140452
1.4909459 1.7496521 -0.4600693
1.5027908 1.6425606 -0.52428913
2.008486 1.6173251 -0.89915627
2.0945408 1.4708858 -0.89468503
1.2931412 2.3001764 -0.81013143
1.5159276 1.5036439 -0.80140454
1.0679512 1.7608006 -0.64009845
1.1268762 1.2776643 -0.78543597
1.2220119 1.2583106 -0.76935458
1.5351609 1.8420131 -0.66144699
2.5788195 1.2477628 -0.2686758
