# .PCD v0.7 - Point Cloud Data file format
VERSION 0.7
FIELDS x y z
SIZE 4 4 4
TYPE F F F
COUNT 1 1 1
WIDTH 544
HEIGHT 1
VIEWPOINT 0 0 0 1 0 0 0
POINTS 544
DATA ascii
-0.3283225 -0.49571276 3.0860698
-0.33424637 -1.3706145 3.5981092
0.34278134 -0.15617985 2.3674641
0.20872505 0.0068016914 2.2091017
-0.20832258 -0.15472499 2.4341342
0.022085493 0.17549817 1.912466
-0.23792662 -0.34175089 2.8101633
0.014566242 0.12963346 2.044961
-0.38303605 -0.9247297 3.2190661
-0.017507233 0.099144116 1.9764121
-0.44821364 0.10162146 2.2065425
0.37186241 -0.27985728 2.1913552
0.024362633 0.10816592 2.0491865
-0.15878014 -0.054567575 2.3067179
-0.89717561 -0.83717465 3.7005763
0.35290796 -0.13999768 2.4511123
-0.0044049993 -1.0766877 2.6396277
0.32458344 -0.26995969 2.0644898
-0.34492537 -0.6368646 4.1019578
-0.89647031 -0.82479668 3.7026892
0.18056624 -1.4080424 3.9948299
-0.18765984 -0.67282581 4.1882873
-0.16790067 -1.4029567 3.6509478
-0.18952703 -0.23435543 2.6060259
-0.14830248 -0.89145285 4.1199746
-0.26971462 -0.12955895 2.3550448
-0.54617685 -0.36072043 2.8712404
-0.46269852 -1.4637648 3.3151975
-0.27364007 -0.21149929 2.5283432
-0.29044855 -0.22048587 2.549176
-0.4961732 -1.3784373 3.4343193
-0.16026817 -1.1321087 3.976088
-0.3417283 -1.11936 3.7639005
-0.16192025 -1.1352254 3.9767263
-0.33951083 -0.73549074 4.0234642
-0.19171655 -1.6940171 3.610275
0.17713729 -1.367111 4.035851
-0.34048566 -0.98576152 3.8510351
-0.90136629 -0.82751125 3.7045486
-0.48268229 -1.4757229 3.3280222
-0.15546682 -0.91234022 4.1147094
-0.52484667 0.12338182 2.4733548
-0.47098714 -1.2394351 3.4812675
-0.34565982 -0.87340152 3.9404871
-0.70542109 -0.70333749 3.3827627
-0.16332987 -0.66722387 4.1605549
-0.44366947 -0.86623806 3.6897118
0.043871172 0.03984303 2.0156062
-0.21360078 -0.14416285 2.4001052
-0.27248108 -0.2799671 2.5161057
-0.46183041 -1.4795866 3.4081998
-0.16075613 -0.21738139 2.5133421
-0.39703855 -1.5159166 3.4451394
-0.32411465 -1.2888088 3.5384555
-0.48149011 -1.4605318 3.39819
-0.059567276 -0.21515854 2.5284002
-0.33665577 -1.226032 3.6795065
-0.59237897 -0.91081297 3.7821538
-0.46505177 -1.4800582 3.4099636
-0.33958104 -0.98716187 3.8593869
-0.1675263 -1.2944131 3.7252853
-0.17044799 -1.399963 3.6491487
0.065730684 -1.3248786 4.0195923
0.02174313 -1.2947724 4.0251594
-0.3407492 -1.1300025 3.7636721
-0.69942111 -0.7648716 3.3556781
-0.012808103 -1.0271689 4.1628957
0.23672535 -1.3874649 3.9567122
-0.33985996 -0.88097894 3.935828
-0.34389111 -1.1261667 3.7641354
-0.30656016 -1.2962526 3.5361679
-0.23451713 -1.3188525 3.6793406
-0.13321537 -1.3269707 3.9308147
0.11415182 0.071151443 2.0230823
0.039543148 -1.1200457 4.129776
0.11770226 -1.2847482 4.0684953
0.088495217 -1.2896972 4.0475173
0.047444634 -1.2194432 4.0746098
0.064843684 -1.2588074 4.0640063
-0.051302712 -1.0782899 4.1168685
0.055832509 -1.3246392 3.8712344
-0.14619973 -1.3221352 3.549932
0.061596449 -1.3256634 4.0174952
0.12631702 -1.3309284 3.8280158
0.026148297 -1.2543751 4.0458608
-0.12130438 -1.3192334 3.9315863
-0.74268723 -0.78068966 3.352263
-0.32847935 -0.17510714 2.5071146
-0.07571999 -1.32178 3.9683545
-0.25210246 -1.1016082 3.8230703
-0.18948919 -1.4601927 3.7558026
-0.16521648 -0.66988945 4.1601944
-0.19166185 -1.4611346 3.7563422
-0.15912674 -1.1310598 3.9749954
-0.45941406 -1.2306062 3.4758708
-0.12302081 -0.79252887 4.1890521
-0.12820528 -1.2978024 3.5443313
-0.35001501 -0.94784153 3.8676841
-0.35282019 -0.95296067 3.8698244
-0.3394576 -0.88436419 3.9337621
-0.17001417 -1.053809 3.892231
-0.30736732 -1.2930269 3.5227921
-0.4819597 -1.4829015 3.3376102
-0.14730442 -1.3502563 3.9186609
-0.46651927 -0.85327578 3.8070433
-0.32737559 -1.3707626 3.6117935
-0.34798098 -0.22661869 2.5600748
-0.17170665 -1.6974888 3.6151752
-0.46698698 -0.85548276 3.81216
-0.16456173 -0.90840578 3.9903452
0.1787454 -1.3814034 3.9476142
-0.053510729 -0.95877081 4.1766529
0.063585058 -1.0983565 4.1589665
0.080501057 -1.0815707 4.1740441
0.24151598 -1.3787107 3.95276
0.096069045 -1.1622282 4.1262546
0.10046746 -1.0265664 4.1642132
0.17572789 -1.082715 4.208715
-0.16027868 -1.1336827 3.9772549
-0.35468763 -1.3446033 3.5860047
-0.30919766 -0.31994224 2.5258887
-0.27974191 -1.5313134 3.4319184
0.29751945 0.053719476 2.1317627
-0.19791678 -1.6977649 3.6162498
0.18230253 -1.3529352 3.8676286
-0.22013664 -1.4973679 3.4520326
-0.41315851 -1.5105506 3.3695886
-0.17269665 -1.4428254 3.7571633
-0.14450546 -1.3280735 3.8583281
-0.33185607 -1.3600926 3.5906706
-0.3396076 -1.0031812 3.8472993
0.06806688 -1.2619973 4.0635705
0.11886328 -1.2988139 4.0634036
0.074796014 -1.2636825 4.0667806
-0.0049755555 -1.0987118 4.1252074
0.20067404 -1.3962026 3.9979408
0.14112507 -1.2744695 4.0727201
0.035576627 -1.185059 4.0893517
-0.16858086 -0.91721886 4.0957756
-0.05634217 -1.024228 4.1527686
0.069751531 -1.2048531 4.0908771
0.051735163 -1.1298139 4.1309643
-0.059484001 -0.95785308 4.1774821
-0.057615019 -0.98649466 4.1766686
0.12030601 -1.2911638 4.061976
0.14195067 -1.1998607 4.1217093
-0.052594204 -0.98419714 4.1828222
0.036940135 -1.3232005 3.889395
0.034599803 -1.0716105 4.1594901
0.11969956 -1.1490084 4.1441989
-0.34887788 -1.5213139 3.4450696
-0.28303415 -0.60759413 4.1602244
-0.44916242 -1.2974596 3.4798422
-0.75718361 -0.65992373 3.3779747
-0.16693519 -1.3950615 3.6474345
-0.57943743 -0.9201321 3.8134053
-0.30925763 -1.3592814 3.6076648
0.48546383 -0.79443783 4.5105786
-0.45945999 -1.3523982 3.4787281
0.033189714 -1.1838408 4.0895834
0.014341529 -1.2722054 4.0303059
0.014913335 -1.2694681 4.0311656
0.16381028 -1.3832515 3.9878259
0.15592098 -1.3417742 4.0457072
0.039374504 -1.2302543 4.0757437
0.049036518 -1.2258878 4.0757737
0.034161411 -1.1892271 4.0897598
0.17770186 -1.3728433 4.0348034
0.17669794 -1.3714707 4.0346842
-0.34360602 -1.24015 3.6758413
-0.19358729 -1.6938554 3.6095257
-0.34121969 -0.74124748 4.028348
-0.057768673 -1.0093075 4.1533051
-0.13801904 -1.0249064 4.0418668
0.16532591 -1.384136 3.9438369
0.14852896 -1.253878 4.0998526
-0.17903243 -1.1886612 3.8106277
0.071642019 -1.3026321 3.8331046
-1.0401492 -0.31131127 3.4797907
-0.33079049 -0.72450715 4.0358701
-0.31786525 -0.7398715 4.0489206
-0.12307131 -0.8075425 4.1846662
-0.12464984 -0.78885633 4.1923203
-0.91596258 -0.5038482 3.5569663
-0.95980465 -0.48316318 3.5587687
0.035354104 -1.3149897 3.8048079
0.21285963 -1.3711557 3.8933651
-0.26340881 -1.5247692 3.4242699
0.060553927 -1.0476084 4.1908789
0.08635556 -1.2942418 4.0449448
0.089528635 -1.3359519 4.0273862
-0.056477848 -1.0810566 4.1117587
0.1880485 -1.3854041 3.9088485
0.12528296 -1.160005 4.1575766
0.22261651 -1.3382221 3.7931709
-0.16559881 -1.6869003 3.6077001
-0.36254853 -1.3596032 3.5970888
-0.15391754 -1.7059321 3.6148698
0.19374801 -1.3988905 3.9964678
0.18362713 -1.0113765 4.2464237
-0.94286722 -0.50044727 3.5621152
0.30438671 -0.88255703 4.3712635
-0.42042491 -1.4492699 3.4897749
0.14252849 -1.2715564 4.0749855
0.12189296 -1.3341175 3.8280315
-0.37853909 -1.3987902 3.529767
0.1510748 -1.3549408 3.8613708
0.033613406 -1.1126593 4.1815691
0.079500027 -1.2733582 3.8033326
0.21521144 -1.3688623 3.8833933
0.061632417 -1.2312046 4.084024
-0.43729985 -0.24180387 2.6330247
-0.52546459 -0.037470851 2.2528725
-0.53972512 -0.089542493 2.2977581
0.13779186 -1.2006632 4.1233673
-0.91136497 -0.19768204 3.0562868
-0.3210001 -1.5459522 3.4018509
-0.65588439 0.46859542 2.6805861
0.10670906 -1.2585386 4.0632377
-0.53599989 0.56805331 2.6065607
-0.67843032 -0.64959222 3.3466799
-0.60394657 -0.72163534 3.340899
-0.55814564 -0.6683138 3.2138655
-0.56102937 -0.70602363 3.2495241
-0.3220931 -0.4887982 3.0853534
-0.33556196 -1.0015088 3.8417006
-0.17190792 -0.90805405 3.9965892
0.067409523 -1.2583129 4.1308947
0.063562967 -1.3241711 4.016768
-0.039514363 -1.3728646 3.8708048
-0.167035 -1.7329788 3.6042771
0.063936539 -1.2848611 4.0446396
0.1243961 -1.3181092 4.0470181
-0.16426352 -1.0393124 3.9128931
-0.19425222 -1.3328989 3.5153849
-0.18869339 -1.325421 3.503943
-0.24979237 -1.0998859 3.8216734
0.053013906 -1.1717714 4.106751
-0.0061923279 -1.0991842 4.1236959
-0.17110707 -1.2909333 3.7480381
-0.45374355 -1.2235527 3.4803464
-0.057764214 -1.0655586 4.1186996
-0.36546907 -1.5494925 3.3469377
0.10645516 -1.2561011 4.0806384
0.076066636 -1.1584811 4.1219139
-0.2113657 -1.7266055 3.5964258
0.027425483 -1.0615791 4.1604943
0.12763394 -1.3987085 3.9900055
0.035293739 -1.2702359 4.0397611
0.1229562 -1.1104631 4.1729388
-0.27288705 -0.72743714 4.0854735
0.17477667 -1.3519639 3.780103
-0.34410378 -1.1765193 3.7313907
0.077853709 -1.084298 4.1799188
-0.47203436 -1.2482779 3.4345222
0.077661805 -1.3156781 4.0315132
0.18006223 -1.0440342 4.2370367
-0.72401452 0.0179883 3.5506978
-0.55696613 -0.37546998 2.9410629
-0.72374904 0.0034582478 3.556664
-0.37106973 -1.5537275 3.3534977
-0.41779476 -1.5207663 3.381897
0.11521398 -1.1997645 4.1115441
-0.65649784 -0.037834108 3.555196
-0.65714759 -0.02786204 3.5438521
-0.65745646 -0.013518728 3.5446417
0.10609183 -1.2305359 4.0929499
-0.47342679 -1.471544 3.322794
0.16449009 -1.3830737 3.945014
0.56308681 -0.79354447 4.4239998
0.10637128 -1.1367605 4.1129394
-0.56360435 0.47874665 2.6796262
-0.41318443 -0.76752865 3.3023012
-1.0320191 -0.10443583 3.5116224
-0.26350266 -0.78536958 3.0186083
-0.20976076 -1.3490838 3.5201516
-0.38718864 -0.12007361 3.8187943
0.0087587181 -1.2738029 4.030458
-0.19382262 -1.4844662 3.7570004
-0.52440089 -0.035056692 2.2481258
-0.54689687 -0.1089777 2.310739
-0.47681549 0.098942891 2.1237307
-0.48267633 0.20510483 2.4396019
-0.50203717 0.14441425 2.4547584
-0.45130062 0.048295598 2.2379863
-0.90226912 -0.22576039 3.0666835
-0.13236137 -1.3366593 3.9174569
-0.34539092 -0.63478357 4.104301
-0.59171253 -0.73446047 3.3046491
-0.85249084 -0.41090339 3.5673497
-0.81125212 -0.38186765 3.5525579
0.50802839 -0.78123868 4.5107431
0.53600496 -0.81522232 4.4219851
0.5568676 -0.79626113 4.4256358
0.56073487 -0.72587574 4.4113307
-0.81880331 -0.70943338 3.45505
0.55315953 -0.73125309 4.3707504
-0.93558949 -0.0747656 3.6091499
0.55215764 -0.73673081 4.3713274
-0.93086123 -0.086603969 3.6140943
-0.13114198 -1.4050708 3.833235
-0.94953328 -0.42455113 3.5311956
-0.16540898 -1.0453323 3.91451
-0.013522849 -1.0007801 4.1775026
-0.14089857 -0.95598567 4.088922
0.16207583 -1.3969469 3.8961697
-0.054084744 -0.96741092 4.1771908
-0.94311827 -0.65328121 3.6080236
0.15693095 -1.3530607 3.8631585
0.10058501 -1.1132133 4.1639156
-0.70514733 -0.77434826 3.3579268
0.16494587 -1.395677 3.9268615
0.17386404 -1.0776519 4.211689
0.1901055 -1.3113072 3.754787
0.47809315 -1.0597802 4.0271111
-0.1325441 -0.74396092 4.2085929
0.14905681 -1.4128506 3.9244204
-0.34961185 -0.71577173 3.4399326
-0.92375338 -0.25869003 3.1007617
-0.89238143 -0.37033662 3.0217617
-0.85251284 -0.40683872 3.017767
-0.4147754 -1.5209143 3.3823476
0.14721696 -1.3120677 4.0609531
-0.69605762 0.031434409 3.582341
-0.42847812 -1.5188297 3.3296099
-0.32410678 -1.3093023 3.5318627
-0.3296113 -1.5285926 3.442467
0.18133828 -1.3538892 3.8250046
-0.5632236 0.46956068 2.6638339
-0.019017328 0.049964909 2.0043745
-0.28667477 -1.3311665 3.6391456
-0.33928511 -0.99664432 3.8419983
0.18843302 -1.3858701 3.8942719
0.20396379 -1.3574456 3.8277643
-0.009370327 -1.0153272 4.1976976
0.11216211 -1.4023784 3.8452234
-0.13860147 -1.2131495 3.9322653
0.056196954 -1.242741 4.0644159
0.22667678 -1.3407551 3.7942574
-0.359795 -1.5455291 3.341923
-0.87888688 -0.50113481 3.5572023
-0.70798123 -0.77059793 3.2744024
0.17735124 -1.3741356 4.0359197
0.22462244 -1.3344817 3.8047156
-0.17395557 -1.0608758 3.8792169
-1.03313 -0.11494146 3.51282
-0.68388778 0.040508829 3.5703003
-0.55737323 -0.47598046 2.9906924
-0.23199257 -0.32574934 2.8509657
-0.30194029 -0.2570112 2.6137738
-0.32528883 -0.18445897 2.5257542
-0.13439207 -0.23972276 2.5717194
-0.092008114 -0.25839162 2.5686343
-0.22527741 -0.15239233 2.4006944
-0.21626446 -0.15688573 2.3930457
-0.49531224 -1.4470999 3.3944848
0.31881297 -0.8595776 4.3720908
-0.16330838 -0.66594011 4.1567674
-0.93401432 -0.68567187 3.6213655
-0.50065368 -1.3790979 3.4365566
-0.16562691 -1.4035577 3.6510036
-0.92515606 0.067525201 3.4531741
-0.28698981 -0.18985365 2.5857811
0.024537418 -1.0602083 4.1603079
-0.17041306 -1.1509254 3.8258748
-0.48758814 -0.01524685 2.3154092
-0.33531386 -1.2261989 3.6957893
0.55216265 -0.73020583 4.4121466
0.31107286 -0.96724534 4.3194551
-0.18999651 -1.0792946 3.989116
-0.34247401 -1.1032984 3.7660911
0.038960215 -1.0309074 4.2191429
-0.34057507 -1.2485496 3.66659
0.29995248 -0.71312058 4.47229
-0.61487186 -0.70358139 3.376699
-0.88914847 -0.37511402 3.0228534
0.11231051 -1.0665323 4.2121401
0.90090358 -0.43159881 2.9231513
-0.13185917 -1.3304017 3.9249897
-0.15445495 -1.329199 3.8979094
-0.23125444 -0.34159118 2.8112602
-0.34347856 -0.8756758 3.935966
2.0792913 1.404098 -0.5239284
1.9194221 1.4500358 -0.65840936
-0.42366186 -1.4872968 3.4536462
1.8538268 2.011574 -0.50189298
1.8519232 2.0247419 -0.51723927
-0.71131355 -0.90818995 3.7832398
-0.33635429 -0.74090213 4.0344472
2.1108606 1.2794603 -0.48122987
1.7951 1.6354078 -0.80510944
1.8300778 1.5524424 -0.80779785
1.882328 1.4027582 -0.69626766
1.8754165 1.5982206 -0.6735273
1.5100303 2.2348523 -0.67191643
1.5659714 2.2440948 -0.8328411
1.4356542 1.8908187 -1.0294399
1.6315114 1.8601452 -0.89492762
0.33093044 -1.3295044 3.8655102
1.338925 1.3813454 -0.36644086
0.23717299 -1.3840116 3.8897653
1.5668542 1.7208446 -1.0725143
-0.3692981 -1.4582621 3.5065315
1.7010899 2.1161032 -0.65580839
0.12850821 0.11742724 1.9674526
1.8960291 1.5662993 -0.75374776
1.6983773 1.4678912 -0.91298902
1.664438 1.6980308 -0.93194425
1.5613148 2.2962451 -0.7566784
7.5806742 0.73903793 1.0718057
1.220193 2.2358072 -0.61151206
7.2498183 0.26043621 1.0479331
0.74974066 1.5069406 -0.50985354
0.82233751 1.4054973 -0.98799717
0.92407435 1.3656377 -0.89988869
1.5749888 1.7647669 -1.149729
0.5785076 1.7161634 -0.79692376
0.50055623 2.3113823 -0.82188714
0.75242472 1.5489051 -0.69340819
0.61000419 1.650023 -0.57377172
0.5371148 1.6198868 -0.66363358
6.5711675 0.69438165 1.908649
2.8200996 3.8659956 -2.6181638
0.35322452 2.1895869 -0.64341265
0.51163477 2.1857543 -0.55137336
1.6768818 1.7433152 -0.98780173
0.55897081 1.8936095 -0.72759914
1.4495269 2.1994185 -0.79511517
0.50414985 1.690647 -0.95834678
0.68109256 1.4880092 -0.7185142
1.5696136 2.2249734 -0.80239755
1.1613009 1.6933166 -0.85570782
1.4625781 2.0303345 -1.3582697
0.60748196 1.6570872 -0.81371826
1.7994539 2.044939 -0.56828505
1.7075266 1.6051388 -0.98111296
0.91779041 1.4586042 -0.81126571
0.73129481 1.7281839 -0.59151763
0.97887582 1.7769183 -0.7143144
0.52015787 2.288162 -0.64952266
0.56539637 1.8706765 -0.71475601
0.46528965 1.2602512 -0.66450828
0.75255674 1.6244024 -0.60859519
-0.45954317 0.34509167 2.4335358
2.2379589 1.7913678 -0.99325269
0.41346395 2.0792933 -0.43514001
0.94850361 2.1730881 -0.4198651
0.71839273 1.9875604 -0.41051576
1.443684 1.9887338 -0.96997666
0.81667125 1.4904454 -0.73309153
0.69489789 1.4903853 -0.72367591
1.5027646 2.6510799 -1.2608557
0.54203349 1.8100337 -0.69347596
0.70648617 1.964594 -0.71091348
1.831618 1.582124 -0.83981627
1.6344503 1.8496733 -0.90792513
0.93195534 1.4344568 -0.83972639
0.77158523 1.6703417 -0.69631922
1.5780509 1.7340909 -1.0393608
1.4280126 1.3666914 -0.48190948
0.75486034 1.6062319 -0.61795521
1.0404029 2.3064682 -0.59626722
0.6187796 1.8953283 -0.15861739
0.74037272 1.6818656 -0.56281036
1.3920225 1.8071244 -0.93199801
1.1989756 1.6369431 -0.81992674
0.43404564 1.5090914 0.22617885
1.0023218 1.6482873 -0.80503321
1.2302967 2.1623526 -0.69168586
0.25253034 -1.3765581 3.8865187
0.67991656 0.93975288 -0.27280635
0.89296818 1.6263068 -0.91964114
0.99778354 1.2119268 -0.38675845
1.5252737 1.5690809 -1.2263342
0.93936908 1.4966016 -0.76126826
1.2373703 1.5941318 -0.86103237
1.455286 1.9786292 -0.96367031
0.39463806 1.9715691 -0.9093737
0.19798246 1.8685371 -1.1432722
7.8523221 1.2399722 0.6886332
-0.91985959 -0.29118568 3.1149642
0.35146236 1.7870469 -0.98837674
7.3794303 1.0750127 0.87531102
0.51328826 1.7302028 -0.80456501
7.7173986 0.76281106 0.46949768
0.56946784 1.5493691 -0.82827842
1.7714926 1.5286237 -0.77782947
8.0503864 1.3919828 0.66634637
0.64367479 1.7345161 -0.6658541
1.6975712 1.5889076 -0.95898253
4.0062127 0.034327451 1.976491
0.93577629 1.3726413 -0.89689988
7.094028 1.0569667 1.3056005
-0.78212857 -0.70596004 3.3493237
1.6366401 1.8253829 -0.88674909
0.91495001 1.7458385 -0.69665557
0.51405013 -0.77231902 4.3773761
2.4741833 2.0372386 -1.4217815
-0.94423807 -0.011299811 3.4936748
1.0551792 1.5030169 -0.90423316
0.72287321 2.1535544 -0.49146366
0.85548979 1.7801222 -0.85625565
0.56704301 1.9284948 -1.0124048
0.75788796 1.5641 -0.69211048
1.9869565 2.4142587 -1.5098463
0.54383522 1.8916953 -0.96984297
0.66895801 1.9097978 -0.58770424
1.2681623 2.2208612 -0.76261616
0.65143412 1.4337617 -0.64350653
0.96786761 1.8788913 -0.63727981
7.4796476 1.90864 0.15662643
7.662127 1.9874907 0.057132933
7.9323378 1.7912539 0.18518206
0.14912161 1.6752707 -1.2407479
0.22906159 2.4657433 -0.96460164
0.73669344 1.5080057 -0.63820779
0.28652611 2.3124542 -1.3899415
0.94463497 2.1700935 -0.4279702
0.33049333 2.4133296 -1.7392927
0.056414299 0.17483774 1.9941696
0.27404827 1.6844299 -0.55866975
0.98639351 1.6202092 -0.85297567
0.80062264 2.0538321 -1.0336581
6.0645409 0.86115932 1.1572973
0.3227472 2.2354105 -0.65499759
8.1259222 1.7328355 0.28063464
0.28920913 2.2220366 -0.83563304
0.65133178 1.5641167 -0.66462493
0.57473946 1.3592371 -0.42136049
0.59751827 1.3920307 -0.93222189
0.27605495 1.8942313 -1.1694148
-1.0350803 -0.28381026 3.1245263
0.17525738 -1.0634463 4.2241592
-0.091623738 0.30000442 1.776029
7.6574163 1.6877729 0.30299205
0.61459011 1.4615378 -0.54904568
0.48576489 2.9120817 -1.6211616
0.30514368 1.4238306 -0.79404974
0.59336114 1.8823581 -1.1875479
0.85591692 3.0770802 -1.5128895
0.42493433 1.9297411 -1.0910974
-0.47076294 -0.83750588 3.8052192
0.07362432 -1.1608548 4.120647
1.8396735 1.7652692 -0.74522603
