# .PCD v0.7 - Point Cloud Data file format
VERSION 0.7
FIELDS x y z
SIZE 4 4 4
TYPE F F F
COUNT 1 1 1
WIDTH 834
HEIGHT 1
VIEWPOINT 0 0 0 1 0 0 0
POINTS 834
DATA ascii
0.044385087 0.39729282 1.1243358
0.044385087 0.39729282 1.1243358
-0.11587586 0.30464381 1.1817108
0.34373257 0.38707241 1.1755644
0.10226554 0.38542634 1.1336445
-0.19983998 0.39695787 1.1636457
0.30670771 0.35259953 1.2077627
-0.44057712 0.44472262 1.089492
-0.20716566 0.46915415 1.0606514
0.27206004 0.42110658 1.1369596
-0.401555 0.46849766 1.044241
-0.401555 0.46849766 1.044241
0.10101885 0.41869122 1.1086473
0.22522111 0.39735228 1.1469371
-0.082965955 0.23913139 1.2080902
-0.012291725 0.36930835 1.1904737
0.31008989 0.35449728 1.2146628
0.31008989 0.35449728 1.2146628
-0.072304465 0.30033031 1.225953
-0.49983576 0.37654358 1.1597531
0.1452426 0.32693142 1.3201625
-0.45515826 0.34175631 1.219927
0.37983552 0.28626147 1.3019348
0.37983552 0.28626147 1.3019348
-0.41343138 0.43544206 1.1039904
-0.1970201 0.3176209 1.1055188
0.16748324 0.37661269 1.1500733
0.022409638 0.24699536 1.395594
-0.61352903 0.24551545 1.325212
0.099817999 0.45224708 1.073058
0.099817999 0.45224708 1.073058
-0.65404058 0.20212525 1.3901116
-0.65283996 0.1999681 1.3869048
-0.44571611 0.097541779 1.4704245
-0.33813441 0.059556354 1.6341857
-0.18459751 0.020726241 1.4436669
-0.78849638 0.034352884 1.6064454
-0.2648595 0.40531847 1.1096658
-0.31508976 -0.10733338 1.8954966
-0.039427742 0.44001174 1.119254
-0.2529158 0.33031332 1.0550566
-0.25566557 0.35055557 1.0697019
-0.41036871 0.10805757 1.4342387
-0.10447857 0.1786066 1.4945908
-0.10447857 0.1786066 1.4945908
-0.28727895 0.037616547 1.5606203
-0.20607136 0.12553655 1.5597885
0.08326678 0.42635649 1.1084446
0.050695695 0.37186339 1.1610119
-0.69995034 0.14968441 1.5125396
-0.45462242 0.44785056 1.0876627
-0.69165826 0.054326806 1.5523204
-0.2366779 0.017301263 1.6888652
-0.74591792 0.036099769 1.5888488
-0.43719056 0.060483191 1.6943036
-0.42895803 0.065192513 1.6711645
-0.68297923 -0.018413395 1.6634432
-0.30336219 -0.030852437 1.8173785
-0.14441483 -0.022292076 1.7942902
-0.1409221 -0.019727401 1.782672
-0.1678215 -0.080475606 1.9077102
0.10672585 0.4348745 1.0868012
-0.31055519 0.30736285 1.0843862
-0.23661768 0.48426911 1.0498679
-0.31074885 -0.030596951 1.809397
0.073444933 0.42904657 1.09551
-1.271753 -0.54933304 2.967973
-0.10445207 0.44695231 1.1031358
-0.2024201 0.47830635 1.061693
0.18518178 0.16145734 1.2817593
0.025868749 0.2360009 1.4011945
0.32541215 0.41270101 1.1345499
0.32541215 0.41270101 1.1345499
-0.54018277 0.41529322 1.1115861
-0.1491475 0.11912884 1.5169566
-0.097210824 -0.2013213 1.4944276
-0.4924202 0.36355296 1.1759514
-0.15141271 0.28522807 1.1967206
-0.11174481 0.26360247 1.335682
-0.59341586 -0.029575195 1.7341418
-0.80001038 0.094333522 1.5127566
-0.46220961 -0.049197268 1.8404937
-0.26883745 0.081624106 1.5606287
-1.0390322 -0.29179135 2.2339752
-1.4923323 -0.44296446 2.6059463
0.021585973 0.24489826 1.3997778
-0.70087099 -0.50802594 3.2869878
-0.70087099 -0.50802594 3.2869878
-0.2081781 0.469448 1.065064
-0.2480806 0.41911587 1.113736
-0.2638149 0.1929933 1.2509094
-0.81983191 0.1754057 1.5048631
0.33254153 0.40195459 1.1569848
-0.19758154 0.31561318 1.0989163
-0.15147433 0.28712136 1.1954807
0.032858275 0.45774832 1.0686247
0.13099074 0.35729632 1.1832979
-0.42129326 0.37599516 1.1794212
-0.42524201 0.35944837 1.21336
-0.40646562 0.4280141 1.118301
-0.42228416 0.28277376 1.2925103
-0.19658601 0.076987132 1.6122217
-0.19827391 -0.044403084 1.83891
-0.45684108 0.033446394 1.703279
-0.46237412 -0.049180582 1.8402426
0.22542855 0.15772094 1.2854339
-0.18406396 0.35687405 1.1467017
-0.57635313 0.23930779 1.3445923
0.080810629 0.38772565 1.1269699
0.013934746 0.37816554 1.1495166
-0.45507395 0.44285527 1.0742707
-0.53793621 0.22732061 1.3462982
-0.60320997 0.12662661 1.5268024
-0.26260486 0.28384653 1.0694667
-0.21220264 0.22509748 1.2462496
0.26977396 0.37073898 1.1690308
0.2937896 0.32777491 1.2328496
-0.48952734 0.36119923 1.1706238
0.2124017 0.34136939 1.2051498
-0.1052123 0.25219956 1.2690228
-0.5876534 0.0083807055 1.7276803
-0.86322153 0.029405635 1.6945928
-0.27409706 0.081997119 1.5719041
-0.43739837 0.075647987 1.5380163
-0.75501776 -0.072917983 1.830345
-1.4623848 -0.24828751 2.6804793
-0.49779308 0.4029848 1.1089207
-0.40658122 0.19585229 1.3708582
-0.51799786 0.1383208 1.4634867
0.19612126 0.38246235 1.1400191
-0.37164155 0.42051935 1.1238065
-0.85973543 -0.022261035 1.7316145
-0.69632596 0.019278668 1.6150383
-0.42857966 0.35948771 1.2122447
-0.45734745 0.34301561 1.2239839
-0.44251561 0.040434301 1.6757793
-0.79455954 0.09142144 1.507767
-0.68828315 -0.02042363 1.6927131
0.020404067 0.24092801 1.3975827
-0.45997405 -0.047301117 1.8364305
0.30584547 0.35098949 1.1988419
0.29360667 0.32829469 1.2292409
-0.21308038 0.32572278 1.0593604
0.13080034 0.35707039 1.1792645
0.21672781 0.41909805 1.1040103
-0.26826093 0.052200507 1.6973556
-0.15653269 0.014214602 1.6512209
-0.37572095 0.25289044 1.2573313
-0.53474003 0.28031352 1.2714374
-0.28729281 0.017423997 1.7075373
-0.69544929 0.023967002 1.6115116
0.018695535 0.2402169 1.3992521
0.24446616 0.38997307 1.148577
-0.26141796 0.20945273 1.4009925
-0.12552768 0.11306687 1.5463604
-0.5707373 0.0601005 1.6139795
-0.15010104 0.28960714 1.1929749
-0.18012325 0.20357946 1.2143204
0.31684691 0.19213678 1.4574645
0.05428084 0.38310584 1.1847728
-0.67147863 0.14398243 1.4778098
-0.44176072 0.038945753 1.6701164
-0.75880969 0.083182283 1.5384156
-0.3679471 0.225483 1.2498348
-0.6677599 -0.50198007 3.2997169
-0.6677599 -0.50198007 3.2997169
-0.60521972 -0.029165102 1.7437148
-0.20448118 -0.02872555 1.7936665
-0.19870025 0.27015954 1.0889986
0.31905031 0.19356838 1.4556172
-0.52364337 0.136567 1.4673049
-0.2952944 0.11950159 1.4571884
-0.25058892 0.41412005 1.1084214
-0.71139014 0.02622663 1.5652032
-0.18202296 -0.13175686 1.9478477
-0.45421383 0.37522233 1.1373507
0.12498886 -0.22225741 1.5145619
0.26886421 0.33137226 1.224113
0.23541361 0.28348771 1.3378345
-0.35145885 0.28095356 1.2237217
-0.089127839 0.24440303 1.2042723
-0.14748542 0.3349677 1.194844
-0.18596868 0.3573446 1.1592753
0.30817559 0.35422149 1.2096498
-0.17418081 0.24643551 1.2098277
-0.48849738 0.38564163 1.1582817
-0.19944434 -0.28727227 2.1007061
-0.64272064 0.11990496 1.604292
0.16561963 0.42770752 1.1546086
0.16561963 0.42770752 1.1546086
-0.60724121 0.063505068 1.5344883
-0.60724121 0.063505068 1.5344883
0.17526314 0.42174223 1.1117055
0.08383695 0.44371718 1.0693748
-0.28432789 0.07945177 1.5672137
0.083086148 0.39742669 1.15403
-0.2903032 0.036413044 1.549736
0.096096337 0.42927161 1.0857925
0.096096337 0.42927161 1.0857925
-0.30870378 -0.031607956 1.816943
-0.19652215 -0.041057196 1.8335654
-0.59812695 -0.029961873 1.7381424
-0.90873271 -0.40599921 2.7893953
-0.35258919 0.46291906 1.1026748
-0.24370207 0.20924343 1.2237353
0.37383139 0.19094788 1.4685811
0.37366319 0.18736561 1.4600672
-0.33683401 0.10363463 1.4558381
-0.69777584 0.14723536 1.5203401
0.15371399 0.42064482 1.1009413
0.22368273 0.41673973 1.089636
-0.32666782 0.045961522 1.5958751
-0.3152529 0.29555568 1.0765063
-0.68662447 0.29344228 1.2425989
-0.64987952 0.23587415 1.3653286
0.28457746 0.33453205 1.1473372
-0.10852297 0.073695458 1.5329351
-0.49753425 0.40169409 1.1017134
0.33151549 0.39938661 1.1544759
0.45938638 0.29287228 1.3521607
-0.15593296 0.45129949 1.084492
-0.44072902 0.13434617 1.4073907
-0.59768856 0.18555045 1.4076473
-0.11092784 0.1120159 1.5110505
0.10789645 0.436795 1.0680621
-0.59505284 0.12892653 1.4998496
-0.41989511 0.0099348305 1.7319026
-0.47027731 0.37407437 1.1488
-0.47027731 0.37407437 1.1488
-0.26809338 0.22536956 1.3171577
0.2518169 0.33497792 1.2195717
-0.16768451 0.18464455 1.1884141
-0.17545445 0.187077 1.2177436
0.20506372 0.37366283 1.1612847
0.20506372 0.37366283 1.1612847
-0.16338335 0.32729605 1.1861762
0.3710939 0.34131223 1.2256266
0.37240365 0.34192771 1.2317495
0.37044194 0.33945942 1.2241079
-0.31449378 0.38448033 1.1419362
-0.44851285 0.41238177 1.1443219
0.22975299 0.16016389 1.2970221
0.22975299 0.16016389 1.2970221
-0.1284316 0.24715854 1.4152963
-0.068373457 0.44833514 1.1055524
-0.17529072 0.1957781 1.3719213
0.1697325 0.37190348 1.1569315
-0.18110335 0.19906397 1.3961532
-0.051345162 0.44748905 1.1470047
0.26508555 0.41320318 1.1237179
-0.1559082 0.48904887 1.0421691
-0.1559082 0.48904887 1.0421691
0.1237883 0.44954029 1.076915
-0.11531261 0.31729081 1.2786726
-0.51121438 0.39683864 1.1709509
-0.31895077 0.23877095 1.2625606
-0.45620048 0.34279704 1.2172492
-0.45620048 0.34279704 1.2172492
-0.57225764 0.2393389 1.3353182
-0.57225764 0.2393389 1.3353182
-0.43703872 0.41166195 1.133441
0.18298922 0.16175689 1.2776231
-0.33763495 0.24583583 1.2646554
-0.33763495 0.24583583 1.2646554
-0.56351471 0.28649256 1.2629199
0.25799888 0.30675125 1.511476
-0.2514945 0.347289 1.0623288
-0.38898399 0.2697286 1.3186333
-0.38898399 0.2697286 1.3186333
-0.37116116 0.24737963 1.2226526
-0.37875304 0.28924561 1.2800186
-0.37875304 0.28924561 1.2800186
-0.40433303 0.19973215 1.3693312
-0.54050034 0.22988205 1.3470205
0.026477857 0.40291321 1.1241815
-0.42507461 0.43931243 1.1291949
-0.20963076 0.2513414 1.2051622
-0.3538056 0.2321035 1.2367287
-0.082336552 0.2384861 1.2115684
-0.092259668 0.28026864 1.242456
-0.094885133 0.28302881 1.2628403
0.044428304 0.3975417 1.1253129
0.016099721 0.38113403 1.1470487
-0.24837616 0.20121659 1.355358
0.069229305 0.4483335 1.0541452
-0.046871036 0.45130214 1.1488626
-0.31640908 -0.11618559 1.9522208
-0.17140698 -0.1249027 1.910388
-0.54930776 0.14207993 1.5144072
-0.54930776 0.14207993 1.5144072
-0.42331964 0.068177916 1.6727957
-0.42476246 0.065903738 1.666522
-0.12839706 0.028346818 1.7807956
-0.29206461 0.021873808 1.701825
-0.21544918 0.32838783 1.0695043
0.27946356 0.38541564 1.1681459
0.21425307 0.37415263 1.1919148
0.21425307 0.37415263 1.1919148
-0.013864663 0.20796633 1.3336414
-0.4162021 0.40867135 1.1585451
-0.44217557 0.45041573 1.0891293
-0.29972175 0.28956732 1.0515647
-0.62425834 0.45192078 1.0647281
-0.48898789 0.36026701 1.1688621
-0.40629402 0.4286083 1.1149445
0.23029567 0.27131715 1.3131001
-0.44515154 0.24966316 1.2960831
-0.47920194 0.31291312 1.2892133
-0.5368613 0.07048063 1.6061406
0.069040515 0.36751994 1.1638293
-0.2836591 -0.63870466 2.6710954
-0.10122589 -0.65586603 2.4792218
0.03436242 -0.66989195 2.5363386
0.033622772 -0.67335778 2.5518334
-1.2530009 -0.82324725 3.2859769
-0.58666241 0.0046921936 1.728037
-0.58666241 0.0046921936 1.728037
-0.28296587 0.0049590734 1.7600102
-0.13728037 0.29307097 1.1830947
-0.14727326 0.28162667 1.1827747
-0.40196651 0.39953023 1.1239288
-0.18020615 0.29378271 1.2036175
0.29157797 0.32664967 1.227423
-0.20860618 0.36528385 1.1113662
0.031586219 0.37435877 1.153898
0.18950093 0.41325599 1.1076995
0.26159078 0.40390462 1.1358714
0.12474219 0.38411173 1.0686424
-0.10136472 0.12724242 1.5393676
-0.72747684 -0.014600676 1.6705906
-0.7775076 -0.048807349 1.798695
-0.25007784 -0.56927687 2.409827
-0.24817178 -0.45134473 2.4014585
0.20751426 0.40925011 1.1169684
1.0657564 -0.74191421 2.8407269
0.92718285 -0.98103565 3.0477536
0.4838973 -0.73056602 2.7002039
0.56822515 -0.86677784 3.1875856
-0.54121941 0.27365977 1.2794102
-0.54121941 0.27365977 1.2794102
0.10158927 -0.22852397 1.5507289
0.77263325 0.26507148 1.3034698
0.093573213 0.24051006 1.3563646
-0.36274332 0.46044749 1.074098
-0.36274332 0.46044749 1.074098
0.13568833 0.4058598 1.1271302
-0.56020939 0.22189219 1.4040864
-0.26579878 0.40733191 1.1128651
-0.20349649 -0.3132917 2.2558835
-0.66236287 -0.49187946 3.1525829
-0.66236287 -0.49187946 3.1525829
-0.15389833 0.32413349 1.1677464
-0.16112599 0.20891327 1.2016321
0.4491193 0.34316558 1.2449542
0.039101422 -0.16256577 1.5603514
0.037790392 -0.16196057 1.5656563
-0.55927587 0.14382014 1.535041
-0.31205443 0.28872377 1.0704446
-0.11649995 0.44882414 1.0990083
-0.25476295 0.29591089 1.2851512
0.67694837 0.3772414 1.2592613
-0.63626742 0.071112379 1.5564986
-0.14127037 0.35744444 1.2035068
-0.42319643 0.35852152 1.2200664
0.45934701 0.3681601 1.1784717
-0.46306455 0.25658771 1.3088351
0.43634096 -0.23736769 1.6272399
0.43457529 -0.23425063 1.6486592
0.79203987 -0.10511631 1.7858441
-0.40465975 -0.018605025 1.7064731
0.85784721 -0.16457905 1.9004992
1.0501432 -0.43614802 2.3572562
0.96459663 -0.41285232 2.4045696
0.95908862 -0.39742923 2.3511782
-0.25350472 -0.60968858 2.5465255
0.59049124 0.42263111 1.1582974
0.035868771 -0.67846084 2.5796578
-0.048920255 -0.64859229 2.6036484
1.0055202 -0.51894832 2.5516238
0.21228181 0.34239221 1.2070793
0.50144076 0.025664946 1.2969594
-0.12903506 0.28709924 1.2086743
0.56074047 0.041488558 1.4545959
0.1234327 -0.2176567 1.5095752
0.42999634 -0.28879184 1.5667261
0.42947897 -0.29053366 1.5694361
0.10606612 0.36166918 1.1736048
0.050587304 0.4144721 1.1165615
0.14575765 -0.28775144 1.5684072
1.1452682 -0.1943168 1.9458406
1.0452528 -0.23820363 2.0318079
1.1151662 -0.4752318 2.2593889
1.1550188 -0.47838238 2.3870873
1.0105522 -0.31930274 2.3081219
1.0262185 -0.36470547 2.2533405
1.4557225 -0.46773097 2.5315187
1.3084941 -0.42163211 2.2832239
0.50792581 -0.16061284 1.2474682
0.96411407 -0.39684966 2.3514795
1.3267996 -0.41182616 2.44209
1.3716946 -0.47315988 2.5007019
0.045373302 0.40056512 1.1219633
1.0140505 -0.28648674 2.2357481
1.2845021 -0.26385605 2.0067987
1.2605982 -0.25580409 1.9631373
1.2065715 -0.39960468 2.4092858
1.3978449 -0.39735666 2.3807623
1.5476178 -0.53632724 2.5076256
-0.59717011 0.45053792 1.0541885
-0.070898518 0.52245581 0.97387934
-0.072057754 0.5271759 0.99858212
-0.56741035 0.63103884 0.87505645
-0.75206655 0.56111413 0.99359709
-0.52781397 0.21056062 1.319135
-0.52781397 0.21056062 1.319135
-0.57597905 0.2247676 1.4023192
-0.57597905 0.2247676 1.4023192
-0.54722345 0.21739224 1.3729652
-0.54722345 0.21739224 1.3729652
-0.10096453 0.23121825 1.384889
0.53317595 -0.29883561 1.9840194
-0.81113166 -0.029267775 1.7349983
1.15689 -0.69750369 2.6605873
0.97970247 -0.89296591 3.0229368
0.97304118 -0.90107107 3.1840909
-0.20565774 0.46935779 1.051356
-0.36110646 0.56593025 1.1327021
0.66026264 0.31953064 1.3380558
0.64322728 0.25987339 1.3698763
0.85717082 0.30682126 1.2726247
1.1046253 -0.24531378 2.1296761
1.165729 -0.25433207 2.1089158
0.23801216 0.36619496 1.1763008
1.2014061 -0.29044136 2.2555664
1.0291001 -0.41528013 2.1990981
1.2798924 -0.38983205 2.3357921
0.69360471 -0.42885986 2.4688702
1.5674255 -0.50393832 2.5783753
0.69797289 -0.59282738 2.6815555
-0.19688636 0.28255132 1.1047693
-0.4556531 0.342893 1.2252278
-0.8819437 -0.0041694022 1.6879536
-0.87005162 -0.039138928 1.7589297
-1.1824969 0.83584267 1.6567638
-0.3617382 0.45670712 1.0727167
-0.3617382 0.45670712 1.0727167
-0.24256729 0.25709507 1.2706716
-0.11716869 0.51158136 1.0080034
-0.25424251 0.32949647 1.0557302
-0.80126417 0.16222771 1.499822
-0.14718036 -0.022350335 1.7285109
-0.30098745 -0.03726824 1.8377091
-0.50071561 0.095241897 1.5125719
-0.15595894 0.13116392 1.4938281
-0.13781765 0.51373047 0.99717546
-0.19692361 0.10365284 1.6083561
-0.90587944 0.17215793 1.4841878
-0.16922997 0.1623816 1.4213076
-0.11838643 0.11185559 1.5716161
-1.9548286 -0.31312194 3.3520138
-1.3144733 1.0010484 1.6070805
-1.4325517 0.98158991 1.5857258
-1.2461426 0.89460021 1.7637759
-1.6906848 0.80341423 1.8524739
-0.23371561 0.47919947 1.0530618
-0.23371561 0.47919947 1.0530618
-1.5206953 0.70268792 1.8971797
-0.26587659 0.24493016 1.3251816
-0.50468373 0.41020811 1.1313291
-1.8297024 0.50697863 2.3694515
-1.7444533 0.47834206 2.2354164
-2.2090454 0.16976836 2.740772
-0.40314946 0.41979229 1.131843
0.86794823 0.43324739 1.1347702
0.48536962 0.45754093 1.1204758
0.82947481 0.41009519 1.1708862
0.41358754 0.30888891 1.2529716
0.80411047 0.48262751 1.0790962
-0.16529328 0.14978239 1.4821697
0.48150083 0.45277295 1.1290036
0.89295042 0.34610704 1.1356821
-1.9353904 0.23220401 2.4390187
0.30396834 0.3568109 1.1905949
0.15059444 0.3560164 1.1919835
-1.4410119 0.7773093 1.9719806
-1.4978627 0.56866431 2.128469
-1.6732209 0.38585195 2.4934785
0.85478532 0.39236766 1.2473904
0.7946074 0.50343746 1.0544207
0.6082294 0.18189809 1.3455353
0.64745975 0.46054709 1.1677197
-0.19806306 0.25108081 1.0637424
0.54163015 0.32218468 1.2834346
0.30273741 0.2420869 1.4064541
-0.084967479 0.064013466 1.2079661
1.1993024 -0.16801491 1.9060709
0.5693866 -0.11183338 1.2187798
1.05978 -0.27914736 2.1656804
-0.26469028 0.28342772 1.0674971
1.0247546 -0.37647885 2.2574019
-0.094385222 0.052815858 1.1658764
-0.36873475 0.31040272 1.2826208
-0.34135586 0.25176737 1.1952614
-0.093282543 -0.26595169 2.1746819
-0.36245301 0.20387456 1.2006624
-0.36774194 0.30847913 1.2699395
-0.70043027 0.061169025 1.8905553
-0.70043027 0.061169025 1.8905553
-0.31884357 0.50902468 1.0395036
-0.29458705 -0.13541661 1.9141549
0.34474853 0.34947944 1.2285496
-0.23402725 0.47731471 1.0555416
0.16837005 0.34921703 1.1943164
-0.14296935 0.35251614 1.2240355
-0.14296935 0.35251614 1.2240355
0.63882262 0.36618838 1.2549568
-0.24597508 0.38818088 1.0879494
0.68240809 0.20312743 1.3366071
0.53808457 0.0969574 1.3986002
0.71562618 0.28807259 1.2377576
-0.49711013 0.38301679 1.1799839
-0.18989134 0.28030324 1.172839
-0.0695628 0.24305002 1.216153
-0.92251056 -0.41612101 2.8181891
0.44226432 0.34540763 1.3009032
-0.11225974 0.46052304 1.0901171
0.21403098 0.34399959 1.2129414
0.042474974 0.40065947 1.1329681
0.2934128 0.3272033 1.226351
-0.26869899 0.27814877 1.0689962
0.50711238 -0.16136463 1.2420079
0.41193157 0.23734759 1.4610614
1.3638656 -0.14141415 1.9223249
1.3092624 -0.13399863 1.8262029
0.67352307 -0.11432642 2.0203998
0.67008954 -0.11994905 2.0215859
-0.29504016 0.11903587 1.4380337
-0.61403865 0.062993288 1.5346367
-0.086005442 0.13610917 1.4382676
-0.08069364 0.1611734 1.3957062
-0.83112854 0.25080329 1.4552699
-0.59689468 0.46338668 1.0811161
-0.32838067 0.31797883 1.1250449
-0.36730835 0.30919373 1.2753021
1.6005619 -0.30870995 2.2103474
1.5649549 -0.30059621 2.1640837
1.5655702 -0.30108118 2.1663866
0.7941339 0.50507373 1.0543262
1.0591732 -0.38023379 2.293601
1.0439243 -0.43215385 2.2622802
0.91899103 -0.30751121 2.1858249
1.5366611 -0.32339063 2.2315972
1.5134326 -0.32922509 2.3270061
1.5105245 -0.32973436 2.3262877
1.6052625 -0.48171631 2.5180504
1.4953735 -0.40681857 2.3320875
0.83878756 0.42190158 1.1741379
0.56450713 -0.11276904 1.213634
0.80419523 0.27593467 1.3034067
0.52184004 0.069017418 1.3324043
0.52124423 0.079706639 1.3134061
-0.70654052 0.2235119 1.3558353
-0.41777131 0.13627927 1.3980571
-0.56467509 0.14491385 1.553426
-0.90828234 0.17350683 1.4903982
-0.55908072 0.47086954 0.97905636
-0.31010789 -0.42976564 2.4219134
-0.31010789 -0.42976564 2.4219134
-1.8161409 0.49657342 2.3006361
-1.7526045 0.23341222 2.6497023
-0.36717036 0.3129344 1.2895555
0.23881164 0.4164952 1.0961698
-0.65469599 0.18655837 1.4081271
-1.5907272 0.6650185 1.955399
0.51164734 0.49609309 1.0397397
-1.9833986 0.55277717 2.2020397
-1.9910799 0.5538013 2.2114012
-1.0388951 -0.29214153 2.2328494
-1.6410682 0.43744057 2.2506592
-0.45082036 0.41263431 1.1568232
-0.19554038 0.070650004 1.5987574
-0.36851767 0.016803656 1.9900469
-1.5289768 0.7645309 1.8769176
-1.4390457 0.77274597 1.9586213
-1.6375215 0.14317749 2.0053003
-0.20438531 -0.08392635 1.802243
-0.69001567 0.040093984 1.5574595
-0.69001567 0.040093984 1.5574595
0.51958311 0.520531 1.0230021
0.23557687 0.42659557 1.1164893
-0.61832184 -0.034829143 1.6877327
-0.43520337 0.48209789 1.0680025
0.90249431 0.14466114 1.1355414
-1.1012427 0.88785899 1.5232488
-0.47974622 0.39911494 1.1249729
-0.013343009 0.49721932 1.0368878
-0.15333955 0.20438966 1.2607443
0.50671685 0.095041171 1.3685976
0.69431722 0.36730829 1.1909963
0.46498775 0.15190989 1.3761723
0.47670165 0.1457461 1.3193229
0.77267247 0.39248914 1.2123164
0.64238745 0.21858224 1.350351
-0.10998002 0.12093271 1.3247696
0.49306634 0.33065936 1.2584566
0.72432274 0.24484347 1.2479297
0.53351361 0.15665077 1.3558488
0.72098595 0.30471095 1.2947412
0.48055857 0.27768579 1.3905381
0.11194237 -0.21420355 1.4570765
-0.72668034 0.1632608 1.4562309
-0.16015586 0.0095197745 1.6906261
-0.16284227 0.010943468 1.7065412
-0.17033771 0.024842814 1.7424266
-0.51756316 0.053842373 1.6859958
-0.30037972 -0.039209779 1.8206311
-0.93956673 -0.091930255 1.8363005
-0.96184874 -0.09582714 1.8759762
-0.4553456 0.32199156 1.2732936
-0.48276812 0.34854653 1.2205069
0.54005629 0.32451946 1.2597598
-0.50774801 0.44591579 1.0755299
-0.27071312 -0.095848374 1.920295
-0.094600648 0.12294804 1.4855225
0.45589066 0.37268037 1.1378706
0.88684338 0.37494043 1.1498411
0.88491267 0.37251222 1.1506761
0.90535855 0.35285938 1.1491303
0.7875942 0.39770398 1.2346427
0.8517735 0.39353704 1.2213358
0.498272 0.28323314 1.361333
0.81521648 0.30373129 1.3134068
0.5096848 0.15592478 1.2893484
-0.077957779 0.21399869 1.2983513
0.61963952 0.45265269 1.1060964
-0.24866268 0.30953759 1.2693137
-0.16201442 0.20133811 1.1988209
-0.25485122 0.32933843 1.0579573
-0.32874718 0.16286254 1.3986608
-0.10242508 -0.67996812 2.5173883
-0.38889593 0.55422693 0.95514566
-0.24523491 0.38727641 1.0833511
-1.3361933 -0.438097 2.6122041
-1.0367523 -0.47371495 3.1642556
-1.3712776 -0.6122908 2.9182782
-1.2614129 -0.54556227 2.9384265
-0.23678957 0.046983864 1.6769341
-0.24999036 0.59802681 0.87283254
-0.33804175 0.58296758 0.93163002
0.042787835 -0.12683538 1.0972354
0.56702471 0.072882593 1.5633978
0.20682132 -0.21797746 1.4871404
0.042964749 0.47575104 1.0535064
0.23536231 0.42735171 1.1162118
-0.30132067 0.54611009 0.9503122
-0.87123066 -0.036966912 1.7570375
-1.0343215 -0.29075927 2.222435
-0.80932003 -0.36007002 2.5137537
-0.1589845 -0.14451787 1.9350493
-0.20575243 -0.59965712 2.5095775
-0.19447179 -0.56060815 2.3474591
-0.72740644 0.033703256 1.553689
-0.74589616 0.038280126 1.5877571
-0.73508853 0.031660553 1.5759661
-0.32822251 0.018730639 1.6762511
-0.33271611 0.019087622 1.6754781
-0.36639795 0.039120082 1.7099708
-0.34955165 0.29229477 1.2384373
-0.078019448 0.22689299 1.1621544
-0.37666976 0.28404486 1.2721871
0.11385459 -0.21636254 1.4588178
-0.17950827 0.35930127 1.143232
-0.41644394 0.13547139 1.4209099
-0.41644394 0.13547139 1.4209099
0.10921672 -0.21310508 1.439256
0.04228282 -0.12651294 1.1022086
-0.42980298 0.29026136 1.3057543
-0.70691741 0.15027341 1.5170617
0.13739789 0.36921403 1.2034954
0.13380291 0.3603915 1.1878995
0.13190456 0.35888749 1.1794373
-0.20991179 0.2162336 1.2294592
-0.31102908 0.11630578 1.5224997
0.05488633 0.45758235 1.0725806
-0.12194417 0.57489449 0.91156781
-0.31124321 0.35842437 1.1139524
-0.04124599 0.51547676 1.0215502
-0.4279156 0.63260889 0.88035941
-0.12952115 0.59153867 0.91430527
-0.12794794 0.53608471 0.97952771
-0.87919265 0.0085187079 1.6691231
-0.38561866 0.55388045 0.95256579
-0.38665029 0.55041486 0.95124847
-0.74039179 -0.047367118 1.7245023
-0.11506697 0.44762567 1.1082969
-0.034850013 0.53002179 1.0190816
-0.53568465 0.28551438 1.2682456
0.11335715 -0.21601635 1.4580112
-0.3403818 0.20178953 1.3148251
-0.14903635 0.2862125 1.1882708
-0.30864045 0.19049892 1.3245994
0.19776106 -0.21862443 1.472173
-0.53656 0.40801051 1.1110665
0.19770053 -0.21878159 1.4662644
-0.079557709 0.22947139 1.165231
-0.67396128 0.28283483 1.2708291
-0.86697692 0.039066404 1.6660049
-0.77235091 -0.049996596 1.740108
-0.25466982 0.60132283 0.88575208
-0.61795622 0.26472494 1.309746
-0.27688536 0.026154207 1.7249941
-0.32192487 0.020556862 1.6942396
-0.14087357 -0.020174624 1.7740676
-0.81052703 0.00089394359 1.6781683
-0.11104818 0.28797325 1.1675378
-0.47358993 0.48293537 1.0467628
-0.43919015 0.22851248 1.3181095
-1.2638217 -0.56749207 3.1098657
-0.21242404 0.4083316 1.1222248
-0.19282842 0.37168398 1.1932608
-0.41339779 0.47519901 1.0674869
0.21347514 0.35024041 1.1897247
-0.073048554 0.52009499 0.97045195
-0.59993422 0.44380632 1.0514723
-0.33154994 0.2371089 1.1887318
0.099642284 0.38864425 1.1429555
-0.67763317 0.28499889 1.2745404
-0.67763317 0.28499889 1.2745404
-0.43264705 0.2883662 1.3170722
-0.38770303 0.26325241 1.2945102
-0.62424821 0.22319221 1.3653163
-0.62424821 0.22319221 1.3653163
-0.49481428 0.34021163 1.2013289
-0.11309366 0.44554591 1.1029581
-0.11309366 0.44554591 1.1029581
-0.68011439 0.28998122 1.230962
0.097152002 0.25053701 1.3785108
-0.24415487 0.41869959 1.1080772
0.05455403 0.38166955 1.1528624
0.046706785 0.4833695 1.0433393
-0.034212541 0.52815104 1.011497
-0.2264166 0.58278209 0.91610879
-0.12395647 -0.012980543 1.7545016
0.067747101 1.092378 1.4728612
-0.16010699 1.1121072 1.4686741
-0.15758318 1.0965079 1.4513274
-0.27411103 1.1074872 1.440395
-0.27485114 1.1057707 1.4429878
-0.27443022 1.1044097 1.4445786
0.39131606 1.0529495 1.5355313
-0.095826373 1.0790554 1.4790493
0.39860901 1.0587307 1.5464734
0.38603401 1.0476515 1.5303781
-0.098654106 1.0809045 1.4841396
-0.20616533 0.46155834 1.0759825
0.39185816 1.0424981 1.5247695
0.26916909 1.0668031 1.5441248
0.04625383 1.066573 1.5185435
0.064901404 1.0816507 1.4615479
-0.6853714 1.1542526 1.455753
-0.67331809 -0.015959106 1.6494758
-0.3388437 -0.033586115 1.838598
-0.34015191 -0.047428954 1.8382629
-0.68441606 -0.30272999 2.2011154
-1.5107884 0.58283365 2.1389377
-1.8847241 -0.49717206 3.1370564
-1.7092973 -0.39617893 3.0435312
-1.7773644 -0.40212163 3.1460383
-0.46525246 0.55544746 0.94565707
-0.46535689 0.56034994 0.94189292
-0.47407585 0.25540587 1.3282449
-0.20490913 0.30559677 1.0588106
-0.084647194 0.12809375 1.5600951
-0.093929231 0.11840099 1.5323194
0.16277808 0.42721438 1.1271133
-0.49140072 0.40066749 1.0890898
0.27240649 1.0748316 1.5478977
-0.47515139 0.49746585 1.0427678
-0.5080567 0.50120294 0.99474972
-0.25651997 0.6051904 0.8899734
0.073731214 0.42715123 1.1067764
-0.10317524 0.45885575 1.0702822
-0.03334225 0.52800804 1.01168
0.21302566 1.1238511 1.461169
-0.20338728 0.25155076 1.0485506
-0.29642087 0.083171785 1.5558015
-0.29642087 0.083171785 1.5558015
-0.59381431 0.11976179 1.5096471
0.10891156 0.22088689 1.5016882
0.4623414 0.14964722 1.3491577
-0.38040382 0.26718763 1.2625868
0.21597609 0.3343848 1.6195661
-0.1178928 -0.040917166 1.6954538
-0.12372209 -0.0061297058 1.6047355
-0.11559825 -0.041655056 1.7071786
-0.12818924 0.022596875 1.7287221
-0.12818924 0.022596875 1.7287221
-0.10139538 0.089609787 1.5465831
-0.1826565 0.19817309 1.3776692
-1.4267517 -0.3568792 2.5996249
-0.076005861 0.19348131 1.2649894
-0.19011079 0.26019517 1.0500133
-0.22003378 0.24661048 1.2507573
0.49394456 0.083551034 1.309194
0.21335781 0.2228891 1.5499682
0.38194498 0.2864272 1.3088694
0.1911511 0.31716159 1.5402505
-0.53573501 0.40676698 1.1092209
-0.61889446 0.13985346 1.4613906
0.34589663 0.38793406 1.1666287
-0.010869466 0.20818512 1.3356484
0.22359473 0.3134281 1.5678436
-0.43232077 0.45474699 1.0724039
-0.13503002 0.15314649 1.4143119
0.55261594 0.10006898 1.5734406
0.53081816 0.069327824 1.3934616
0.29528907 0.32924244 1.2365838
-0.86531371 0.22168505 1.5346072
-0.62702751 0.236761 1.329039
-0.54820865 0.25424775 1.3170252
-0.47263515 -0.63734359 2.4301796
-1.3472316 -0.33693269 2.4567335
0.27853131 0.41792834 1.1206541
0.27853131 0.41792834 1.1206541
-0.46125269 0.031099804 1.7142515
-0.46125269 0.031099804 1.7142515
-0.14881514 0.2773411 1.182878
-0.58751732 0.0015358777 1.727155
-0.58751732 0.0015358777 1.727155
-1.068904 0.15424179 1.716843
-0.13393719 -0.1696994 1.6450737
-0.85250378 0.22408266 1.5196723
0.30604932 0.19113053 1.4317304
-0.21374333 -0.50517195 2.7281888
