# .PCD v0.7 - Point Cloud Data file format
VERSION 0.7
FIELDS x y z
SIZE 4 4 4
TYPE F F F
COUNT 1 1 1
WIDTH 186
HEIGHT 1
VIEWPOINT 0 0 0 1 0 0 0
POINTS 186
DATA ascii
-0.31728736 -0.46299908 3.0117071
-0.23300405 -0.19834848 2.4590452
-0.57470161 -0.37486455 2.8763804
0.20979965 0.0041846693 2.0972826
-0.33679608 -0.48207974 3.0560346
-0.12524121 -0.78025353 4.0176387
-0.27658188 -0.13205566 2.3629029
-0.23667765 -0.26632911 2.7256036
-0.11844938 -1.0210522 3.8583574
-0.088126756 -1.2980257 3.8625922
-0.65870702 -0.72009456 3.3851318
-0.42695457 -1.222428 3.4593515
-0.31534413 -0.30942062 2.7484522
-0.089845739 -0.86092901 4.079288
-0.12375065 -1.271602 3.6902947
-0.65672994 -0.7221427 3.3856008
-0.37825906 -1.4350153 3.4701495
-0.11702238 -1.1293311 3.7880766
-0.116878 -1.1291099 3.7883198
-0.28012246 -1.3501729 3.5783772
-0.44057682 -1.4485233 3.3812394
-0.11685151 -0.76384437 4.0326009
-0.11676522 -0.87758416 3.9527981
-0.11707623 -1.1305472 3.7883873
-0.12036249 -1.3809793 3.6182573
-0.069825791 -1.2895668 3.8441293
0.077311963 -1.2339104 3.987627
-0.11834129 -1.2652848 3.6969976
-0.29159048 -1.0907712 3.7518306
-0.31375551 -0.92886794 3.8445203
-0.29893845 -1.2172965 3.6643796
0.24154633 -1.0395451 4.156044
0.12564239 -1.2887683 3.9708097
0.12042528 -1.0922923 4.0860882
-0.29027721 -1.5142279 3.4207146
0.60786772 -0.68069631 4.3375654
0.13122414 -1.2875786 3.9736474
0.15219992 -1.252647 3.9980495
0.097097456 -1.1468803 4.0447707
0.12609841 -1.2283411 4.0179229
0.097280957 -1.1448073 4.0451407
-0.858549 -0.8336786 3.6927233
0.2168819 -1.3031615 3.994689
0.19281392 -1.2179875 4.0425687
-0.2318045 -1.3127146 3.6334755
-0.67888451 -0.87161291 3.7592716
0.11350988 -1.0963211 4.0847449
0.098487034 -1.0353903 4.1119475
-0.11926635 -1.0251203 3.8531415
-0.29666767 -0.72058058 3.9989986
0.23011059 -1.342994 3.8885083
0.24317531 -1.3277515 3.9863904
0.086913854 -1.2436773 3.9861002
-0.14078407 -1.6736224 3.5845335
-0.070898287 -1.2901057 3.8462334
-0.8566317 -0.83669525 3.6925242
-0.08550442 -1.2982627 3.8211393
-0.26225978 -0.14144817 2.3631713
-0.94168425 -0.2541101 3.0885
0.63924408 -0.65271986 4.296762
0.3357951 -1.3786802 3.9871166
-0.076770917 -1.6906431 3.6018832
0.0011502695 -0.93759936 4.1258264
0.1911047 -1.2226725 4.0317345
-0.15149722 -1.0886809 3.963691
0.23878862 -0.97063857 4.1873899
-0.38025627 -1.5070872 3.3625226
-0.72993416 0.01837506 3.5376275
0.19179045 -1.3195688 3.8186646
0.25280914 -1.3404909 3.8624752
-0.2035802 -1.0779974 3.7902484
0.18232295 -1.2350572 4.0525746
0.11509497 -1.0346929 4.1151581
0.084803268 -1.3007832 3.8436112
0.14196865 -1.2582915 3.9986699
0.1747236 -1.2135278 4.0306211
0.2261904 -1.3019395 3.7999301
0.22231285 -1.3134278 3.807555
0.23802571 -1.0333004 4.1628709
0.2421297 -0.9722234 4.192348
-1.034683 -0.27973342 3.454531
-0.093158662 -1.2778577 3.5107117
0.0027789262 -0.97602415 4.1102896
0.60870862 -0.67890245 4.2965717
-0.55157572 -0.63914347 3.1760495
-0.7371406 -0.023713373 3.5547206
-1.0384088 -0.079396032 3.5027456
-0.26145992 -0.28247061 2.6217759
-0.29923621 -1.2091734 3.6551745
0.0081953816 -0.94731718 4.1374969
0.18684167 -0.74348956 4.1040425
0.34614453 -1.3136905 4.0314374
0.13161696 -1.3104429 3.6734552
0.19541931 -1.273589 3.7687099
0.19013576 -1.2899607 3.769937
-0.69399297 -0.73517948 3.321491
-0.23915881 -1.4201533 3.4901288
-0.12247958 -1.3740098 3.6166894
0.1849381 -1.276235 3.9978316
-0.12179211 -0.60192424 4.1502604
0.51886356 -0.77028006 4.4370513
-0.12382305 -1.2743329 3.7065101
-1.0348676 -0.11810538 3.5163453
-1.0880052 -0.054042395 3.5540056
-1.0208356 0.0075551984 3.589931
0.97043496 -0.8302651 3.9520531
-0.60058612 -0.34636015 2.8575563
0.13674437 -1.1210445 4.0737562
-0.13199481 -1.0454974 3.8702705
0.13514423 -1.2145721 3.7080066
0.16225083 -1.185663 3.6830201
-0.13035357 -0.94830954 3.9565055
0.35013416 -0.95063204 4.2478132
0.35609543 -0.96783513 4.2334104
0.35465947 -0.95251709 4.2451591
-0.062746808 -0.74801689 4.144928
-0.71335447 -0.674052 3.2733729
0.37530908 -0.92975616 4.2413445
-0.90704775 -0.38405362 3.0218127
-0.12545516 0.058532566 1.9832703
-1.0306547 -0.30554229 3.4624567
0.24008802 -0.97999704 4.1942649
-0.95849496 -0.67209297 3.6367891
-0.65550643 -0.71092135 3.3823326
-0.39912942 -1.1860275 3.3956859
-0.88198894 -0.42329675 3.012547
-0.77407938 -0.73369545 3.4131072
-0.55922258 -0.71837521 3.251291
-0.55638576 -0.35450983 2.8388762
-0.35519603 -0.3252188 2.6531804
0.90093321 -0.62783539 3.1819029
-0.0038964089 -1.1624031 4.0016584
-0.93109089 -0.088171788 3.6099801
0.14341331 -1.042413 4.1239004
0.0065198671 -1.0380632 4.0735197
0.16821915 -1.0726379 4.111937
0.12602317 -1.2404109 3.719768
0.15109681 -1.207208 4.0324507
-0.1352009 -1.0548925 3.9551876
-0.29707041 -1.0888495 3.7467079
0.014467609 -1.0288043 4.0740843
0.85151488 -0.63595986 4.1011739
-0.55769503 -0.7050162 3.2376077
0.33700883 -1.3765496 3.980706
-0.67314953 -0.0158519 3.5278578
-1.0490024 -0.28929824 3.1221244
0.12737902 -1.2856302 3.9684935
0.10053942 -1.0881654 4.0833435
0.75842994 -0.16904046 2.2717724
-0.3005864 -0.85192913 3.9080276
-0.30026183 -1.1577791 3.7062824
-0.18380345 0.32842398 1.7137485
-0.17454451 0.34311801 1.7019082
1.1498255 2.2519021 -0.93284231
0.93371034 2.2813694 -0.73929036
0.642582 1.3799324 -0.98827982
0.38348812 1.8952328 -0.70113873
0.69299167 1.8176821 -0.82001817
-0.078459799 1.8041183 -1.39612
0.69447696 1.8230107 -0.85695291
-0.0082242871 1.9060671 -1.3624444
0.48431522 1.6505671 -0.71218526
-0.083666526 2.4502351 -1.1486671
0.070710659 1.857462 -1.042514
0.43998566 2.0164719 -0.51457942
-0.057530846 1.6827803 -0.12237491
-1.0475066 -0.29337853 3.127291
0.3121047 1.6027945 -0.98217255
0.019460214 2.4684446 -2.3303065
-0.095070429 1.921628 -1.2977808
0.42642012 2.1175935 -0.47545102
-0.76992589 2.4840915 -1.0915645
6.2033648 2.3641994 -0.56008947
5.4749632 1.8665664 -0.050984785
-0.65958297 0.001718108 3.5247455
6.1707439 2.1093352 -0.46659249
-0.087912224 1.9565361 -1.3352785
5.2783895 1.6640433 -0.83861113
5.1979237 1.6237972 -0.78057384
6.1579289 1.9360135 -0.18465221
-0.0079101194 2.0108938 -1.5232059
-0.77478093 2.753082 -1.3962638
-0.0062180823 1.8928611 -1.3283367
1.6033183 -0.20209302 2.7174108
6.1735668 2.3121505 -0.56604826
1.5885029 -0.21781965 2.7291729
