# .PCD v0.7 - Point Cloud Data file format
VERSION 0.7
FIELDS x y z
SIZE 4 4 4
TYPE F F F
COUNT 1 1 1
WIDTH 386
HEIGHT 1
VIEWPOINT 0 0 0 1 0 0 0
POINTS 386
DATA ascii
0.019355519 -0.0056446544 2.039885
-0.26989999 -0.96367759 3.1931736
-0.6266945 0.0099048866 2.5551386
-0.27084795 -1.5075454 3.3888555
-0.67484027 -0.93476593 3.788712
-0.072187729 -0.6671949 4.0559707
-0.0033295155 0.015112102 2.0203371
0.1037506 -0.68369395 4.103425
-0.60610646 -0.85130495 3.409575
-0.31138155 -0.26676643 2.5705693
0.095146045 -0.82592267 3.9698567
0.086732402 -1.3074869 3.6377685
-0.29985279 -0.95704418 3.7649379
0.13348734 -1.1424211 3.8845208
0.085615493 -1.0781573 3.796701
0.085163549 -1.7051136 3.5261016
0.33723971 -1.3030614 3.6159434
0.44035742 -1.1631089 3.2854452
0.89729768 -1.0114691 3.7319152
0.95246977 -0.93084627 3.6864567
0.94967896 -0.91125536 3.7191837
0.94932479 -0.90925735 3.7186043
-0.59894484 -0.8911559 3.4299307
0.79656196 -0.61819333 4.0846515
-0.60686511 -0.79289669 3.4311008
0.74512625 -0.80917186 4.0982156
0.79042858 -0.65076631 4.0717692
-0.60001659 -0.83997238 3.3230813
1.0897324 -0.65683526 3.7669454
-0.4907991 -0.78559715 3.4193335
0.84123772 -0.60776317 3.9720404
-0.085158743 -1.0161146 3.8053761
0.11664103 -0.69879675 4.0512891
0.10709517 -0.81351644 3.9800792
3.0898418 2.8229735 -1.614053
-0.23566179 -0.91122639 3.6738267
0.14124195 -0.13835399 2.1425271
-0.27020025 -1.5065572 3.3880794
-0.082208224 -1.0173038 3.8132761
-0.088796325 -1.1604184 3.7181921
-0.077206962 -0.91098887 3.8893697
0.36153704 -1.1022338 3.9875762
0.40956894 -1.2660152 3.8936987
0.38692519 -1.2378839 3.9156387
0.38083908 -1.3052009 3.8700867
0.34485459 -1.2381744 3.9069076
-0.60555685 -0.78348887 3.4277859
-0.094927996 -0.97936326 3.8243449
0.12590575 -1.0797489 3.9026239
-0.072674841 -0.7630409 3.9749472
-0.44525093 -0.45054531 2.9874947
-0.23234405 -0.89963865 3.7934573
-0.082905702 -1.3997532 3.5636103
0.10602716 -1.7061871 3.5262346
-0.23136844 -0.90182549 3.7985108
0.37282032 -1.1141734 3.9862218
0.37114763 -1.06655 4.0233703
0.50554842 -1.0400995 4.0358438
0.5087018 -0.97804493 4.0696406
-0.67165011 -0.93197536 3.7847953
0.45713192 -1.2754744 3.8955226
-0.08315634 -1.0333575 3.8012714
0.39030853 -1.2406839 3.914427
0.44361371 -1.2713683 3.9020658
0.39774269 -1.2415409 3.9159844
0.46445626 -1.2445025 3.9064083
0.35593852 -1.1677332 3.9481421
0.39160249 -1.1834164 3.9414957
0.26897025 -0.97736645 4.0623932
-0.0023898599 -0.63027877 4.0989561
0.35080963 -1.2712336 3.8848367
0.35354409 -1.166797 3.9489329
0.4069334 -1.2688756 3.8938088
0.48033068 -1.309949 3.8756952
0.36170495 -1.2123392 3.9333339
0.50246751 -1.3384103 3.8596172
0.08316502 -1.7051785 3.5258031
-0.073435649 -0.77129227 3.9818754
0.26010004 -1.0032477 4.0344639
0.085036919 -1.1994016 3.725956
0.51016182 -0.98544735 4.0730085
0.48404187 -1.0126787 4.0761027
0.45014122 -1.2329248 3.9195242
0.14984931 -1.5410777 3.6384809
0.89556664 -0.65140128 4.0750299
0.42736828 -1.0841093 4.0019207
0.42840433 -1.1158223 3.9850426
0.4163585 -1.3291242 3.7080257
0.26010278 -1.0748411 3.99263
0.15058088 -1.5421638 3.6392367
0.46432856 -1.170997 3.9575996
0.36743575 -1.2210934 3.6438143
0.33232015 -1.0170556 4.0404382
0.45262671 -1.3042444 3.8709645
0.43173867 -1.1808743 3.9448533
0.56810999 -1.2831203 3.9026208
0.46862763 -1.3539013 3.780066
0.15148744 -1.5611259 3.6231933
0.31616539 -1.3026512 3.7436926
0.52802616 -1.370348 3.8187866
0.59418631 -1.376526 3.8345401
0.15225188 -1.5365611 3.6367173
-0.98630857 -0.17009741 3.6966619
-0.90730911 -0.1328156 3.7323294
-0.90939897 -0.12679622 3.7328577
-0.81041849 -0.17576842 3.7154586
-0.64959896 -0.072503909 3.6248715
0.15118365 -1.561079 3.625119
0.4157207 -1.1856984 3.9620593
-0.080722712 -1.0312928 3.7949212
0.43787235 -1.2707374 3.8973291
0.50796562 -0.98637265 4.0714927
0.43274182 -1.2845635 3.890996
0.14364167 -0.9307633 4.0257802
-0.29611504 -0.95746011 3.7620227
-0.23058873 -1.5486293 3.2920187
0.77476108 -0.71238625 4.0640416
0.51718694 -1.3815792 3.8357284
0.46186423 -1.1935571 3.9518006
0.42399463 -1.125669 3.978075
0.38240081 -1.3034993 3.8689516
0.350936 -1.2431235 3.8984406
0.38461506 -1.2640902 3.8965964
0.41947922 -1.2781987 3.8900781
0.37092397 -1.1223811 3.9786913
0.31353235 -1.0868824 3.9924533
-0.25216216 -1.269706 3.4668744
0.44679171 -1.3704185 3.8270855
0.35412565 -1.2529387 3.8986328
0.39362255 -0.99574941 4.0552444
-0.094071127 -1.2073817 3.6868269
0.51316708 -1.0092188 4.060957
-0.56779343 -0.11466721 3.6043608
-0.57394534 -0.09075056 3.5946808
0.47029495 -1.3511426 3.7750943
-0.93303961 -0.22481932 3.6469326
-0.88283402 -0.4990353 3.1527402
0.32675838 -1.259663 3.8956008
0.092583075 -1.4955302 3.6726079
-0.055565707 -1.4644283 3.4618537
0.47503731 -1.3015362 3.8830471
-0.20739515 -1.5636721 3.3609583
0.29446691 -1.3716149 3.4669082
0.46377045 -1.1816654 3.9480982
0.38765463 -1.303018 3.8723116
-0.0031593952 -1.5140944 3.380837
0.60584497 -1.318437 3.8928077
0.50184542 -1.3306408 3.8612604
0.57317531 -1.4052702 3.8640945
0.47198531 -1.281276 3.8929834
0.43810996 -1.2092787 3.9334798
0.1139763 -1.74075 3.5134215
0.46888742 -1.1184697 3.9941554
0.43473294 -1.2387073 3.9108179
0.44450983 -1.2620244 3.9052141
0.45706221 -1.2747067 3.897718
0.39219609 -1.1757936 3.9425085
-0.04186704 -1.3553947 3.5815184
0.43496376 -1.1630511 3.9617159
0.34975156 -1.2433879 3.9008913
0.44884345 -1.1483396 3.9705672
0.34200165 -1.2987245 3.7067153
0.48763195 -1.302556 3.6538029
0.53677762 -1.347697 3.7076111
0.50947374 -1.3144654 3.6946142
-0.21151489 -1.5560551 3.3512692
0.35584474 -1.1535383 3.9474394
0.15482458 -1.2176298 3.8347101
0.097959161 -1.4607048 3.6618278
-0.088896245 -1.1396515 3.7284658
0.3041679 -1.2476532 3.6329765
0.10623258 -1.0920758 3.8969278
0.26821589 -1.0134206 4.0302749
0.26570809 -1.042991 4.0359511
0.25076848 -1.2192587 3.5906498
0.63809311 -0.83711571 4.1529336
0.10025452 -1.0284661 3.9217238
0.046836656 -0.88637096 3.9191492
0.44312009 -1.2240548 3.9056306
0.43666598 -1.208226 3.9325116
0.50253373 -1.3397216 3.8607643
0.4108761 -1.2409227 3.9464657
0.45327327 -1.2363183 3.9176552
-0.59984374 -0.039854486 3.6265371
-0.940687 -0.22389923 3.6390142
-0.16980042 -1.5486627 3.4098449
0.41873512 -1.2781448 3.8932936
0.10466541 -0.85864198 3.9955962
0.11295263 -0.78235376 4.0747366
0.10940294 -0.71073556 4.1129427
0.33127728 -1.2802013 3.6527889
0.39399126 -0.99793029 4.0561662
0.25580359 -1.0793475 3.9912262
0.43161228 -1.1925477 3.9230208
0.31841531 -1.3180156 3.755198
-0.09404026 -1.4077421 3.5489855
-0.59833187 -0.76599705 3.3495004
0.47694889 -1.2803149 3.8925567
0.8968091 -0.65522194 4.1016946
-0.86299884 -0.042326804 3.5682099
0.36170208 -1.0943086 3.9715214
0.15012655 -1.5404017 3.6364577
-0.4153561 -0.23409143 2.5738695
0.44830033 -1.1483064 3.9722481
0.34712833 -1.0441874 4.0216484
0.35040161 -1.006291 4.0361958
0.27989 -1.2338289 3.6005263
-0.73662502 -0.2592496 2.3988192
-0.041962519 -1.4274074 3.4571984
-0.097735502 -1.3939524 3.5483716
0.41659406 -1.3324879 3.712775
-0.10790826 -1.5590214 3.3926418
-0.54025829 -0.79009914 3.4343894
-0.53974193 -0.792463 3.4379957
-0.53531331 -0.80264121 3.4426897
0.47313628 -1.3256088 3.7628236
0.18157965 -0.79014987 4.0886445
-0.22261915 -0.72119308 3.9155967
0.42829415 -1.1148096 3.9826729
-0.53844833 -0.8474918 3.4112108
0.5240376 -1.3719765 3.8237152
-0.15714209 -1.5878701 3.3147168
0.46447805 -1.1671712 3.9605591
-0.98714077 -0.18193722 3.6971226
-1.003565 -0.40696266 3.2656386
-0.85560441 -0.49724057 3.1084754
-0.7431761 -0.21473747 3.6978149
-0.8781085 -0.0043481165 3.5411644
0.096161768 -1.4635063 3.6637216
-0.90061116 -0.17735772 3.5708747
-0.81605136 -0.087016903 3.4841921
-0.89907551 -0.18617404 3.5629289
0.93529624 -0.60537791 2.9539893
0.49128741 -1.3513005 3.7201157
-0.11527364 -1.4945477 3.1645298
0.44161546 -1.2846165 3.8873093
0.10273763 -1.0899791 3.9038682
-0.10076113 -1.0887226 3.7660089
0.37603408 -1.1202607 3.9887612
0.46792307 -1.3250773 3.7000847
0.46128854 -1.0868804 4.0126247
-0.092990391 -1.1340675 3.7213514
0.39281702 -1.1929989 3.9452617
0.34823734 -1.1751655 3.9401851
-0.53677785 -0.7990576 3.4425616
0.30837181 -1.3680166 3.5034242
0.47483689 -1.1202734 3.9876909
-0.070941053 -1.4523869 3.4714844
0.47416469 -1.1194886 3.9900188
-0.24905784 -1.5166051 3.3832037
0.44508347 -1.2855837 3.8834863
0.13263071 -1.1440576 3.8838971
0.39613631 -1.3079554 3.665499
0.29178461 -1.2753739 3.5328577
0.38622236 -1.0892915 4.0012355
-0.097203977 -1.2792648 3.6218426
0.31477875 -1.3958544 3.3991933
0.45476842 -1.2447381 3.9169528
-0.67904675 -0.90172356 3.7606838
0.43144199 -1.2316145 3.9234366
0.31265089 -1.233145 3.6200192
0.28166658 -1.2336783 3.590225
0.51815861 -0.98598576 4.0816541
0.27005205 -1.2104897 3.5746634
0.15185954 -0.891204 4.0140328
0.1011511 -0.99173415 3.9150333
-0.08570087 -1.0314027 3.8022559
-0.096315168 -1.4284271 3.4727409
-0.10072315 -1.0789355 3.7654498
0.32323894 -1.3246671 3.7580163
-0.6225391 -0.7787745 3.4512813
-0.48034111 -0.79695386 3.3264818
-0.49165696 -0.77313584 3.4108777
-0.7450285 -0.26832014 3.9130778
-0.75190037 -0.25081325 3.9354465
-0.75612509 -0.24587964 3.9366643
0.63002646 -0.94970834 4.1105995
-0.87576848 -0.48277488 3.1343384
-0.81560862 -0.11635075 3.7067676
-0.57815337 -0.50555372 3.0144322
0.48398221 -1.2942517 3.6772192
0.5270794 -1.3080921 3.6715469
0.47411689 -1.233503 3.9263272
0.40329626 -1.2985387 3.6563876
0.39683035 -1.3013592 3.6567829
0.29082006 -1.149442 3.5309246
0.13620685 -1.5726162 3.613261
-0.72219229 -0.21081021 3.9473443
0.2375492 -1.3085645 3.8466179
0.96615547 -0.52731693 3.9472558
-0.6911552 -0.24053539 3.9280205
-0.64574897 -0.078714818 3.622529
-0.87764275 -0.065790921 3.5822403
0.51596826 -1.3793679 3.8320885
0.92803347 -0.60696191 2.9454689
0.95911336 -0.55055237 2.899452
-0.6449939 -0.76983672 3.4659853
-0.60892856 -0.82596725 3.3115501
0.95135778 -0.54070574 3.9636774
-1.0491856 -0.51358515 3.1979542
-0.4996123 -0.74721247 3.2776575
-0.45293108 -0.71734571 3.2108884
0.43723533 -1.3058279 3.8852811
0.31068942 -1.2471393 3.6304832
-0.16961458 -1.5607196 3.376441
0.33700696 -1.2399487 3.5875144
0.095488876 -1.0827798 3.8213735
0.24789633 -1.2468013 3.581512
-0.67872488 -0.9340421 3.777633
-0.67518377 -0.75806195 3.4738688
-0.079540759 -1.1281214 3.7349207
-0.094276302 -1.3940969 3.5501673
0.48067135 -1.313208 3.8813028
-0.4905414 -0.78600985 3.3663459
0.3329795 -0.99225271 4.0508747
-0.64551997 -0.067731492 3.615634
3.1246672 2.758415 -1.6095083
-0.08128465 -0.90613931 3.8904142
-0.067374788 -0.77031493 3.9867029
0.63707376 1.6714605 -1.1400886
-0.13745791 -1.4927343 3.4694173
0.406001 -1.0565439 4.0247073
4.9190001 2.5227461 -1.3137261
0.60669333 -1.3716997 3.841516
4.4632812 2.1641157 -1.2201779
-1.820515 2.7303815 -1.2684928
4.3289285 2.3316584 -1.5845745
4.8308878 2.4531918 -1.1920832
4.2910089 2.2845151 -1.5514647
0.59725833 -1.3781056 3.8358035
4.6336241 1.9705607 -1.501851
-2.1760054 3.0848494 -1.487084
1.2993903 -0.32525164 2.0640945
1.5141772 -0.15581889 2.1110244
-2.1558983 3.0248797 -1.4228547
1.3671799 -0.41989443 2.5046117
1.4503597 -0.30714458 2.3898792
-2.2023201 3.0927157 -1.548128
-2.1382196 3.0967295 -1.5949427
-2.4637182 3.0070598 -1.3731871
1.3671522 -0.24403635 2.0987008
3.1692753 2.1005149 -2.2783682
1.3767533 -0.33381325 2.0935996
-0.69076556 -0.024820026 2.351665
1.5118812 -0.15984794 2.1179304
5.2009096 1.8902416 -2.1579609
-2.547148 2.5653522 -1.7967539
4.2843742 2.2788956 -1.5348901
-1.1112589 -0.068696216 3.0385737
1.3632617 -0.24982236 2.101557
1.4819325 -0.21675792 2.2935195
2.6889241 0.82233083 0.58752918
1.5486436 -0.11368765 2.0491328
1.4162767 -0.14659654 2.3878675
1.3809856 -0.30635151 2.069504
1.3885926 -0.12892102 2.382241
-1.880381 2.1749363 -0.55266178
0.43320411 -1.0528963 4.0130086
1.8178443 0.38619485 1.0937288
1.3129662 -0.23189874 2.0564909
-0.93385106 -0.22187772 3.0834525
0.47550753 -1.2901262 3.2703376
1.3124253 -0.17033756 2.0931394
-0.63361031 0.012232668 3.6598823
1.1585853 -0.29662472 2.5172465
-2.9652803 3.2991664 -1.6611422
0.47390291 -1.2948755 3.2728019
1.1462345 -0.37323934 2.6494651
4.3120847 2.6874673 -1.5379715
1.2068955 -0.070026845 2.1784208
1.629192 0.22893137 1.5531822
4.3145165 2.687896 -1.5399923
0.35613039 -1.1635712 3.9504097
-2.7960374 2.9920971 -1.3347281
0.47315085 -1.2942821 3.2762213
1.211904 -0.20108928 2.4325736
1.2773131 -0.065557636 2.0923955
1.2995483 -0.18482357 2.0555294
1.2533399 -0.15069862 2.1330831
-3.0101669 2.9071717 -1.2396102
-0.65850651 -0.74001443 3.4496691
1.3516061 -0.18403251 1.8337151
1.5627643 -0.27897409 2.0924225
3.1378756 2.0635118 -2.2164977
0.61622578 -1.3014416 3.8889122
0.46374464 -1.2635775 3.9070804
