# .PCD v0.7 - Point Cloud Data file format
VERSION 0.7
FIELDS x y z
SIZE 4 4 4
TYPE F F F
COUNT 1 1 1
WIDTH 189
HEIGHT 1
VIEWPOINT 0 0 0 1 0 0 0
POINTS 189
DATA ascii
-0.042952504 -0.22399455 2.5519233
-0.16144846 -0.36793226 2.836715
-0.34068626 -0.1476412 2.3554912
-0.0093976483 -0.74730426 3.9999988
0.030931257 -0.84145302 4.0560575
-0.0029416394 -0.99003214 3.8436589
-0.33879274 -0.30978727 2.7475076
-0.27199212 -1.4245958 3.4854159
-0.0013842445 -1.099014 3.7750683
-0.16965958 -1.3325062 3.5833435
3.6020412 2.6646929 -1.3606142
-0.34283903 -1.4427574 3.4027388
0.00072055071 -0.84820944 3.9372938
-0.0010430416 -0.85079336 3.9390004
-0.0031186012 -1.2366005 3.6858919
-0.18384403 -0.94688147 3.833277
-0.20370001 -0.90926862 3.8463502
-0.32590201 -0.83495337 3.801923
0.38263029 -0.9830693 4.1079354
0.26525712 -1.2415769 3.9368944
0.25900269 -1.0437604 4.0498042
-0.18434192 -1.4995525 3.4292183
0.7423417 -0.60105711 4.2514215
0.27099159 -1.2400255 3.9392035
0.29200739 -1.2035525 3.9611971
0.23527494 -1.1002785 4.0114136
0.26892567 -1.2403702 3.9363594
-0.011207541 -1.6449747 3.5773439
0.36123499 -1.2937205 3.8526962
0.48021427 -1.3150812 3.9420357
-0.18800732 -0.58734691 4.0690513
-0.18829043 -0.83647984 3.9064126
0.25223932 -1.0481956 4.0491376
0.23620848 -0.9877522 4.0768476
-0.17768465 -1.3262476 3.5735495
-0.18601447 -0.83195531 3.9019177
-0.0039841789 -0.99422854 3.838587
0.22550723 -1.1984879 3.9550657
0.057195261 -1.2696207 3.8812361
0.054582298 -1.2687618 3.8814025
0.042507008 -1.2655387 3.8069613
-0.44291368 -0.17175122 2.477529
0.38501585 -1.2789187 3.9398394
0.74421167 -0.59920019 4.2085791
0.76828617 -0.57205826 4.2076259
0.48086703 -1.3191916 3.9352992
0.054299429 -1.6605031 3.5925415
0.37870401 -0.91390073 4.1385717
-0.27941328 -1.4985007 3.3792796
-0.69959348 0.0075726728 3.5667987
0.38503063 -1.2878902 3.8181829
0.21400028 -1.2580572 3.8140416
0.13611804 -1.0104452 4.0419326
0.38255981 -0.91520929 4.1432276
0.33594832 -1.1733353 3.9895391
0.22717293 -0.9778648 4.0779824
0.13746578 -0.93391967 4.0830975
-0.70280427 -0.034556054 3.584976
-1.0037866 -0.10803667 3.5610015
0.32761893 -1.2024043 3.9729271
0.182988 -0.92050952 4.1018462
-0.1899597 -1.1915139 3.6598492
0.38170105 -0.9671042 4.1213455
0.31154189 -1.2425722 3.731061
0.22145896 -1.1914679 3.9510484
0.29322225 -1.1553533 3.9933736
0.40487513 -1.2939274 3.8975203
-0.13275579 -1.4015661 3.4926138
0.36314604 -1.2491132 3.9533553
0.32590303 -1.2252554 3.9583168
-1.0499953 -0.084647268 3.616209
0.48522413 -1.2571126 3.9804168
-0.98355973 -0.018749774 3.6451998
0.05584421 -1.2634135 3.8463488
0.27579021 -1.071753 4.0364003
0.31824067 -0.98157066 4.1050625
0.38158095 -0.96958506 4.1195884
-0.013936386 -1.0149949 3.8570359
0.30532852 -1.0205331 4.0714793
-0.75182354 -0.45164737 3.6103811
-0.17568767 -0.67487448 4.0013647
-0.13083346 -1.4969645 3.4123311
0.36186498 -1.291913 3.8547237
-0.86210817 -0.43734014 3.0607989
0.26014754 -1.0424424 4.0507574
-0.98660892 -0.33404246 3.5228994
-0.95409256 -0.47482815 3.5834048
0.38114956 -0.92305171 4.1454139
-0.0046824696 -1.2418449 3.6884799
0.47103176 -1.3223709 3.9363053
-0.59731799 -0.71891648 3.4142125
-0.59920913 -0.71581262 3.409795
-0.0026020757 -1.4023161 3.7108848
0.78984857 -0.5715856 4.1794853
-0.84924185 -0.15342149 3.8758049
-1.0487727 -0.10503627 3.6226864
-0.87210411 -0.45091724 3.0628829
-0.71116036 -0.74781537 3.4558063
-0.50062847 -0.16976097 2.4974954
0.93332458 -0.53389376 3.0136347
0.23922004 -1.1555506 3.9602406
-0.32644227 -0.63383037 3.9070549
-0.66379201 -0.79042441 3.3866286
0.3106778 -1.1347339 4.0065136
0.85228312 -0.47803146 4.0636649
1.0477036 -0.60545462 3.8487847
-0.85443395 -0.46224615 3.0750492
0.26692548 -1.1664408 3.9848442
0.31927964 -1.1435432 4.0035782
0.32068849 -1.0864183 4.0260324
0.13190468 -1.1222138 3.9777563
0.19445601 -1.355117 3.5631931
0.35729492 -1.2436817 3.9586411
0.48843116 -0.84423006 4.2184119
0.32348105 -1.2228369 3.958765
0.06428685 -1.2653202 3.8902082
0.23764198 -1.361993 3.4639876
0.035234001 -0.90333086 4.0364509
-0.23940727 -1.5026076 3.4082735
0.30769604 -1.0209994 4.0710082
0.16407625 -1.1838362 3.6527994
0.22422737 -1.1666111 3.6760499
0.62115508 -0.80103576 4.112958
0.031053364 -1.2134159 3.4525323
0.51731998 -0.75177157 4.2422261
0.29135403 -1.1576648 3.9950092
-0.009009433 -1.0230982 3.9420035
-0.18659258 -1.0697074 3.7493632
0.23880704 -1.2131521 3.7100294
0.43512788 -1.281183 3.8164008
0.36057463 -1.2665517 3.7788661
0.19385171 -1.2345148 3.6064436
0.30385184 -1.2378724 3.7265646
0.14890784 -0.98656905 4.0466242
0.23977828 -1.1898763 3.9597514
0.35561013 -1.1651872 4.0061564
-0.83574498 -0.18603353 3.8506374
1.0319186 -0.46885338 3.9699588
-0.87034875 -0.12946363 3.667294
-0.5133068 -0.70998323 3.2612107
-0.70865119 0.054008752 3.5576792
-0.89507574 -0.16332176 3.5819728
-0.36791295 -0.67786688 3.2278323
0.48137918 -1.3171061 3.9287801
0.1853382 -1.1532909 3.6398964
0.30907381 -0.97459 4.0984297
-1.0361395 -0.32469901 3.1854296
-1.0316551 -0.34254205 3.19682
-0.32691285 -0.84473622 3.8030808
-0.63048851 -0.068630606 3.5631948
0.92082697 -0.5398885 3.0168045
-0.54544032 -0.70506662 3.3854063
-0.45541403 -0.44855928 3.0059822
3.5995471 2.6523707 -1.3534036
-0.18938553 -0.83063143 3.907485
-0.52793777 1.8486741 -1.4006782
-0.61531574 2.3913031 -1.1875346
-1.0339557 -0.32859915 3.1904891
-1.6547984 2.9811943 -1.6115142
-1.2945545 2.3873475 -1.0693059
1.371871 -0.33238271 2.2151804
5.6935878 2.6703503 -1.166239
-0.93566602 -0.25634292 3.1143208
-1.6601257 2.9894199 -1.5947541
-0.62982726 -0.0053055938 3.547838
6.3218527 2.7364929 -1.3011476
4.7894449 1.9144312 -1.3519386
4.7169342 1.8707091 -1.2864147
5.7066159 2.2467844 -0.78311646
-1.3420873 2.6503699 -1.3755425
1.1859188 -0.23601568 2.6232178
1.4513711 -0.31528002 2.2141409
1.5600448 -0.094889931 2.542609
-1.6766593 2.440757 -2.1752555
1.3740656 -0.3231121 2.2042501
1.5880021 -0.15733503 2.2727988
-1.6868632 3.1061656 -1.7699875
1.5979042 -0.14781064 2.2451131
1.5472702 -0.11122362 2.5558453
-1.3238639 2.4587603 -1.2224123
1.4406723 -0.30224419 2.2273932
0.41547707 -1.2324898 3.3505051
3.7345369 2.0225015 -2.0561378
-2.1217983 2.6258736 -2.2775843
0.41555411 -1.2394446 3.3571763
5.5024862 2.7913933 -1.9752889
1.4534932 -0.15072064 2.555671
1.4723368 -0.14339395 2.5237999
-0.71016175 -0.69296265 3.4315417
