# .PCD v0.7 - Point Cloud Data file format
VERSION 0.7
FIELDS x y z
SIZE 4 4 4
TYPE F F F
COUNT 1 1 1
WIDTH 179
HEIGHT 1
VIEWPOINT 0 0 0 1 0 0 0
POINTS 179
DATA ascii
-0.65195757 0.25682288 1.0133407
-0.94611835 0.4117161 1.0605198
-1.0945982 0.29229754 1.2059989
-1.1465598 0.25070807 1.2607365
-0.48223382 0.42281193 1.0802431
-1.2152297 0.20447214 1.377692
-1.2371823 0.03360052 1.5247899
-0.88513327 -0.02378102 1.7266036
-0.71004051 0.29586521 1.0009331
-0.89131898 -0.022586767 1.7177355
-0.54137588 0.43757132 1.0580305
-0.97516423 0.45540848 1.0085891
-0.85492194 0.4635047 1.0403475
-1.1596049 0.011445391 1.6062478
-1.3199356 0.16082369 1.3632944
-1.5248623 -0.47174045 3.1178398
-0.68732893 0.42606294 1.0489945
-1.1872209 0.27881166 1.216503
-1.3294367 0.24371541 1.3551344
-0.88166893 0.38558403 1.1229182
-1.2242779 0.089455485 1.4526552
-0.8429482 0.45280015 1.03307
-0.63554883 0.35654461 1.0883001
-1.5252187 0.028283106 1.592411
-0.71071774 0.29389501 0.99946547
-0.62151963 0.32312685 1.1407388
-0.97072697 0.44818357 1.0043218
-0.90233588 0.21890804 1.2768974
-1.4207636 0.048936892 1.5691468
-0.88480365 0.38601589 1.1213779
-0.91652149 0.37276125 1.128795
-0.99547189 0.06464345 1.5700715
-1.0078117 0.29393998 1.189417
-1.2378691 0.077788115 1.4728719
-1.0912367 0.31178519 1.1675112
-1.4257578 0.076267183 1.5098925
-0.65188843 0.27280053 1.0267923
-0.68964565 0.42145273 1.0432609
-1.1459525 -0.34836322 2.3877196
-1.1868211 -0.37539956 2.5664964
-0.78573132 0.47522834 1.0120538
-0.63904464 0.35706577 1.1005253
-0.86667818 0.063161775 1.4907813
-0.91705066 -0.1024138 1.8240906
-0.52422869 0.41778344 1.0899334
-1.9910377 -0.45147362 2.7524204
-1.6521368 -0.34039265 2.6003816
-0.85514504 0.11828865 1.367667
-1.1470714 0.34744811 1.1149507
-0.93335098 0.43719053 1.0039999
-0.8074562 0.094381198 1.4407283
-0.85490614 0.46062753 1.0235026
-0.83042848 0.17461549 1.305593
-0.81323355 0.49230263 0.97398764
-0.74559808 0.4143028 1.0711426
-1.0087608 0.49550846 0.94430602
-0.92535627 -0.10881811 1.8561614
-0.8717618 0.47948042 1.000116
-0.93844646 0.39419845 1.0705124
-0.81195372 0.22157317 1.0343291
-1.2815373 0.042340748 1.5261648
-2.0670147 -0.34058449 2.4171638
-0.75901204 0.30433384 0.99410856
-1.3178449 0.12224649 1.4185734
-0.68151176 0.15025422 1.4576433
-1.4016724 0.17156626 1.5331625
-0.89600444 0.51344651 0.94976717
-1.0197601 0.4976244 0.94523889
-1.3203857 0.12361632 1.4215922
-1.1470537 0.31698719 1.1632564
-1.3496709 0.010275437 1.6058495
-1.3906873 0.0076029082 1.595112
-0.96339124 0.51008713 0.87994337
-0.92132986 0.34590492 1.1648477
-1.0597686 0.45662418 1.0109299
-0.68209577 0.12830597 1.4850574
-0.88024378 0.50091016 0.96342897
-0.65082747 0.28470215 1.043003
-0.84699893 0.22017199 1.2445476
-0.91503167 0.37243128 1.1302459
-1.4186049 0.081496067 1.4988691
-0.99128473 0.35460928 1.15036
-0.72069597 0.26244977 1.2007419
-0.9509955 0.50590813 0.86938679
-0.69560313 0.33847609 0.98821324
-1.0878482 0.27773187 1.2379614
-0.65400428 0.25031924 0.98166037
-0.88620758 -0.030686541 1.746884
-0.88710672 0.43676895 1.0325131
-0.83469844 0.23173916 1.1259063
-0.57356077 0.29293841 1.106146
-1.1493543 0.38188061 1.1229379
-1.0888735 0.31586093 1.1734322
-0.76217204 0.25190136 1.0040377
-0.58807963 0.14814612 1.3909684
-1.1468053 0.1079924 1.4215058
-1.4208685 0.23364538 1.3322129
-1.5152253 0.1192081 1.5200976
-1.5372729 0.12229428 1.5374067
-1.9628546 0.91738176 1.6367782
-2.0573742 0.7158981 1.9229231
-2.0683854 0.71553308 1.9186009
-1.8760841 0.62869501 2.0580485
-0.94338828 0.44607723 1.0326524
-0.5225628 0.41262138 1.0867023
-0.83026773 0.22997379 1.1150455
-0.84239256 0.44408134 1.0466954
-2.4651792 0.60899013 1.9369895
-0.72580314 -0.034060095 1.7316453
-1.5859125 0.074584521 1.5547328
-2.0366416 0.70322502 1.8954809
-2.0966606 0.72468215 1.9565563
-1.429233 0.034589883 1.5737171
-0.57850242 0.053571485 1.1538267
-0.87219638 0.49074596 0.98759669
-0.80700809 0.44145274 1.0430659
-0.84065062 0.32955858 1.1975791
-0.80855781 0.26932976 1.112951
-0.74972242 -0.28964695 2.1174099
-0.75174743 -0.28577301 2.1016226
-1.7595341 0.99056071 1.4723358
-2.3916671 0.029319149 1.7210808
-0.76914924 0.26227453 1.0424248
-0.83535516 0.22407179 1.1142161
-0.8381995 0.32769865 1.1850879
-1.2757609 0.11171035 1.7497973
-0.75605887 0.34680501 1.0222104
-0.68524992 0.39542413 1.0228544
-0.68507797 0.18206128 1.2880585
-0.94540739 0.41757694 1.0811052
-0.65323758 0.28079721 1.1113142
-0.54460514 0.22958668 1.1689279
-1.6706556 -0.34925801 2.6268356
-0.71728802 0.28893143 0.99804455
-0.80990952 0.12908097 1.3559113
-1.1431453 0.10832223 1.4084083
-0.60216808 0.12234161 1.3839315
-0.58850342 0.14718926 1.3431422
-1.3256248 0.32054135 1.3066046
-0.5817548 -0.17077614 1.5662465
-1.0216473 0.51001048 0.97231817
-0.77911448 0.33454403 1.0468991
-0.89689565 0.51047343 0.95045698
-0.83840638 0.32829022 1.1904788
-0.92356652 0.16064167 1.300735
-0.85790533 0.14839739 1.3566017
-0.98004264 0.49320295 0.9253177
-1.5389636 0.039449375 1.5804427
-0.98297185 0.49178091 0.92318743
-0.68670154 0.18159033 1.3654164
-1.1578131 -0.37797472 2.5114284
-1.0451938 0.54701847 0.8731246
-1.0163056 -0.42712668 2.3137541
-2.3809915 0.66546583 2.0225129
-2.2476921 0.52918947 2.1917496
-2.3939495 0.39231497 2.3694401
-0.83975178 0.33180684 1.2047266
-0.68701124 0.14054361 1.4705665
-1.9255606 0.88847852 1.5915713
-2.0944307 0.81171161 1.714505
-2.3386815 0.80581802 1.722785
-2.5263975 0.74153697 1.9045067
-2.5350945 0.74330443 1.912809
-2.2084572 0.58751631 1.9942174
-1.4167258 0.23332396 1.3292397
-0.73863524 0.06765648 1.5268513
-1.1547394 0.3551113 1.1188799
-1.7294408 1.0047123 1.4859849
-1.9394873 0.90343058 1.6124123
-2.0121632 0.90458643 1.647561
-2.204905 0.29793972 1.7433447
-1.2224182 0.091040276 1.4486997
-0.79150969 -0.087533906 1.7230622
-0.97233295 0.44776931 1.0083451
-2.0491965 0.71863204 1.9045604
-0.9714126 0.44646418 1.0065894
-0.90276366 -0.12832446 1.829013
-0.85935241 0.48288202 0.98494864
-1.9415255 -0.30618337 2.2198787
