# .PCD v0.7 - Point Cloud Data file format
VERSION 0.7
FIELDS x y z
SIZE 4 4 4
TYPE F F F
COUNT 1 1 1
WIDTH 196
HEIGHT 1
VIEWPOINT 0 0 0 1 0 0 0
POINTS 196
DATA ascii
0.08905603 -0.10977487 2.2850683
0.041850951 -0.73855525 3.972995
0.049697161 -0.59939378 4.0614567
-0.069005407 -0.5465427 4.0982161
-0.22585087 -1.4221939 3.4695578
0.049839541 -1.0865116 3.7417293
0.049997538 -1.0862736 3.7419467
-0.12084349 -1.325991 3.5604463
-0.3021954 -1.4430761 3.3926158
0.052120127 -0.83791441 3.9078915
-0.30045858 -1.4433448 3.392374
0.04999233 -0.83489013 3.9066422
0.04997512 -1.0877234 3.7420318
0.050642662 -0.84061295 3.9096899
-0.27915075 -1.4605078 3.3994462
-0.15555789 -0.90878111 3.8328283
0.43604454 -1.2178972 3.886862
-0.28477484 -0.84063542 3.7998283
0.45339698 -0.95407051 4.0444398
0.3429679 -1.212936 3.8808184
0.33624387 -1.216272 3.8789611
0.32880384 -1.0206138 3.9955015
0.80289686 -0.55501038 4.164917
-0.10832012 -1.3811384 3.4786503
0.34205839 -1.214442 3.8808227
0.31753096 -1.113535 3.9409952
0.305033 -1.077821 3.9581726
0.20715617 -0.92244285 4.0404267
-0.13914618 -0.83607054 3.8927197
0.3222537 -1.0254009 3.9953091
0.30536979 -0.96629429 4.0253019
-0.32537711 -1.3576043 3.4273553
-0.13749132 -0.83136928 3.8881354
0.30327272 -1.0761873 3.9589949
0.43060696 -1.2592086 3.7795649
-0.72319943 -0.87910891 3.7761207
0.1051461 -1.2505757 3.7671959
-0.97397339 -0.3149215 3.2014124
0.40331694 -1.1427555 3.9285831
-0.17171401 -1.4262151 3.4795799
0.45898381 -1.2470176 3.8713913
0.44813362 -1.2544132 3.7500854
0.20595621 -0.87598991 4.0642848
0.45262668 -0.88679212 4.0808201
0.20475696 -0.91799998 4.0405283
-0.90619397 -0.4699516 3.1109509
0.25089082 -0.90238547 4.0557427
-0.14223914 -1.1873456 3.6408434
0.56522149 -1.2158965 3.9010322
0.3088403 -1.0823121 3.9542458
0.26520506 -1.2390438 3.7731237
0.36542282 -1.2119998 3.6700568
-0.14952913 -0.99855381 3.7643809
0.43541691 -1.2186923 3.8872583
0.042675432 -1.3317478 3.5712035
0.39749408 -1.1969637 3.8956597
0.044798072 -0.62947392 4.1160922
0.045497332 -1.2320684 3.6609871
0.039787866 -1.0041635 3.8261437
0.1047395 -1.1523975 3.8501253
0.045201041 -0.90665549 3.9118617
-0.74476653 -0.47853762 3.6504507
0.41428915 -1.1585137 3.9209979
0.32995161 -1.0192484 3.9963813
0.4518196 -0.89472812 4.0829744
0.047176313 -1.2279035 3.6533911
-0.59295005 -0.73436469 3.4376335
-0.5953604 -0.73130953 3.4334404
-0.28668517 -1.1777476 3.402323
0.84269112 -0.52204078 4.0898852
0.056938019 -1.3889203 3.6778812
0.24215546 -1.3191184 3.5052447
0.40312883 -1.1723101 3.9322832
0.30768406 -1.1321084 3.9058747
-0.28734374 -0.64126128 3.9082112
0.40727073 -1.1728655 3.9285462
0.061312594 -1.3765165 3.6619613
1.0886768 -0.26555508 4.0477314
0.33785909 -1.1418034 3.9279428
0.05952435 -1.3830622 3.6705282
0.56249505 -1.2095644 3.9033465
0.48376405 -1.2835219 3.8348181
0.20055528 -1.1048945 3.9326618
-0.57047433 -0.51679438 3.1074255
0.86971521 -0.24867252 2.6491048
-0.31021976 -1.4296672 3.3757052
0.56040567 -0.81117028 4.1483817
0.13452861 -1.2024398 3.8072953
-0.14257815 -1.3064638 3.5383663
-0.10771351 -1.3785298 3.4754755
0.46520442 -1.2288357 3.7112594
0.20932336 -0.92758596 4.0399561
0.35646102 -1.2042419 3.6583312
0.20909338 -0.9795503 4.0030103
-0.1956268 -1.4972811 3.3886442
0.38795972 -1.0817673 3.9620693
0.27255294 -1.3239962 3.5108197
0.21287435 -0.92914593 4.0382152
0.39246747 -1.23374 3.7091649
0.35987586 -1.2189065 3.6773565
0.42345735 -1.232721 3.7108924
0.56700337 -0.9013347 4.0881867
-0.35075241 -0.88902801 3.7622118
-0.35382259 -0.89218748 3.7649996
0.56922185 -0.75826871 4.1681981
-0.13799202 -1.0667425 3.7319355
0.28974462 -1.1863008 3.6555448
0.23498072 -1.3476561 3.5295112
0.42780447 -1.136013 3.9419804
-0.29421416 -0.30517387 4.0475049
-0.27849758 -0.4276624 4.07233
-0.95724142 -0.1415059 3.744029
0.28914678 -1.186789 3.654964
0.046082556 -1.2429987 3.66905
0.22758298 -1.128505 3.591074
0.28343371 -1.213185 3.6479614
0.27438754 -1.2215823 3.7564962
0.55478275 -1.2787299 3.8576446
-0.54907769 -0.71983814 3.4102354
0.13937093 -1.1936738 3.8012843
1.1512991 -0.62738931 3.7558446
-0.60969758 -0.40673095 2.9569876
0.5445531 -1.2934438 3.8646932
-0.285166 -0.85047334 3.8008909
-0.64823925 -0.088892847 3.6003504
-0.61664492 -0.42091459 2.9498293
-0.50030637 -0.59636569 2.9434831
0.8898946 -0.47479245 2.9361556
0.9457019 -0.85725582 3.7096448
0.043844979 -0.63800472 4.0476923
0.89588851 -0.80565268 3.7332344
-0.13077576 -1.3202448 3.5528102
-0.95781499 -0.15995224 3.5855129
-0.31132478 -1.1944689 3.4853835
0.30840647 -1.0187566 3.9962142
-0.30579773 -1.1052558 3.5557473
0.045874733 -1.0249188 3.8505154
-0.65035349 -0.5568009 3.6407351
-0.72400737 -0.8765254 3.7845297
0.21285643 -1.1140858 3.5828743
-0.42249361 -0.84754211 3.768554
-0.13589826 -0.5895955 4.0556374
0.9488017 -0.85355008 3.7110796
0.83053941 -0.54032511 4.0990162
0.89388031 -0.80165148 3.735702
-0.54442757 -0.71733046 3.4049482
0.89125437 -0.43802705 3.9550383
-0.63314837 -0.33773351 4.0695462
-0.8035664 -0.2488478 3.9412017
-0.28517875 -0.39846027 4.0680203
1.0980515 -0.25119525 4.0484824
-0.60147285 -0.42236367 3.0427248
-0.74131215 0.040429998 3.58301
-0.96870679 -0.14139707 3.5806983
0.67828327 -0.49075112 2.9863527
-0.14045839 -0.83030516 3.8939815
-1.1195655 1.7878255 -1.3428736
0.41658852 -1.0907745 3.957309
-1.8207164 2.3889751 -0.91831559
1.2475867 -0.22532848 2.0892646
-2.3037598 3.0944097 -1.5577433
5.1108279 3.0528901 -1.5790179
4.2358985 2.2514637 -1.7038637
-1.9071873 2.6530888 -1.2149429
1.0909841 -0.14467478 2.5127382
1.3257108 -0.20391501 2.0820577
-3.223649 3.556165 -2.0157838
-2.2948198 2.4362879 -1.9883478
-1.1151272 -0.45818308 3.177624
1.2483791 -0.2158071 2.0783582
-2.6711693 2.4679959 -1.8394575
5.0864415 2.9977903 -1.5803784
1.4651937 -0.029152591 2.1039631
-1.8662754 2.4607263 -1.0672336
1.4006925 -0.039809231 2.3843133
1.3154615 -0.19165847 2.0963669
0.43701041 -1.1911988 3.2825398
0.040561289 -1.4010364 3.6306002
3.1223793 2.3113949 -2.3177776
4.6446085 2.9763026 -2.111419
-2.7560701 2.5982707 -2.0507786
-2.2562325 3.0515165 -1.6057421
4.8822756 3.3725255 -2.0285995
0.43800533 -1.1982275 3.2890577
4.8476472 3.1741533 -2.367538
1.3471845 -0.044059128 2.4251497
1.5667468 -0.070867345 1.7962537
1.233379 -0.1178681 2.1635263
1.362926 -0.035293497 2.3919849
3.1739266 2.3759177 -2.419471
1.1653458 0.14748345 2.0709693
1.1685612 0.090884142 2.1305299
1.3741528 0.12807602 2.5339978
1.3784145 0.13643374 2.5166695
1.3679854 2.1786432 -1.6972945
1.2541596 -0.065147102 2.1161013
