# .PCD v0.7 - Point Cloud Data file format
VERSION 0.7
FIELDS x y z
SIZE 4 4 4
TYPE F F F
COUNT 1 1 1
WIDTH 100
HEIGHT 1
VIEWPOINT 0 0 0 1 0 0 0
POINTS 100
DATA ascii
-0.50699848 0.34497046 1.145131
-0.58075631 0.30596933 1.0281912
-0.48755005 0.275585 1.1747659
-1.0764313 0.31790748 1.2732164
-0.85842067 -0.031785566 1.8185245
-1.1469804 0.27529916 1.3904309
-1.1746979 0.10712738 1.5396516
-0.66520953 0.027916731 1.7429614
-0.6375888 0.34655988 1.0149869
-0.77756703 0.51895815 1.0514841
-1.0981863 0.083749965 1.6217731
-0.61120975 0.47664836 1.0614445
-1.1160334 0.3466225 1.2284186
-1.2598594 0.31763119 1.3667997
-1.0594341 0.2274712 1.3984901
-0.76588619 0.50780529 1.0444068
-0.67736113 0.13278835 1.5570006
-0.74941623 0.19010711 1.3912935
-0.80539972 0.52916443 0.9943651
-1.4630666 0.11130904 1.6059227
-0.63831806 0.34459147 1.0135419
-0.74710339 0.14850487 1.5065271
-0.73355073 0.4954994 1.0545151
-1.3579366 0.12852475 1.5829018
-0.77944815 0.33068591 1.1836464
-0.93613154 0.35602742 1.2020167
-0.69325632 0.27217615 1.3409301
-0.77726978 -0.017034829 1.8105494
-0.59355724 0.15821142 1.5020523
-1.1733769 0.14059079 1.501142
-0.81144845 0.58195335 0.96469378
-0.83072025 0.04195042 1.742752
-0.86013174 -0.034396302 1.8422805
-0.61756861 0.19727638 1.4795231
-1.0733911 0.41267526 1.1261714
-0.85658336 0.49451664 1.0151011
-0.77756131 0.51585835 1.0346787
-0.48750255 0.27487212 1.1782871
-0.73473692 0.54561508 0.98495698
-1.0079566 0.38412607 1.1868443
-0.66990393 0.46692801 1.0834589
-0.64265859 -0.0036894658 1.6478307
-1.2705452 0.078673631 1.5963827
-0.86876976 -0.040123388 1.8743914
-1.4551482 0.089225188 1.6399444
-0.90925139 0.15628716 1.5858046
-0.79373986 0.53489381 1.010964
-1.2626565 0.32059801 1.3567606
-0.76225537 0.23591909 1.3248031
-0.67390084 0.15550004 1.5434458
-1.3350234 0.25004092 1.5454037
-0.95562303 0.12288447 1.6087729
-1.254705 0.19820853 1.4348732
-0.96374416 0.60348153 0.88961309
-0.84947526 0.40561879 1.1838796
-1.0745025 0.38287154 1.1748726
-0.50423753 0.24569313 1.2573321
-1.2881984 0.08824908 1.6204578
-0.50027651 0.3005822 1.2118144
-0.98239303 0.51780564 1.0211549
-0.61685324 0.18468457 1.501402
-1.3711601 0.14938168 1.5368921
-0.48580205 0.22878632 1.2472875
-0.6501404 0.31613362 1.2151628
-0.87155694 0.56193674 0.87951183
-1.0168353 0.3428618 1.2503766
-0.81180245 0.58358276 0.96392149
-0.81050146 0.49309343 1.0438439
-0.59020442 0.15611234 1.5280266
-1.1017566 0.17942728 1.4589562
-0.96479762 0.6137979 0.89167815
-1.472055 0.20489946 1.5496296
-0.97724456 0.5161429 1.0145068
-0.40064532 0.39970794 1.1845876
-0.44709122 0.45879617 1.1001335
-1.3612896 0.12951313 1.5834743
-1.3252761 0.0569622 1.7148253
-1.3668518 0.11449891 1.5876188
-0.64015019 0.34446254 1.0112991
-0.6577599 0.5753203 0.97960079
-0.58176059 0.33127004 1.1258337
-1.2328727 0.30088103 1.3389035
-0.94451964 0.12828362 1.6437767
-1.121503 0.34865499 1.2354472
-0.75623184 0.36541274 1.154503
-0.66947728 0.15805067 1.5399597
-0.7914018 0.20830767 1.3718325
-0.84464759 -0.050480742 1.8541888
-0.89033276 0.57115835 0.88624072
-0.50334436 0.34648922 1.1394018
-0.81683886 0.4989951 1.0762507
-0.76869369 -0.010738787 1.8225032
-1.3677105 0.11800209 1.5859538
-0.58499497 0.53409183 1.0231675
-0.55780244 0.51821649 1.0404671
-1.6343784 -0.11060144 2.041023
-0.89525062 0.50631112 1.0191157
-0.636778 0.18613014 1.5223968
-0.71198756 0.52543581 1.0220994
-0.77526814 0.52644777 1.0050125
