# .PCD v0.7 - Point Cloud Data file format
VERSION 0.7
FIELDS x y z
SIZE 4 4 4
TYPE F F F
COUNT 1 1 1
WIDTH 505
HEIGHT 1
VIEWPOINT 0 0 0 1 0 0 0
POINTS 505
DATA ascii
0.82106608 -0.89734197 3.7340255
0.3360965 -0.55963469 3.9762962
0.32742095 -0.66090304 3.9015491
1.1820977 -0.62216109 3.2439382
-0.32087684 -0.93171477 3.5896437
1.1239331 -0.3255766 3.6536264
0.7996037 -1.0025076 3.6841943
-0.34946433 -0.83755571 3.5956266
1.1155761 -0.31217071 3.556659
0.32417157 -0.80932105 3.8190348
0.83211643 -0.92178667 3.7120135
0.78845549 -1.1360757 3.5868053
0.67967701 -1.1371243 3.6544363
0.14946035 -0.83930486 3.7929192
0.81826389 -0.89674097 3.7336261
0.81113183 -0.90486938 3.7357938
0.70290852 -0.76571077 3.8455024
0.81277311 -0.85635787 3.7717762
0.93507892 -0.80904323 3.7307866
-0.47531113 -0.20540054 1.7985228
0.31343567 -0.93567497 3.7372413
0.82849157 -1.0291797 3.6602237
0.79373389 -0.96319097 3.7058001
0.71521312 -0.78867781 3.8480532
0.79633409 -0.84761357 3.7723286
-0.30213121 -0.93267751 3.5133114
0.79165882 -0.96273762 3.7074504
0.91076195 -1.0800219 3.5891714
0.93111092 -1.1040959 3.5654027
0.28932154 -1.1820331 3.5813754
0.70263588 -0.81764072 3.8249986
0.33755144 -0.64633298 3.907522
-0.44865918 -0.67554659 3.8689854
0.5763517 -1.3915266 3.4889534
0.85944486 -0.86288106 3.730444
0.79600596 -0.76006901 3.8158882
0.84219939 -1.0563872 3.6320646
0.8852734 -1.0777447 3.3342543
0.82116354 -0.88393408 3.7877491
0.89571518 -0.94260061 3.6737945
0.87164932 -0.94901842 3.6792099
0.72150958 -1.1173285 3.5146334
0.94615585 -1.1324602 3.5173457
0.54686594 -1.4229689 3.4621227
0.57825243 -0.7724337 3.862107
0.88358605 -0.85575557 3.7296901
0.88160163 -1.0413468 3.6198411
0.85835469 -0.87839651 3.7203679
0.93372136 -0.8044582 3.7346709
0.90325201 -1.0527163 3.6088862
0.86410946 -1.1306242 3.4435792
0.19074094 -1.4945724 3.3653281
0.93188721 -1.1052842 3.5664151
0.88550037 -1.0112649 3.6396546
0.30969363 -1.0230677 3.6718271
0.59150106 -1.0887094 3.4288867
1.2242241 -0.63604307 3.2131133
0.91584218 -1.0838258 3.3796434
0.20171361 -1.2380873 3.4572051
0.52016568 -0.90674508 3.7710974
0.34004316 -0.55964041 3.9725256
0.34346232 -0.56154907 3.9704421
0.52588648 -0.70881248 3.8588114
0.59506601 -1.1642308 3.6059861
0.58727229 -1.0975974 3.4097223
0.85820585 -0.97287351 3.6536181
0.8983773 -1.0363455 3.6177855
0.82823777 -0.36389738 2.5901802
0.68516266 -1.0904442 3.4353392
0.94200444 -0.83846468 3.7141807
0.2869451 -1.3069407 3.5013185
0.7979815 -1.1263477 3.4617045
0.37729511 -0.49073875 3.992316
0.81197435 -0.98883414 3.6898029
0.67047751 -1.0732206 3.3755252
0.62157691 -1.2206246 3.3436172
0.94474602 -1.1345744 3.5233781
0.83059037 -1.1046903 3.5378633
0.9965747 -0.55571568 3.3023961
0.79494447 -1.0826409 3.332803
0.58273327 -1.0937333 3.4099321
0.87776947 -0.85824305 3.7305965
0.51482075 -0.89775157 3.7707996
0.57260305 -1.5845619 3.4172249
1.0190279 -1.1118206 3.5242217
0.59911603 -0.84258157 3.1297684
0.69714606 -0.7907033 3.8412242
-0.67836064 -0.60668606 4.0376506
0.90014285 -0.78203022 3.2888079
0.67993188 -1.0858912 3.4301262
0.53776306 -1.578554 3.4113317
0.71127892 -0.83024502 3.8115275
0.59955472 -0.69688892 3.9265714
0.63899654 -1.0472121 3.336731
-0.41424185 -0.30689603 4.1280346
0.63736898 -1.1245724 3.3903172
-0.18089838 -0.35927141 4.2107258
0.90094143 -1.0379735 3.6307213
-0.38797903 -0.28223994 4.117034
-0.37839109 -0.28089958 4.1268997
-0.67880464 -0.38803038 3.9229977
-0.91858321 -0.70827776 3.5558548
-0.89927781 -0.65741324 3.5393939
0.96694928 -0.41181639 2.7880135
0.86709994 -0.93702817 3.6871161
0.63645667 -0.11422516 2.2775104
-0.25455064 -0.96762103 3.9409449
0.95552993 -0.43407804 2.7631018
0.89162511 -0.92217141 3.7262139
1.1918886 -0.63674921 3.2449172
0.33768216 -1.1796025 3.6058924
1.071466 -0.27605626 3.6029897
1.0899402 -0.2631152 3.6048059
0.3358286 -0.93162143 3.7551169
1.0770258 -0.2775346 3.6013258
0.64748162 -0.58619887 3.9928014
0.52628082 -0.7827459 3.8422863
1.0749952 -0.30970216 3.6655023
0.50063992 -0.75988519 3.8360953
1.372365 -0.32996067 3.1782286
0.93725842 -0.6656667 3.3678126
1.0410804 -0.42080286 3.7553682
1.1095904 -0.26935551 3.5282507
1.1116784 -0.27418241 3.5280709
0.53678256 -0.64589584 3.9146614
0.44066328 -0.61462229 4.1981249
1.1752249 -0.5793013 3.2737625
1.1968707 -0.30913341 3.6013319
1.2817326 -0.23329815 3.2761559
0.38939086 -0.96054769 3.7871525
0.829427 -1.036562 3.6309505
1.2266024 -0.63518655 3.2191048
0.30156833 -1.2916791 3.5160944
0.63323951 -0.11661541 2.279362
0.83098412 -0.92445707 3.7345951
0.3054229 -0.93506265 3.7280188
0.53612113 -1.0381057 3.7126701
0.33188266 -1.3132505 3.526403
0.97906554 -0.54578364 3.3031013
1.0109152 -0.56823051 3.3077638
0.74357277 -0.82158351 3.8145661
0.91257399 -0.7910406 3.3068855
1.2359236 -0.62492853 3.249064
0.48053274 -1.3748041 3.510488
1.2288479 -0.60764325 3.248702
0.78738737 -0.96591288 3.6911767
0.88007057 -0.53142095 2.9989243
0.87257445 -0.55660999 3.0333855
0.79157358 -0.56001574 3.0504236
0.31624836 -1.0863515 3.6575491
1.017169 -1.1111963 3.5238473
0.1847952 -0.86466765 3.7964916
1.0465266 -0.50300854 3.286797
0.92918169 -0.7912488 3.7864137
0.45153087 -1.3525957 3.530838
0.71589237 -0.81835455 3.7609861
1.0223937 -0.32731661 3.5790741
0.34395766 -1.3193859 3.5071003
0.041880485 -0.9086082 3.8559432
0.96296459 -0.61354083 3.3618007
1.0029374 -0.30490568 3.5791552
0.54188269 -0.69473332 3.8964622
0.93801367 -0.84158361 3.7127588
0.55620247 -0.56891561 3.9657185
0.49428409 -1.3753825 3.5160439
0.53273958 -0.90005547 3.7798004
0.90415841 -0.69090873 3.3393953
0.57476318 -1.0879833 3.4052413
0.9956857 -0.64634728 3.3285086
0.88357639 -0.81262505 3.7711601
0.37875777 -0.61800838 4.1509275
-0.68489736 -0.63258708 4.0671821
0.83029699 -0.36113197 2.6118491
0.82716024 -0.35913065 2.5854185
0.61828166 -1.1777338 3.6543767
0.81853294 -0.878892 3.7502518
0.3570103 -0.12899962 2.2933822
0.61340135 -0.083288737 2.2411957
0.3051627 -0.89963055 3.7767313
0.29664502 -1.3033727 3.4981809
0.84626532 -1.0788151 3.3655875
0.69758451 -0.89270061 3.1618502
0.49415022 -1.2686262 3.5614929
1.0469507 -0.50741714 3.2875891
1.0403483 -0.48024705 3.2762187
0.62334847 -0.56483233 3.9865839
0.61020404 -1.1642994 3.6492817
1.1034893 -0.66266662 3.6809461
0.70726943 -0.93206275 3.2435937
0.94150096 -0.57681394 3.1173661
0.48652512 -0.14088382 2.2963324
0.91387093 -1.0827557 3.5941758
0.85050082 0.075770609 1.997203
0.4416993 -0.10320581 2.2719707
0.93733382 0.15069066 1.9138813
0.51420647 -1.565475 3.3976648
-0.50466686 -0.69701016 3.9150488
0.81810141 -1.0826237 3.6184988
-0.43819985 -0.56776202 3.8204467
-0.93383509 -0.61429 3.6814432
0.94302911 -0.59124404 3.1257374
0.93734932 -0.58287936 3.1204255
0.93794143 -0.59307063 3.124903
0.698035 -0.75772423 3.8426931
0.33396754 -0.55363685 3.97106
0.89185017 -0.55799794 3.0402861
0.87906212 -0.89039308 3.7080348
0.83359289 -0.9881807 3.6781855
-0.98456448 -0.24882743 4.0390911
0.83616567 -0.39237034 2.609396
0.56824201 -0.38545147 2.7126801
0.83379 -0.97724032 3.6892357
0.42166656 -0.38654527 2.742538
0.30812424 -0.16344635 2.4728835
0.27613941 -0.22299847 2.5032861
0.83984792 -1.0160422 3.6850834
0.53912371 -0.10577419 2.2889946
0.89297682 -1.001961 3.6397192
0.14188218 -0.36332437 2.1443758
0.81954193 0.21529107 2.1475716
-0.67992276 -0.15924518 3.9796562
0.71374035 -0.69008422 3.8162432
1.2349172 -0.64705998 3.2283375
1.4171972 0.38588423 2.8936372
1.4236988 0.33200929 2.9080238
0.95289767 -0.42636228 2.7565005
0.60543841 -0.48171017 2.9638312
0.60131317 -0.49599621 2.9613879
0.80302244 -0.32734805 2.574595
0.54665637 -0.43890348 2.9268038
0.59514534 -0.47603053 2.9648986
1.2523946 -0.19370063 3.2180219
0.64230877 -0.39315501 2.6887147
0.72905445 -0.71476686 3.0447104
0.56533778 -0.35565284 2.7137644
1.2532992 -0.19342688 3.2068496
0.61700803 -0.54506868 2.9468524
0.73718399 -0.90090781 3.7871318
0.78455681 -1.0802739 3.3310647
0.72127777 -1.1264735 3.0478864
0.45114973 -0.41281664 2.758584
0.48287421 -0.49599317 2.7930291
0.85324383 -1.1379613 3.4660938
-0.88645637 -0.62676436 3.7025428
-0.6074574 -0.22548303 3.9483967
0.55784941 -0.36645925 2.5946186
1.0289944 0.18433052 1.8870178
0.8720454 0.12353756 2.0911629
0.17170787 -0.38945872 2.1802166
0.90413803 0.0027500552 2.1903877
0.83366919 0.10026158 2.0255275
0.97731739 0.1574847 1.8645561
1.0284209 0.21659629 1.6844326
1.2820759 -0.23520301 3.278337
1.1822038 -0.59104705 3.2739623
0.87353486 -1.1412748 3.4942491
0.17870907 -1.0661278 3.6541619
0.77889657 -1.0820663 3.443908
0.50865853 -0.5971778 3.9486802
0.39498472 -0.43191785 4.1596918
0.98156023 -0.21740992 3.4961162
0.62888032 -1.2505397 3.3468695
0.80952305 -0.61770248 3.1500399
1.036489 -0.3495217 3.5836821
-0.39047131 -0.58868039 3.8154817
0.83217537 -1.025928 3.6632717
0.89663386 -0.95986527 3.6656876
0.93031269 -1.1139381 3.4565766
0.68855393 -0.48090714 2.9650519
0.74637872 -0.46635279 2.9022331
0.84046346 -1.077094 3.3707218
0.9331733 -0.78671682 3.7441921
-1.1321702 -0.49102587 3.6548181
0.88927358 -1.0064673 3.6671464
-0.98345542 -0.66428798 3.5230057
0.95050758 -0.7361266 3.7663159
0.72494763 -1.0275698 3.2935102
0.86321861 -0.80957067 3.755898
0.74937129 -1.1074935 3.4054577
0.46033311 -0.26399627 2.4854794
0.35242766 -0.12578739 2.3147945
0.35600418 -0.25232115 2.4802496
1.388577 -0.36044306 3.1893132
0.87352526 -1.0438936 3.6248457
0.95668226 -0.43825227 2.7610877
0.84824324 -0.97292429 3.6605606
0.90035999 -1.0444371 3.603967
0.85861361 -0.80304891 3.7766352
1.2269104 -0.6269564 3.2195675
0.65788388 -0.39412257 2.7478008
0.67657059 -0.4126766 2.7024209
0.55314541 -0.3724322 2.7010024
0.43488041 -0.47837517 2.7290516
0.46697384 -0.49248415 2.7262652
0.84997159 0.064130977 2.0265844
0.74347395 0.063429065 2.0423756
0.82455099 -1.0778598 3.3411233
0.27881572 -0.0628777 2.1555443
-0.47970226 -0.87137741 3.5402806
0.9150455 0.17983207 2.0631063
0.38596398 -0.02167023 2.1149371
0.92915702 -0.57837808 3.1145291
0.84784353 -1.0850024 3.376127
0.8395105 -0.60595948 3.1274154
0.87875134 -1.0698589 3.376996
0.87610811 -0.55336875 3.0246758
0.93980974 -0.75405216 3.7685816
0.33998218 -0.57365727 4.1472731
1.1458946 -0.64599645 3.2633438
0.95095098 -0.56811678 3.3205197
0.86769354 -0.55432796 3.0413847
0.95682138 -0.33049932 3.6523266
1.0160017 -0.30866978 3.5794427
0.87481338 -0.52758533 2.9947233
0.82133931 -0.53685373 2.9901791
1.2631953 -0.36738726 3.0048707
0.71518844 -0.50958973 2.9782503
1.4110137 0.43321201 2.8730626
1.4235995 0.36154827 2.9041257
0.63097769 -1.2254803 3.3345244
1.1854357 -0.36425012 3.6187558
0.45909369 -1.4651564 3.4469743
0.5513159 -0.56323308 3.9618292
1.0657626 -0.24070834 3.4564133
1.2002164 -0.32095006 3.6006088
1.2080883 -0.34738228 3.6038682
1.0316201 -0.31085718 3.6515477
0.75367177 -1.0511079 3.6476722
0.31745303 -0.63325387 3.9092758
-0.25687861 -0.93842387 3.8329852
0.50165498 -0.30196813 2.5346105
0.99294573 -0.32159927 3.6788528
0.79575413 -0.92019492 3.7132926
0.94194597 -0.05638206 1.4614009
0.95884848 0.42555368 1.8737475
1.0215789 0.14101176 1.8979239
0.82446647 -0.9282487 3.7177932
0.82677478 0.20419903 2.0642819
0.89556468 0.29359612 1.7411472
0.95206046 0.16991857 1.8815501
0.82852978 0.17017084 2.0920208
0.92096829 0.2061267 1.8514227
0.86411846 0.046163082 2.155108
0.82500625 -0.021975689 1.6710131
0.86311829 0.12234785 1.9773456
0.92783946 0.14033344 2.0253923
0.80682296 -0.16038416 1.7428713
0.10507432 -0.097594574 2.1581223
0.94694543 0.44915214 1.825622
0.80703586 0.17510943 2.1802254
1.0063504 0.28958043 1.9033389
0.56016451 0.48354179 1.1380079
0.76859468 0.076271474 2.0308845
-0.74716085 -0.28860521 3.9918554
0.74365693 0.060841028 1.6276263
-0.96261847 -0.22809789 4.0274673
0.21459311 -0.040534932 2.2232971
0.58194125 -0.46606037 2.950686
0.77785265 -0.3554064 2.7344966
0.61681598 -0.36785957 2.6726446
0.7224378 -0.38727844 2.6300514
0.43551016 -0.091809027 2.2653401
0.53421187 -0.095590122 2.2861547
0.71945626 -0.82950097 3.81622
0.62256235 -1.2148247 3.3455505
0.61711806 -1.2469312 3.3357697
1.0263208 -0.29224721 3.7070849
0.95974344 -0.40214232 2.7840133
0.59304661 -0.49733827 4.0834565
0.62582052 -0.53334486 4.0593758
0.078047462 0.23358203 1.6234459
-0.80486822 1.991444 -1.6644995
-0.81595969 1.8528926 -1.7797495
-0.98014849 2.0790219 -0.69046801
-1.0821772 1.9848021 -0.7234903
-0.83553243 1.9748938 -1.2388251
-0.95159143 1.8906265 -1.5517927
-1.2365189 1.562001 -1.0021946
-0.98230422 1.6650636 -0.90769315
-0.9446274 2.1963789 -0.96741199
-1.43566 2.0375676 -0.83614558
-1.0280508 1.7364395 -1.3824224
-1.2965055 2.0456133 -0.78954798
-1.4349738 2.1275342 -0.76905781
-0.81147015 1.8349357 -1.7716395
-1.4499793 2.0475149 -0.84656346
0.93676573 -0.79016852 3.7423084
0.33775252 -0.66368663 3.9082861
-1.4315219 2.0432117 -0.8284694
-1.8385897 3.2091212 -2.1531758
-2.0131395 1.7306561 -1.0363423
-1.7783436 1.778008 -1.0411525
-1.719197 1.763473 -0.92749053
-1.4034369 1.5985254 -1.1001248
-1.612313 1.42564 -1.1244054
-1.3829733 1.6380763 -1.0160789
-1.8897915 2.1152532 -0.90209204
-1.6876609 1.5495673 -1.1746664
-1.4538609 1.526799 -1.1471204
-2.0047474 1.8329744 -0.98488081
-1.9532765 1.4295521 -1.2731267
-1.9140135 1.509364 -1.2005724
0.93728238 -0.78906596 3.7451425
0.81533688 0.031112112 1.6304455
0.84877348 -0.10567565 2.2212167
0.79381984 -0.95894367 3.7079108
0.83932507 -0.051782388 1.6153536
0.77763283 -0.018727085 2.1113229
-0.95704097 1.635584 -1.3742529
0.64993596 0.21772568 1.7151545
-0.9191286 2.1517329 -1.5201684
-1.0275395 1.4854954 -1.1024772
0.90424377 -0.038524613 1.4757353
1.0382258 0.16942942 1.7145708
0.86147517 -0.054577235 2.1078038
-0.86418998 1.8800156 -1.6094391
-0.87509739 2.0503368 -1.3495853
0.65581572 0.21588473 1.7150747
0.29451478 0.29573366 1.5732424
-0.89597249 1.7090645 -1.4323536
-0.85129708 2.0228157 -1.3432378
-1.491915 1.5865536 -1.0389396
-0.89409965 -0.70375383 3.6620004
1.091253 -0.29158849 3.6067305
-0.98673576 1.5827836 -0.90944338
0.30379075 0.057365134 1.9602046
0.48708892 0.32590726 1.4740275
0.19148882 0.04552535 1.9562682
-5.2209325 0.13707916 1.8614491
-0.74437338 -0.72059542 3.7080731
0.3265101 0.28970003 1.5869622
-1.1671258 1.7844694 -1.0154729
0.68087739 -1.0933318 3.4361682
0.18477124 0.051157817 1.951102
0.46619681 0.35820359 1.4381602
-1.4368434 1.8242757 -0.99861878
0.19112729 0.042302076 1.9595824
0.40231434 0.052079063 2.0052798
-1.0134652 -0.24387595 3.9900758
-1.5153378 1.6184893 -1.096754
0.010113325 0.21275365 1.6788619
-1.1586927 1.7125603 -0.9645502
-1.0231837 1.6389164 -0.98243433
0.93380868 0.3760559 2.0225372
0.9269287 0.64979213 2.1416507
-0.90827423 1.8335564 -1.3403724
-4.7532825 0.34002689 3.0500596
-0.64096689 0.91292572 0.10356249
-1.5216856 1.5664521 -1.1363109
0.25915959 -0.49595496 4.1386166
-0.81675828 1.691801 -1.4430714
0.54990506 -0.94133544 3.770963
0.12048586 0.0061503556 2.0831261
0.29881006 0.068374038 1.9376948
0.82931805 0.39986858 2.0053062
-0.91218746 -0.71313441 3.5597835
-1.1496528 1.5327013 -1.0652521
-0.92955381 1.6621581 -1.0795363
0.84400415 -0.81498891 3.7829955
0.92256761 0.38177878 2.0170698
-1.7670995 1.7512443 -1.0747796
0.89979684 0.42185354 1.9812754
-1.1477854 1.5404794 -1.0609827
-1.055681 1.5186446 -1.1581051
0.24880441 0.026990335 1.8584011
0.81431842 0.58766216 2.0184181
-0.8683306 1.5591221 -0.67276567
-1.5955403 2.2223809 -0.958556
-0.76904374 1.713858 -1.4177684
1.0166045 0.3333967 1.9681795
-1.4465063 1.5480731 -0.98201078
-1.8238077 1.2939678 -0.6803813
-4.3569574 0.50416797 2.9718666
-0.76755792 1.9850783 -1.3828537
1.3042973 -0.31061012 3.2145782
0.52594066 -0.92060244 3.7648418
-0.89558047 1.3109425 -0.73689246
-1.6410246 1.6741608 -0.82753944
-2.0135341 1.9794885 -1.4096936
-1.0559964 1.6482756 -1.1383903
0.28718698 0.086575232 1.9309803
-0.051944926 0.40144613 1.5165269
0.88714033 0.44582936 1.9647326
1.0095125 0.32913256 1.9814223
0.75914115 0.049854066 1.7182183
0.5368101 -1.2095183 3.6246662
-1.1847867 1.6909392 -0.90431815
0.83427972 0.028177641 2.0193968
1.0252974 0.29452699 2.0100818
-1.5819732 1.4223604 -1.1125008
-1.309309 1.6398238 -1.1115434
-1.9364638 1.669542 -0.96786886
1.0356859 -0.31891623 3.651536
0.53637421 -1.5751346 3.4092841
-0.30700842 -0.93407059 3.5843694
-2.0150516 1.6387712 -1.078747
-1.8884612 1.3747741 -0.77386743
-1.5970829 2.2500827 -1.0555652
-2.0014639 1.8308594 -0.9913457
0.89919782 0.10085864 1.6502316
0.88101441 -0.89082134 3.7120073
-1.6477907 1.5230615 -1.0483609
0.28852573 0.083005428 1.9282324
0.74619001 0.65965432 2.0929544
-1.6302716 2.1706166 -0.82326084
