# .PCD v0.7 - Point Cloud Data file format
VERSION 0.7
FIELDS x y z
SIZE 4 4 4
TYPE F F F
COUNT 1 1 1
WIDTH 180
HEIGHT 1
VIEWPOINT 0 0 0 1 0 0 0
POINTS 180
DATA ascii
0.25921786 -1.0097803 3.2936974
-0.10352496 -1.2753226 3.1322737
0.49189368 -0.91011012 3.2344975
0.071072966 -0.71920455 3.5335333
0.71374208 -0.67130053 3.581888
0.50816035 -0.98601329 3.3619769
-0.46491659 -0.60196549 3.0902462
0.60258663 -0.88943052 3.4918139
0.47276178 -0.67637455 3.6415009
0.098382704 -0.39780968 3.7558737
0.58626938 -0.76185662 3.5660539
0.097949795 -0.50628859 3.6801062
0.71689808 -0.95744938 3.4088075
-0.49025357 -0.7743187 3.6240211
-0.49217579 -0.77012223 3.625232
0.66383111 -0.86689258 3.478035
-0.65607947 0.076740675 3.484772
0.2689192 -0.95249039 3.3967283
0.075427204 -0.99539441 3.3377426
-0.11163271 -1.0407984 3.2139871
0.64852035 -0.77005684 3.549372
0.50617576 -0.98463112 3.3605771
0.072455533 -0.80804706 3.4636362
0.29414478 -0.40951923 3.7631576
0.26998866 -0.78483307 3.4749851
0.63741463 -0.72388375 3.5710585
0.82818413 -0.56942856 3.6097181
0.28713015 -1.0701754 3.3553374
0.1038641 -0.48197821 3.6832101
-0.47721362 -0.61404932 3.2637978
-0.93779641 -0.10249895 3.6467566
0.60096931 -0.87560874 3.494112
0.73695552 -0.99146211 3.3577557
0.46556175 -0.85928071 3.5345478
-0.42833477 -0.18949004 3.9274189
-0.64160371 -0.068958946 3.8044767
0.67647803 -0.8242299 3.5049133
-1.0965948 -0.4669413 3.1611416
-1.0862858 -0.480389 3.1738262
-1.0496614 -0.49216852 3.1717997
0.65210742 0.068368591 2.1441965
0.64719939 0.074352622 2.1356022
0.095333666 -1.1319777 3.2508106
0.47501144 -0.88203365 3.5347636
0.30047333 -0.84359467 3.5083244
0.076724239 -1.0091819 3.3299675
0.28288576 -0.96509904 3.4137042
0.57259649 -0.90357679 3.4789672
0.54314429 -0.71156627 2.9698007
0.72286636 -0.63133717 3.611495
0.65522182 -0.91992503 3.4477234
0.066314496 -1.1146688 3.2358534
0.68002146 -0.94591099 3.2500801
0.28440547 -0.96711361 3.4156809
-0.12850967 -1.036809 3.2035875
0.29519585 -1.395197 3.16837
0.45811066 -0.88821626 3.2173276
0.30457032 -0.79070997 3.5529532
0.085149214 -0.87423301 3.4276664
0.57201833 -0.90430301 3.4781644
-0.44890445 -0.59310246 3.0957196
0.64108104 -0.67777711 3.5977387
0.99543542 -0.5173195 3.2122242
-0.81441903 -0.097665012 3.6860821
0.80968976 -0.98654723 3.3641341
0.12131767 -1.1586205 3.2740254
-0.069470257 -0.68108672 3.5370955
-0.1157408 -1.0484207 3.2151804
0.089935586 -0.769795 3.4983661
0.85872835 -0.76781034 3.3505645
-0.11646689 -1.0457963 3.2109399
-0.78848034 -0.72420555 3.5522425
-0.83613646 -0.68393427 3.5336139
-0.96022749 -0.93290275 3.4610996
-0.94888115 -0.93801349 3.461875
-0.65474749 -0.63313621 3.1715128
0.59756917 -0.94681126 3.4427299
-0.77467263 -0.73234326 3.5438144
0.96832013 0.27995425 3.1335366
-0.63354987 -0.60376704 3.3981931
-1.1935771 0.01109016 3.6343117
-1.0101867 -0.18642414 3.6771901
-1.1937822 0.013745717 3.6494639
-0.61702043 0.099996939 3.4322748
0.73057312 -0.93668115 3.2193801
0.36018926 0.097138651 2.1019413
0.472992 0.16963787 2.0363698
0.27700335 -0.41904363 3.6970692
0.28039515 -0.76242191 3.077862
-0.20862851 -0.81193179 3.2190139
0.12634839 -0.47264951 3.9313555
0.72070992 -0.91293031 3.2070625
0.54231179 -0.70987123 2.9694583
0.54589617 -0.72782832 2.9823394
0.55181664 -0.77212965 3.0110133
0.92129439 -0.48588541 3.0849345
0.87172633 -0.15785562 3.5461817
0.30077592 -0.75125372 3.5702555
-0.15578851 -1.1965394 3.1686475
-0.64825147 -0.56758785 3.1780491
-0.42586318 -0.19137307 3.9230134
0.27288356 -1.1913404 3.2611902
0.93980819 -0.18858744 3.4538331
0.60368598 -0.21194009 2.5290954
0.45458099 -0.020930629 2.2783787
0.46236619 -0.051619023 2.3103173
0.41330057 -0.038042441 2.2586789
-0.99004877 -0.3599827 3.5849433
0.73423994 -0.84805542 3.6581933
-1.1934446 0.017247465 3.6512783
0.39050925 -0.91923571 3.20733
0.27636805 -0.80309713 3.4837334
0.28506377 -0.80412483 3.4964879
-0.42379135 -0.62084109 3.5655434
0.38928905 -0.87140131 3.1930473
0.10018065 -0.39755321 3.7517145
0.66380227 -0.89644802 3.4525945
0.38568678 -0.99780017 3.4399261
0.6846472 -0.77666885 3.5540822
0.30280787 -0.495765 3.7223682
0.80834007 -0.76747644 3.3331177
0.085758477 -0.42929721 3.9232879
0.29379717 -0.83696812 3.5050082
0.63629574 0.073824897 2.129385
0.60489994 -0.71910518 3.5888569
-0.090042233 -0.15156125 3.8204029
-0.69758767 -0.46828189 3.5699794
-1.164915 -0.75269091 3.2063918
0.81562161 -0.44001168 2.9937296
0.83920383 -0.26391417 3.4250326
0.4446477 -0.63843179 2.9106355
0.81360698 -0.42681456 2.9839461
-0.52129275 -0.65110487 3.2883797
0.29062596 -1.2084644 3.2885666
-0.91092414 -0.43530375 3.7025282
0.73040044 -0.99655205 3.3714225
-0.67724204 -0.33262318 3.5043426
0.64603436 -0.91711402 3.2426624
0.59038275 -0.22770977 2.5511026
-0.97767192 -0.14529203 3.9044626
-0.9622851 -0.15860794 3.8614633
0.91420478 0.13185857 2.183948
-0.93467307 -0.40388706 3.6795759
0.89215159 -0.2782281 2.6439676
0.61873007 -0.70155174 3.5939941
-0.60370523 -0.10472293 3.8252115
0.45547643 -0.98457783 3.4578578
-0.15709172 2.4583454 -1.9493001
-0.68530768 1.9671342 -1.311215
0.67626399 -0.81313038 3.5036941
0.86679667 0.13940334 1.5073169
0.81354958 0.20194823 1.958551
-5.4086952 2.3289399 -0.62068206
0.75960511 0.44339839 1.5840572
-1.2274024 -0.0092436112 3.6513438
-3.5138695 1.173269 0.82896477
-4.8681917 1.4472661 0.53509825
0.40882811 0.50003153 1.4402182
0.42545038 0.52763516 1.4019587
-0.20159288 2.3339529 -1.4709462
-0.61124367 -0.5970515 3.3366327
0.47143963 0.46957913 1.4690303
-5.2222013 1.3985959 1.3138008
-5.1516304 1.3704418 1.341714
-0.32004285 2.4927769 -1.1085169
-6.2145977 2.3103042 -0.2457449
-0.44132781 2.012203 -1.2425543
0.42067811 0.49540523 1.4401379
0.35769835 0.334198 1.7162634
-4.9422727 1.2923216 1.3268434
-5.3795319 2.4622977 -0.48854774
-6.1821899 2.2803378 -0.20521741
-1.1924535 -0.30171117 3.2453272
-5.0042787 1.3332663 1.306116
-4.5758243 1.3467971 1.114102
-6.2107935 2.2802777 -0.19347239
-5.2095633 1.7443918 0.74374986
-5.0147686 0.55188376 0.92583185
-0.42969877 1.979962 -1.3240892
-0.98177874 -0.14065871 3.9131777
