# .PCD v0.7 - Point Cloud Data file format
VERSION 0.7
FIELDS x y z
SIZE 4 4 4
TYPE F F F
COUNT 1 1 1
WIDTH 61
HEIGHT 1
VIEWPOINT 0 0 0 1 0 0 0
POINTS 61
DATA ascii
0.3191725 0.38897717 1.2147844
0.26856363 0.077286728 1.8527997
0.23990637 0.52063358 1.0964671
0.87558639 0.44103035 1.2179666
0.38074896 0.41670123 1.2614336
0.23652548 0.1742782 1.5962806
0.72409678 0.39362991 1.2920991
0.23771207 0.36384293 1.2046173
0.25599611 0.26502794 1.3724036
0.66869283 0.46179852 1.1298354
0.45483676 0.35403097 1.3641202
0.76359719 0.34907702 1.3496804
0.30567485 0.32990387 1.2003242
0.45318434 0.46953261 1.1224164
0.81971765 0.35420594 1.3493786
0.81809652 0.34998417 1.3413228
0.86148095 0.45657262 1.2113973
0.85782117 0.45031413 1.1981145
0.25634965 0.12339992 1.7605788
0.26724461 0.28855747 1.4104362
0.30106223 0.53106469 1.1264048
0.54989988 0.40295672 1.3878871
0.23935673 0.43410212 1.2098374
0.59606177 0.28717759 1.2107314
0.27900147 0.5769453 1.0105767
0.57444245 0.43452823 1.4644114
0.37518033 0.47368941 1.1135057
0.9618364 0.32237256 1.1974783
0.96499801 0.32582524 1.2061844
0.95842117 0.32526302 1.1969668
0.24773422 0.37051603 1.1889551
0.9023363 0.31535709 1.208841
0.89827263 0.31221634 1.2023642
0.38345033 0.27075601 1.233232
0.39650819 0.51070184 1.080162
0.26236218 0.36759204 1.2120947
0.39684775 0.50855577 1.0741973
0.89025903 0.50926083 1.1244642
0.88758522 0.4436065 1.1726382
0.46302208 0.53439295 1.0217637
0.54988927 0.40344912 1.3802497
0.9096269 0.31990811 1.2232023
0.38109276 0.48820975 1.1262556
0.22753485 0.53209889 1.0850607
0.30040571 0.35523683 1.2766116
0.83095723 0.3995074 1.3153516
0.26470664 0.39431742 1.2291814
0.27689546 0.42928568 1.2808365
0.3318724 0.25885063 1.2279912
0.52530444 0.37479687 1.2830714
0.8672716 0.49086604 1.1107341
0.95247108 0.33116955 1.2036765
0.89276451 0.44710442 1.2443125
0.79804039 0.51858103 1.0006082
0.73419011 0.35951465 1.3036613
0.99155265 0.2820861 1.3198754
0.26163432 0.28605974 1.3929104
0.77781928 0.43735424 1.1880689
0.30972043 0.37103179 1.2446744
0.33335993 0.2263736 1.2328714
0.71212977 0.52431422 1.0338701
