# .PCD v0.7 - Point Cloud Data file format
VERSION 0.7
FIELDS x y z
SIZE 4 4 4
TYPE F F F
COUNT 1 1 1
WIDTH 130
HEIGHT 1
VIEWPOINT 0 0 0 1 0 0 0
POINTS 130
DATA ascii
-0.34167615 0.0031871838 1.7639694
0.084682427 -0.74081141 3.5246472
0.49338761 -0.92431664 3.2117627
0.7259407 -0.68747801 3.5534546
0.51580662 -1.0018115 3.3373368
0.61460918 -0.96153533 3.4175289
0.60825175 -0.9659369 3.4175589
0.60461563 -0.77375281 3.5399158
0.61399108 -0.96317017 3.4177299
0.63383287 -0.92292428 3.4332938
0.58026475 -0.83421737 3.5085752
0.58005095 -0.8321591 3.5090053
0.11456507 -0.42505178 3.7561557
0.59914136 -0.77955145 3.5414212
0.58271313 -0.72391659 3.5776582
0.11250041 -0.53242642 3.6788578
0.72587311 -0.9710393 3.3761387
0.48620975 -0.65103239 3.6478906
0.72437441 -0.68215054 3.56165
0.6702202 -0.91403693 3.4312763
0.73121077 -1.0091517 3.3436687
0.63716644 -0.87548578 3.4664364
0.66626126 -0.69998753 3.5743928
0.72641617 -0.62906671 3.5934148
-0.92900127 -0.14256206 3.6932991
-0.62713468 -0.10719866 3.8394382
-1.1024958 -0.50215042 3.2090955
-1.1146823 -0.48908728 3.1963983
-1.0909392 -0.51013923 3.2122247
-1.0915046 -0.51563519 3.2211525
-1.0548396 -0.52687669 3.2174761
0.59635103 0.071849346 2.1306071
0.083772704 -1.0304822 3.322397
0.20250684 -0.91467929 3.3419292
0.29255438 -0.98476017 3.398406
0.082134806 -0.74661237 3.5311007
0.51874578 -0.99870521 3.3336413
0.48749995 -0.75288403 3.5837519
0.66020024 -0.82447535 3.4880078
0.3701883 -1.2427386 3.2485793
0.65200281 -0.74089444 3.5435898
0.094359852 -0.89684743 3.4216788
0.49395052 -0.94479001 3.2189052
0.64069599 -0.97025335 3.2342262
0.3148945 -0.46847525 3.7512481
0.90447813 -0.1678452 3.4661651
0.79964525 -0.43688145 2.9583333
0.38395837 -1.022217 3.3779602
-0.80420744 -0.13658786 3.7276886
-0.11264643 -1.0707256 3.2148862
0.10062229 -0.7933799 3.4936781
1.0771 -0.57808799 3.1315739
0.82612759 -0.4790521 3.1658263
0.41129088 -0.47227952 3.787405
-0.77541786 -0.76072198 3.5835822
0.47452831 -0.99942189 3.4337585
-0.94793719 -0.97044325 3.4963312
-0.9365021 -0.97540724 3.4965723
0.60788536 -0.9625411 3.4149971
-0.62846071 -0.63595128 3.4252281
0.30260596 0.09718366 2.1005836
0.10744814 -0.88421017 3.4306726
0.83619398 -0.10737866 3.5475194
0.29352841 -1.2309073 3.2682028
1.0260254 -0.51263797 3.1572607
0.72092247 -0.92357761 3.1750906
0.91072601 -0.49208879 3.051362
0.71082181 -0.94878513 3.1924636
0.088509731 -1.1463447 3.2369676
-0.40516937 -0.22830801 3.9473457
-0.62753612 -0.15844209 3.8523281
-0.86474425 -0.13754888 3.5609746
0.3911159 -0.93445218 3.1885695
0.409518 -1.0296892 3.4200435
0.5179407 -0.99651283 3.3291855
1.0262105 -0.46585587 3.1371644
0.69440329 -0.97861016 3.2397289
0.10914855 -0.45911318 3.9234545
-0.41413796 -0.60658681 3.2575972
0.73828697 -0.17901821 2.4148867
0.57383287 -0.23473671 2.5243466
0.72298408 -0.36794794 2.8288174
0.69317138 -0.97672558 3.2394764
0.72261399 -0.33855024 2.8137031
0.76506418 -0.7400046 3.6317112
0.42947328 -0.64869225 2.894156
0.79826486 -0.43306792 2.9556875
0.69688058 -0.92784274 3.1792293
-0.97397649 -0.22983927 3.9563076
-0.95783836 -0.18960099 3.9517353
0.74632716 -0.1891169 2.4325154
0.74485487 -0.19199601 2.4319096
0.38558963 -0.92633742 3.1912243
0.63190573 -0.7192111 3.568927
0.12582196 -0.54281849 3.6797929
-0.5879575 -0.14272934 3.858093
0.46703419 -1.0024827 3.4352736
0.52652371 -0.94120961 2.8231037
-0.40951785 2.5089779 -1.8908526
-0.65217495 2.4848189 -0.90578252
-0.90491235 2.0013909 -1.2393982
0.10389616 -0.66795772 3.588778
-0.42318401 2.1371729 -1.6114143
-0.65857023 2.4974592 -0.87782776
-1.5678464 2.136961 -1.5251776
0.52378422 -0.92673367 2.8193707
-0.59635079 2.5328629 -2.0589266
-0.39334452 2.2997389 -1.9620625
-6.3899593 2.2487314 -0.017718902
-0.62889802 3.4786661 -2.3752253
0.3190707 0.5101772 1.443521
-0.38748661 2.6414518 -1.3947363
-5.2518506 1.3049296 1.5821582
0.3309679 0.5057168 1.4428943
0.2813611 0.33970308 1.7188982
0.67320192 0.43635479 1.5753441
-5.5681157 2.4197152 -0.22094376
-0.51852584 2.6030893 -1.1596255
-5.7247543 1.9038129 0.83043092
-0.44263381 2.3437064 -0.86534435
-5.4385667 1.7435833 0.9575156
-0.48986211 2.1491885 -1.5734411
-4.6854715 1.2925234 1.3312007
-6.384264 2.2219951 0.10464115
-5.3388963 1.686596 0.99265856
-0.65538412 -0.37747642 3.5169451
-0.65022665 2.017936 -1.2623694
0.16821067 -0.32652041 3.9537411
-5.2418895 0.57001555 1.1113682
0.73276418 -0.39120123 2.8621881
