# .PCD v0.7 - Point Cloud Data file format
VERSION 0.7
FIELDS x y z
SIZE 4 4 4
TYPE F F F
COUNT 1 1 1
WIDTH 142
HEIGHT 1
VIEWPOINT 0 0 0 1 0 0 0
POINTS 142
DATA ascii
0.6248337 -1.0848005 3.269094
0.76503122 -1.1151154 3.4636326
0.76446176 -1.1167536 3.463928
0.78496939 -1.075848 3.4766493
0.73705298 -0.98608351 3.5544446
0.76145071 -1.1176378 3.4623067
0.65301085 -0.8471716 3.6733077
0.28188547 -0.68698877 3.7599738
0.87152481 -1.129464 3.4101641
0.88285124 -0.83066022 3.590435
0.88569582 -0.82037586 3.5957642
0.8175348 -1.0896111 3.4571993
1.1400585 -0.62184936 3.1312401
-0.21591848 -0.38198555 4.0724874
-0.44692987 -0.26870862 3.977998
0.6114257 -0.11446957 2.1599848
0.60525531 -0.1087179 2.1520727
0.6502248 -0.90426278 3.6359198
0.24634486 -1.0579258 3.5141785
0.6263932 -1.1050793 3.2766325
0.65447015 -0.89317673 3.6330407
0.48887974 -0.71753699 3.7522495
0.45581931 -1.2012722 3.4641595
1.1807427 -0.65984929 3.0753572
0.21402927 -0.78074473 3.669776
1.3994188 0.33629617 2.782655
1.0447748 -0.31632411 3.4667263
0.89832032 -0.59941924 2.9771636
0.55641025 -1.186138 3.4910645
0.10209317 -0.86788034 3.6416993
0.024186265 -1.2398945 3.3314729
0.81814593 -1.1706021 3.3977878
0.99783313 -0.50711942 3.1400299
0.75337386 -0.88193542 3.6108801
-0.60707098 -0.93048948 3.7522907
0.54765248 -1.2564173 3.0509114
-1.0168942 -0.20287274 3.8969021
0.86007982 -1.1049958 3.2226844
0.43617132 -1.3927681 3.350883
0.32433516 -0.62778658 4.0016136
0.95918095 -1.136973 3.3672419
1.1423581 -0.62430573 3.1318009
0.8985424 -0.77175289 3.6172481
0.46882054 -1.5845991 3.2434785
0.91864562 -0.44879082 2.6263413
0.6565119 -1.1513042 3.3899283
0.66126561 -1.1536855 3.385416
1.1407925 -0.62063015 3.13499
0.29975995 -0.60766464 4.0020523
0.59364492 -0.10961282 2.1473589
0.43890727 -1.4043018 3.3539717
0.91953343 -0.6721983 3.19401
0.43837756 -1.3983923 3.3547118
0.91300493 -0.64240116 3.1843727
0.75528789 -0.61644959 2.9982228
0.75254405 -0.574543 2.9084432
0.63609105 -1.1175807 3.2863476
0.24313448 -1.3003851 3.327441
0.22480384 -0.51525789 4.0048332
0.7876367 -0.40486133 2.6183419
0.61997133 -1.1058542 3.2805789
0.51389956 -0.37532735 2.5664973
0.046428651 -0.64378518 2.2059414
0.5182972 -1.4107379 3.3274462
0.84107572 0.36369908 1.8453965
0.56395471 -1.1992658 3.49529
0.31229147 -0.092568144 2.1385231
0.75312579 -0.57513636 2.9088473
0.78185612 -0.40371454 2.6206412
0.86479604 -0.71814102 3.1974864
0.81851166 -1.1015214 3.2232358
0.87810081 -0.7848323 3.6222072
0.82470828 -1.094491 3.2244735
0.28205511 -0.56883681 3.8260562
0.84426963 -0.56249088 2.877635
0.75758582 -0.57955253 2.9075236
-0.76450485 -0.35309556 4.1221876
0.82454604 -1.1796201 3.3415611
1.2416447 -0.28441176 3.1005969
1.2415766 -0.083332427 3.1559932
0.4850944 -0.81687951 3.6921272
1.020238 -0.24385649 3.3192747
0.83881915 -0.74721044 3.0620031
0.65488845 -0.80228239 3.697933
0.67546171 -0.41067642 2.6274402
0.79282999 -0.36562639 2.4528286
0.8748914 -0.82545984 3.5933225
0.55679584 -1.1959404 3.4950659
0.32025105 -0.2371221 2.3414726
0.9252581 -0.44879681 2.6260924
0.57138163 -1.1126293 3.2701766
0.70566648 -1.1176562 3.2570262
0.81147963 -1.1641932 3.332679
0.81415707 -1.1634351 3.3342142
1.3412175 -0.39718878 3.0494573
0.95841855 -0.58986759 3.166455
0.76456124 -0.62192225 3.0011122
0.90006453 -0.76756865 3.6196957
0.7857365 -1.0763426 3.4769914
0.55701351 -1.2202046 3.1872542
0.29520059 -0.69531316 3.7593558
0.55962986 -1.2305405 3.1828752
0.60321486 -0.38306886 2.5450385
0.54239446 -0.39824107 2.5942628
0.50541997 -0.35787901 2.5588055
-0.40561536 -0.30318961 3.9937921
-0.6726073 -0.19489026 3.8327909
0.13958809 -0.47313058 2.0183129
0.9162395 0.48360491 1.7025771
0.91290259 0.52297348 1.6713307
0.59658515 -0.10416584 2.1476035
0.27260369 -0.02927929 2.0956593
1.1415259 -0.62425566 3.1307676
0.91763151 0.18188733 1.775079
-1.224893 1.7085013 -1.1016971
-1.4229916 2.1977065 -0.93071848
-0.95477748 2.2169526 -0.77609557
-1.2342485 1.7193822 -1.1283364
-1.1336977 1.6864976 -1.167866
0.62371337 -1.1030906 2.8811264
0.27557474 0.33015266 1.4509494
0.93760735 -1.0595199 3.4262168
0.26261136 0.2851052 1.4946882
-0.97536594 1.7609897 -1.0663005
-0.84478277 1.8539633 -1.4759331
-0.50010848 -0.547315 3.6659076
-0.97370303 1.7281759 -1.148417
-1.4624125 1.8950745 -1.1004386
0.80185777 0.77877665 1.8837174
-2.1326611 2.5386844 -2.3100786
0.087042555 -0.098683544 2.0409188
-0.82791173 -0.67648786 3.5472951
0.65230614 0.19979963 1.6236556
0.19308238 0.040863272 1.862656
1.1188054 0.59779209 1.9730252
1.1079968 0.61629367 1.9620034
0.82214242 -0.55712569 2.8865445
0.94044334 0.46788523 1.7686057
-1.8176563 1.9620919 -1.2501786
0.87882185 0.4319981 1.8558373
-1.7633728 1.8976963 -1.158289
0.276959 -0.93860584 3.6195986
