# .PCD v0.7 - Point Cloud Data file format
VERSION 0.7
FIELDS x y z
SIZE 4 4 4
TYPE F F F
COUNT 1 1 1
WIDTH 153
HEIGHT 1
VIEWPOINT 0 0 0 1 0 0 0
POINTS 153
DATA ascii
0.2632044 0.65840483 1.0991873
0.26494819 0.65946436 1.1029816
-0.18737 0.72676742 0.99466306
-0.52569091 0.42540199 1.3328856
-0.73740196 0.48703632 1.3047332
-0.22694764 0.60743314 1.1052873
-0.48368466 0.65619302 1.0778818
-0.57285595 0.63538879 1.085845
-0.23242614 0.55853724 1.1183046
-0.88703972 0.39053461 1.4349346
-0.35685566 0.38093787 1.4933354
-0.32731965 0.68634272 1.0244004
-0.27674264 0.58203179 1.0177833
-0.23246166 0.56033921 1.1169345
-0.76232409 0.54720283 1.2111616
0.05030388 0.62934899 1.1050708
-0.50638115 0.6338765 1.1246778
-0.48574555 0.69561774 1.0254195
-0.066076703 0.64786351 1.067767
-0.62172556 0.51142478 1.264433
-0.69047207 0.42363226 1.4503043
-0.34127259 0.54831612 0.98943603
-0.29421973 0.50204772 1.17079
-0.56987023 0.63266683 1.0807492
-0.3623201 0.38210109 1.5044584
-0.57693052 0.67003947 1.0161344
-0.60409456 0.43082762 1.3879032
-0.50966299 0.71749181 0.97815579
-0.50969779 0.63383943 1.1235014
0.050186932 0.62884164 1.1010604
-0.72312593 0.51698983 1.2556603
-0.026373966 0.6552369 1.1033275
-0.16923182 0.49686053 1.1861649
-0.60981214 0.42934793 1.3917304
-0.32973918 0.68098873 1.0194027
0.1517486 0.56647521 1.2662827
-0.22840938 0.60768306 1.110777
-0.2661621 0.62787604 1.0752805
-0.37246791 0.37923908 1.4997702
-0.24497621 0.44481087 1.4577141
-0.57654214 0.66824782 1.009041
-0.61504805 0.53787625 1.2204413
-0.028712934 0.64805204 1.0926737
-0.052718371 0.67306215 1.0447757
-0.3810516 0.67098314 1.0544184
-0.52087545 0.71594244 0.99410146
-0.56930029 0.63161343 1.0790671
-0.48551148 0.69597566 1.0220332
-0.21803276 0.56540102 1.104426
-0.38977477 0.57807338 1.010515
0.29894805 0.56992847 1.2510288
-0.28453031 0.72434765 0.96042567
0.25129876 0.59788102 1.1674644
-0.023519404 0.72131687 0.96872061
-0.55426115 0.74225497 0.94440788
-0.64184809 0.88121641 0.76565945
-0.7562409 0.54316455 1.2028008
-0.28625429 0.72805983 0.9640429
-0.17587058 0.53948689 1.1707327
-0.030406954 0.75017369 0.97178996
-0.61890489 0.80618769 0.81593394
-0.70274907 0.67544454 1.0297078
-0.6324079 0.76593477 0.83091736
-0.36329412 0.38043079 1.4820542
-0.58344799 0.75934452 0.89511222
-0.53913242 0.75173289 0.94524002
-0.61676657 0.72146493 0.87227821
-0.55100435 0.75772935 0.94660425
-0.77027595 0.60328096 1.1577333
-0.50459033 0.80516946 0.84205925
-0.99830616 0.44947419 1.41039
-1.057584 0.34488285 1.6173841
-0.094963737 0.64804542 1.1242278
0.18906096 0.60714352 1.1458925
-0.059657954 0.664621 1.079121
-0.26318792 0.59616417 1.0750126
-0.5547325 0.73928821 0.94544995
-0.64071113 0.70947552 0.9305833
-0.77306932 0.57583904 1.1566381
-0.64805096 0.51553911 1.2303393
0.31261945 0.52608043 1.3761387
-0.48362505 0.71573049 0.98165953
-0.40334693 0.82837987 0.81788319
-0.70355594 0.52300394 1.2586402
-0.63560247 0.81514168 0.82868773
-0.66563308 0.51599175 1.2686973
0.042916961 0.71052074 0.99540818
-0.32910049 0.85456526 0.78575748
-0.32450005 0.84797072 0.77158475
-0.31034443 0.7374835 0.97138876
-0.032478116 0.66927701 1.0288984
-0.28309703 0.73256785 0.99393886
-0.20559555 0.40818986 1.4820389
0.15601084 0.69448942 1.0351816
-0.50053829 0.79112172 0.87179267
-0.3284151 0.85179323 0.77960569
-0.32680234 0.62970984 0.98606902
-0.45902857 0.56274694 1.1895152
0.051291049 0.63066584 1.101126
-0.32999125 0.85195601 0.78688139
-0.19722587 0.82753956 0.81418985
-0.3905839 0.62584656 1.0276977
-0.041622531 0.72618419 0.96584547
-0.21228966 0.84471297 0.81759596
-0.50247127 0.88308358 0.77340335
-0.19862381 0.83559358 0.8247093
-0.21074848 0.85022205 0.82883722
-0.052531496 0.6715613 1.0410374
-0.22989374 0.55892718 1.1098518
-0.61572117 0.67522234 1.0172105
-0.50479925 0.66244829 1.0793129
-0.25721306 0.43492648 1.5033644
-0.95689875 0.34615266 1.5904145
-0.32940936 0.85216451 0.78415406
-0.0079264315 0.81455153 0.87254423
-0.51178974 0.72298616 0.97783679
-0.29184377 0.67616057 1.0342762
-0.43786445 0.71814519 0.99519652
0.13264409 0.62271845 1.1134906
-0.62915975 0.68972248 1.0194436
-0.41247255 0.5100674 1.1103889
-0.78263712 0.54595947 1.2090335
0.012706997 0.53651881 1.3066143
-0.32329175 0.68552977 1.0188576
-0.031178871 0.74536872 0.95511544
-0.30174968 0.8357777 0.81624693
-0.016917162 1.3829114 1.3413265
-0.24462083 1.4024135 1.3315822
-0.24180777 1.3856381 1.3154179
-0.35809618 1.3958845 1.3016042
-0.35888669 1.394354 1.3042966
-0.35849738 1.3931072 1.3059862
0.30537951 1.3477999 1.4125377
-0.1806 1.3701361 1.3454226
0.31248125 1.3543283 1.4231812
0.30018321 1.342157 1.4076712
-0.18351714 1.3723379 1.3503183
0.30609983 1.3366212 1.4025447
0.18312062 1.3622816 1.4178947
-0.039289057 1.3603748 1.3882983
-0.019574437 1.3714206 1.3307405
-0.76948458 1.4438155 1.3060919
-0.54113477 0.81069589 0.84323788
-0.28335276 0.56923908 0.97834802
0.18630275 1.3705525 1.421156
-0.55291313 0.75965196 0.94396591
-0.18693978 1.3769776 1.4234756
0.1981142 1.3391868 1.5142646
-0.33132955 0.85631865 0.78805989
0.12860702 1.4134171 1.3301357
-0.28173983 0.51460713 0.97192103
-0.51070845 0.71908861 0.97729832
-0.17510575 0.36757585 1.613291
