# .PCD v0.7 - Point Cloud Data file format
VERSION 0.7
FIELDS x y z
SIZE 4 4 4
TYPE F F F
COUNT 1 1 1
WIDTH 271
HEIGHT 1
VIEWPOINT 0 0 0 1 0 0 0
POINTS 271
DATA ascii
0.076295227 0.48944479 1.2652619
-0.22910261 0.43890649 1.3364807
-0.46978757 0.48405418 1.2605395
0.19603711 0.44333512 1.322593
-0.44224775 0.44230682 1.3241289
-0.041480381 0.41317335 1.3646637
-0.10106238 0.34376004 1.4000199
-0.2466515 0.35616755 1.2344801
-0.44265124 0.47509313 1.275255
-0.22513162 0.35937187 1.2786921
0.13848177 0.42205209 1.3254287
-0.006974461 0.2920104 1.5704982
-0.46898434 0.17749342 1.5790696
-0.68166733 0.23843804 1.557515
-0.068819113 0.48333034 1.2929827
0.03940887 0.46474376 1.2773119
0.03940887 0.46474376 1.2773119
-0.28080863 0.37132549 1.2278094
-0.2838507 0.39159787 1.242355
0.054070532 0.47081673 1.2830428
0.02167487 0.41621965 1.3356107
-0.72912973 0.18819799 1.6830347
0.058173366 0.47231442 1.2848172
-0.48384976 0.48703924 1.2586044
0.12977181 0.47473803 1.2871399
0.12977181 0.47473803 1.2871399
-0.46674359 0.10225278 1.8668951
0.18039779 0.45762083 1.2918273
-0.33046079 0.30721593 1.2530512
-0.71155041 0.020867953 1.8347199
-0.17896266 0.50750691 1.240189
-0.33286759 0.012698241 1.9912207
-0.17385931 0.022700304 1.969154
-0.19746201 -0.035258681 2.0826483
-0.28953972 0.32690889 1.2436758
0.077590577 0.4794752 1.2615217
0.14378911 0.42125896 1.3436882
0.13058685 0.47607866 1.2933555
-0.13379811 0.48957977 1.2764056
-0.17502485 0.37748578 1.3604951
-0.8500368 0.21257286 1.681147
0.033489261 0.43901101 1.3054935
-0.24407226 0.35377121 1.2279627
-0.28793275 0.32752743 1.240865
-0.1781002 0.16297448 1.6912307
-0.52142364 0.40272972 1.3469774
-0.17982474 0.32778031 1.3703237
-0.14087941 0.30708635 1.5096309
-0.14087941 0.30708635 1.5096309
-0.36876738 0.49369708 1.2553469
-0.89245075 0.075161442 1.8315086
-0.2977128 0.12448944 1.7342571
-0.0078058341 0.28992197 1.5746849
-0.23747922 0.51092362 1.237556
-0.2772198 0.46040121 1.2861634
0.28106025 0.23932646 1.6193854
0.15559794 0.20589501 1.4512599
-0.34714159 0.16835928 1.6910036
-0.22562963 0.35733283 1.272094
-0.63508648 0.15413468 1.6795162
-0.17905886 0.16145761 1.7060513
-0.17905886 0.16145761 1.7060513
-0.2436326 0.29303461 1.4303032
-0.1347452 0.29919592 1.4680974
0.26388466 0.374192 1.4073392
0.0036294023 0.50156361 1.2427639
0.10195573 0.40251574 1.3584875
-0.45446032 0.39942086 1.3848473
0.051862463 0.43223733 1.3017061
-0.98615086 -0.016639909 1.9384197
-0.56676352 0.26673734 1.5175627
-0.63226944 0.16613083 1.6980317
-0.29014626 0.32482457 1.2423409
-0.24036279 0.26726186 1.4196885
0.016170908 0.44123578 1.29755
0.26469651 0.37476164 1.4092368
-0.51847273 0.40038303 1.3416786
-0.13379256 0.29548427 1.4430628
-0.61691779 0.048833363 1.8994807
-0.30305091 0.12485617 1.7454957
-0.18841931 0.36915714 1.3706189
-0.18841931 0.36915714 1.3706189
-0.54675287 0.17839669 1.6352366
0.16712868 0.42813802 1.3155415
-0.72493553 0.058238387 1.7860769
-0.45779067 0.3994236 1.3837098
-0.47175172 0.08208058 1.8484163
-0.0089348098 0.28593189 1.572498
-0.4894377 -0.0051850984 2.0092983
0.10179444 0.40227208 1.3544539
-0.31653026 0.060694002 1.881296
-0.72408056 0.062921017 1.7825373
-0.010647531 0.28521091 1.5741588
-0.29045752 0.25175333 1.5741627
-0.17853026 0.33215702 1.3665694
-0.20786542 0.24592856 1.3880596
0.28755718 0.24023886 1.6345415
0.024992963 0.42758974 1.3593497
-0.18707113 0.20160718 1.6560599
-0.22624479 0.31183177 1.2623514
-0.2796444 0.4553605 1.2808523
-0.21143723 -0.086515881 2.1228957
-0.48307437 0.4146148 1.3085848
-0.26091126 0.084149309 1.8257768
0.20604956 0.33032766 1.5140084
-0.38472596 0.49619675 1.2611437
-0.38472596 0.49619675 1.2611437
0.12205213 0.39836255 1.3629934
-0.17642099 0.37735733 1.366006
-0.21482202 0.39941195 1.3323612
0.27898207 0.40125412 1.3860272
-0.67223012 0.15933391 1.7752836
0.13609649 0.47314405 1.329747
-0.72030693 0.053357664 1.7963498
-0.31322524 0.12219377 1.7407477
-0.35456342 0.093406059 1.7534659
-0.35456342 0.093406059 1.7534659
-0.32497251 0.078046411 1.7426114
-0.22604479 0.0035884245 2.0081573
-0.25284043 -0.019130416 2.0433886
-0.11053425 0.47304755 1.3062195
-0.27155721 0.25101608 1.3970294
0.059595179 0.41066495 1.3481249
-0.3652167 0.14542975 1.62893
-0.2959834 0.25075725 1.5919306
-0.18078367 0.51104748 1.24597
-0.18696447 0.19183418 1.7016207
-0.14957426 0.15277278 1.7371372
0.12461795 0.46575531 1.2760304
-0.59492671 0.10601293 1.7689801
0.19469495 0.46248078 1.2652056
-0.3554315 0.088409938 1.7692615
-0.67387247 0.13306683 1.6958185
-0.52640849 0.44052675 1.2725549
-0.18519281 0.49335665 1.257403
-0.46907651 0.17494644 1.5796713
-0.36574936 0.14721131 1.6288486
-0.62651956 0.22463495 1.5786806
-0.13977531 0.15620731 1.685607
-0.63024765 0.15732783 1.6781743
0.078867748 0.48133305 1.2427833
-0.64961457 0.10629924 1.7331349
-0.32433102 0.064215817 1.8943634
-0.45644963 0.044867396 1.9303727
-0.3427844 0.33561236 1.2470304
-0.1678113 0.30178589 1.3810806
-0.49920213 0.41335711 1.3199317
-0.058183495 0.2189393 1.4158852
-0.2391903 0.2946828 1.3835675
-0.20808628 0.23031491 1.3952153
-0.20808628 0.23031491 1.3952153
0.22274606 0.38150707 1.3956518
-0.1950724 0.22701253 1.3623124
-0.20306104 0.22948554 1.3915797
-0.0022620577 0.44892839 1.302412
-0.44963041 0.47381017 1.2815316
-0.19212881 0.36968893 1.3595316
-0.34348357 0.4252381 1.3140606
-0.15793848 0.29079625 1.589198
-0.27660689 0.34327039 1.436242
0.23724902 0.46129411 1.3056248
-0.20401052 0.23879559 1.5457191
0.14073037 0.41739187 1.3323207
-0.21001616 0.24212076 1.5698985
0.23590139 0.45947817 1.2995756
-0.35610849 0.20594603 1.5711106
-0.35739288 0.20550816 1.573498
-0.35548073 0.20223275 1.5632381
-0.54050326 0.43581259 1.3417189
-0.3316066 0.30809096 1.2552236
-0.5124113 0.39050773 1.38755
-0.22638428 0.33828208 1.2582293
-0.28218904 0.34298474 1.4441615
-0.27418065 0.33959666 1.4285797
0.055012912 0.48757961 1.2443185
-0.17166668 0.39884382 1.3797196
0.15520179 0.2078604 1.4539385
-0.36610889 0.28686175 1.437178
0.22725004 0.3544924 1.6877015
-0.27959928 0.38834262 1.2350228
-0.0025940645 0.44688895 1.2984962
-0.20283765 0.28760046 1.3782204
0.19400114 0.2049375 1.4675736
0.19400114 0.2049375 1.4675736
-0.12658103 0.28371015 1.463025
-0.4186157 0.50859439 1.2265788
-0.12093343 0.32357204 1.4164703
-0.12372138 0.32638711 1.4368255
-0.2796458 0.31917167 1.4688261
-0.45331284 0.23738655 1.5237956
0.08923883 0.34528458 1.7055267
-0.1593889 -0.0071332157 1.8719022
-0.3459931 -0.072224505 2.1263142
-0.20063779 -0.079707392 2.0854802
0.043647178 0.49101126 1.2509507
-0.44552851 0.44851223 1.3298969
-0.43552178 0.46837178 1.2862834
-0.29224586 0.44440871 1.276733
-0.16567783 0.33570537 1.3567606
-0.21034399 0.37670651 1.3473725
-0.20874454 0.33608392 1.3769948
0.26253209 0.37359372 1.4038002
0.12181826 0.46269256 1.273051
-0.1305484 0.17163689 1.7139256
-0.85369408 0.21504137 1.6648747
0.24404493 0.42781517 1.3312907
-0.51009351 0.38839015 1.3837491
-0.28792417 0.32920378 1.2418344
0.1589652 0.39349407 1.3785162
0.042629924 0.44899252 1.3318647
0.10656089 0.45090044 1.302158
-0.23363549 0.28711265 1.3983401
-0.23321986 -0.26703358 2.4315071
-0.58855873 0.18377969 1.7064928
-0.23529974 0.37602904 1.4041197
-0.23529974 0.37602904 1.4041197
-0.041417651 0.41259232 1.3689961
-0.17042308 0.40011734 1.3768877
-0.45245075 0.39854023 1.3915708
0.35900265 0.27671865 1.608449
0.27458754 0.23436996 1.6135404
-0.1766887 0.20608498 1.6441301
0.021453423 0.45864975 1.2909902
1.3584996 -0.41510597 2.7022395
-0.81730914 0.096833192 1.7413402
-0.4840858 0.35716149 1.4389837
-0.30428487 0.12465258 1.7230431
-0.33056706 0.006385847 2.0115921
-0.043252673 0.41826022 1.3805296
-0.89472425 0.00048555978 1.9075913
0.46233675 0.32719347 1.5186545
-0.2240613 0.14655386 1.7683984
-0.32342505 -0.079281002 2.1031153
-0.72273844 0.048287787 1.816589
-0.46463025 0.52139455 1.2389365
-0.64583647 0.27611709 1.5085498
0.28529748 0.37137291 1.4183331
-0.1533242 0.38612649 1.457018
0.60761476 0.35398594 1.508756
-0.50995106 0.43239293 1.2999681
-0.58538371 0.23540129 1.5661018
-0.26515955 0.52031463 1.2447263
-0.26144421 0.51510847 1.2364441
-0.45341408 0.57301974 1.1428279
-0.0021056905 0.44767895 1.2985811
-0.4537428 0.43093157 1.3414493
-0.13929452 0.33079961 1.3413987
-0.38359708 0.48946342 1.2492715
0.067842782 0.29620546 1.5538977
-0.27325255 0.46000051 1.2805325
-0.89132559 0.013104551 1.9158809
-0.71384233 -0.26132727 2.3735056
-0.52018124 0.43950963 1.2599764
-0.62269384 0.15928936 1.6809667
-0.62269384 0.15928936 1.6809667
-0.40906641 0.30779168 1.4347401
-0.14649998 0.0039423853 1.8705713
-0.15205775 0.038314063 1.7796776
-0.14427677 0.0032728945 1.882314
-0.13026524 0.13403445 1.7212914
-0.14224708 0.00044040487 1.9034522
-0.21143721 0.24114208 1.5514083
-0.21729976 0.30179706 1.2234641
0.33677617 0.43597361 1.3275242
-0.29895997 0.24927975 1.5800592
-0.46151412 0.49409026 1.2434666
0.26615685 0.37625828 1.412975
-1.2773317 -0.37765041 2.6194339
-1.1670204 -0.646038 3.0239329
-0.22019851 -0.27563888 2.4624507
-0.11131806 0.17634918 1.6686808
