# .PCD v0.7 - Point Cloud Data file format
VERSION 0.7
FIELDS x y z
SIZE 4 4 4
TYPE F F F
COUNT 1 1 1
WIDTH 195
HEIGHT 1
VIEWPOINT 0 0 0 1 0 0 0
POINTS 195
DATA ascii
0.83958542 -1.0100935 3.1781049
0.35134205 -0.86401904 3.6519859
0.97639018 -0.74977708 3.5340021
0.86429864 -1.0360748 3.4270113
0.86389393 -1.037753 3.4273503
0.88279635 -0.99550676 3.4380093
0.86077309 -1.0388502 3.4261119
0.55209953 -1.5264682 3.2372458
0.94293022 -1.0215061 3.3884642
0.37745497 -0.78636867 3.701298
0.8458401 -0.79831535 3.5890331
0.85942107 -0.79177123 3.5813293
0.75382239 -1.0790038 3.3537209
0.97614664 -0.74440664 3.5423145
0.75767261 -0.7749297 3.6551142
0.97888637 -0.73397249 3.5474019
0.92107856 -0.98702097 3.5013249
0.98006368 -0.6905688 3.5726001
1.156251 -0.51390111 3.0574977
1.1975652 -0.55409229 2.997941
-0.33066794 -0.28639215 4.1051388
-0.28184569 -0.3227576 4.1033854
-0.87779826 -0.75038785 3.6050451
0.47149387 -0.041344013 2.1697922
0.46395299 -0.03602054 2.1628242
0.97723556 -0.57212919 3.1335905
0.83818465 -0.99677479 3.4679842
1.0622542 -0.20898259 3.4686294
0.76034462 -0.82416612 3.6126664
0.8765294 -0.75025702 3.5977106
1.1928245 -0.5465793 2.9963622
0.65564579 -1.1289937 3.4831133
0.94274801 -0.85241693 3.5139184
1.0825558 -0.21857439 3.4072504
0.67036235 -1.1205053 3.4733829
1.0458312 -1.0500603 3.2982411
0.9386403 -0.9110387 3.4613504
0.8573097 -1.0377443 3.4260111
-0.90961343 -0.26300344 4.0984011
0.92665005 -1.0172851 3.1761088
1.0455582 -1.0426702 3.3063276
1.1587781 -0.51618153 3.0577216
0.85976821 -0.35467893 2.5877724
0.75018275 -1.0798287 3.3671649
1.1573682 -0.5126546 3.0611427
0.4358497 -0.56848794 4.0284038
0.45193148 -0.037753902 2.1596146
0.97518277 -0.49636424 3.1165495
0.61058789 -0.55200934 4.0831699
0.98963988 -0.50152463 3.1108677
0.90823913 -0.74383229 3.0952826
0.72593063 -0.58725703 3.8166835
0.75667286 -0.8328675 3.6179433
0.74093688 -0.49437341 2.8866861
0.71421725 -1.0470619 3.2675855
0.72593987 -0.32065704 2.5972385
0.43680349 0.30807051 1.9618974
0.90594506 -1.0798917 3.288887
0.78529012 -1.05138 3.2099881
0.62070769 -1.000524 2.8560317
0.8929792 -0.62820518 3.1528838
1.2184153 -0.14933726 3.0150318
0.88535404 -1.0169446 3.1820085
0.39290574 -0.52995735 3.8567448
0.82681465 -0.47526994 2.8446379
0.74617404 -0.49898425 2.885051
0.97172904 -1.0746374 3.3223281
-0.62004244 -0.39531481 4.2872481
0.95700276 -1.0885091 3.3460388
1.0340401 -0.14719777 3.2653096
0.67098367 -1.1346482 3.4818461
0.76239061 -0.73391986 3.6784265
0.78688276 -1.0442719 3.207613
0.71395171 -0.2775189 2.4392648
0.96826184 -0.73983723 3.5462756
0.8662765 -0.35418692 2.5866828
0.62812954 -1.0285672 3.2530375
0.64778066 -1.0468773 3.2598739
0.89131576 -0.78943062 3.5697637
0.77927196 -1.0417241 3.2296398
0.66674912 -1.1334515 3.4844406
0.9182663 -0.94946247 3.4774222
0.74178225 -0.29495844 3.9661951
0.97877115 -0.4958742 3.1160805
0.76470011 -0.54273212 2.9754524
0.81638461 -0.89508981 3.5097611
0.76819676 -0.54131728 2.9762959
1.0519851 -0.12926106 2.8556833
0.81388527 -0.45343691 2.8220286
0.33257845 -0.48084 4.3340397
0.48683518 -1.3167109 3.3541479
0.83174378 -0.2696504 2.5808473
-0.093289509 -0.98665762 3.768733
0.5766896 -1.4528674 3.2983189
0.53406107 -0.32683247 2.558861
0.7795139 -0.84861183 3.6143713
0.18916099 -0.10410725 2.2597656
0.80683249 -1.0101804 3.4610848
1.5271672 -0.10522893 2.7299175
0.87945819 -0.5091539 2.9354949
0.6436981 -1.0382692 3.257344
0.31765914 -0.46923867 4.3465719
0.514754 -0.39676633 2.816165
0.88363528 -0.99594456 3.4382429
0.4689264 0.26398247 1.9972513
0.51980758 -1.1700079 3.4418933
0.7857489 -1.0131807 3.2625394
0.63085359 -1.1546872 3.1777427
0.32059109 -0.40048912 2.6021721
0.68960184 -0.5504877 3.8258164
0.40666205 -0.6546545 3.7868919
0.74669635 -1.0971528 3.4752462
0.62129688 -1.213393 3.4432843
1.0207758 -0.26597315 3.3911018
0.62659776 -1.156563 3.1758411
0.49643046 -0.38653982 2.8102612
0.57288015 -1.5272557 3.2365239
0.71423328 -0.31629941 2.595618
0.91286737 -1.0255945 3.1891298
0.47981858 -0.33230928 2.6047161
0.43573108 -0.29460746 2.5749118
-0.28524336 -0.31777623 4.114984
0.52648294 -1.2767692 3.383563
0.72854495 -1.0896559 3.4767096
0.69552839 0.26580355 1.7533866
0.45446977 -0.032103274 2.1595697
0.6335392 -0.55388784 4.0727825
1.0393484 -0.37256512 3.5005615
0.6889376 -0.5454669 4.0457811
0.81664491 -0.7486102 3.0467708
0.51700211 0.020161591 1.5123304
0.18021603 -0.073059 2.2161119
0.79141033 -1.0914909 3.3566592
0.83999318 -0.72480583 3.6418703
0.95808452 -0.5131712 3.1323636
0.80480009 -1.0238684 3.2617166
1.1946558 -0.29099244 3.4123778
0.69806439 -0.52024466 4.0240383
0.62380803 -0.50366533 4.0964384
0.71239996 -0.47475529 3.98139
1.2316351 -0.17223135 2.9902081
1.2094007 -0.13191527 3.0149872
0.93256253 -0.048518103 3.5586228
0.86239767 -0.88820887 3.0293226
0.5663349 -1.187099 3.4448757
0.70314199 0.27965477 1.7538104
0.44925976 -0.5810796 4.0048609
0.80228233 -1.0222108 3.1472411
-0.0087851603 -0.84560663 2.3020983
0.31600708 -0.3664445 2.6432712
0.45989639 -0.020147223 2.1606951
-0.12165575 -0.81392884 2.0628326
0.48813635 -0.072870351 2.1890779
0.40959197 -0.39385569 2.5582511
0.9066577 -1.0868686 3.289834
0.31676427 -0.40174678 2.5940042
0.97473139 -0.73316944 3.5466487
0.24274538 -0.70553839 2.4190061
0.90507656 -0.59039253 3.1781003
0.11023676 -0.33179531 4.1117129
0.68347704 -0.47041699 3.9025793
0.33413216 -0.75308287 3.712182
0.017260823 -0.88120043 3.7992704
0.52472198 0.1860377 2.0495052
0.93059307 -0.97471672 3.1526921
0.92435467 -0.94615501 3.1225648
0.8795175 -0.92023438 3.1334834
0.72249967 -0.49599093 3.962604
0.90617698 -1.0481845 3.2831447
0.78435296 -0.37220991 3.9407675
0.81345987 -0.4622061 2.8447006
0.84950155 -0.46969891 2.8753121
-1.8972188 1.6597629 -0.80162072
0.37771836 -0.7853452 3.7039878
-2.7373929 1.1231214 -0.36200014
-2.5768547 2.1891127 -0.60610288
0.73662347 0.27465004 1.6948929
0.34096196 0.38251612 1.5518265
-0.93907207 -0.28928879 4.1085806
0.015654087 0.38140398 1.5165615
-1.6497598 1.7306039 -0.79747212
0.41999239 0.27858129 1.6377387
0.89687574 0.70819443 1.931156
-0.88506484 -0.74571437 3.6010218
-2.5211787 1.8690984 -0.86926752
0.7930764 -1.053605 3.2091
-1.3017046 1.4036983 -0.42509714
1.0453542 -0.12151804 2.854455
-0.33221513 0.24700744 1.7571303
-0.029283 -0.12210035 2.2320871
-2.3288672 1.7966168 -1.0554557
0.38860527 -0.89771795 3.6467125
0.13784052 0.086385302 1.9231944
-2.61957 1.5053691 -0.41894284
-0.62222439 -0.39100051 4.2967834
