# .PCD v0.7 - Point Cloud Data file format
VERSION 0.7
FIELDS x y z
SIZE 4 4 4
TYPE F F F
COUNT 1 1 1
WIDTH 117
HEIGHT 1
VIEWPOINT 0 0 0 1 0 0 0
POINTS 117
DATA ascii
0.12564127 0.092256531 1.5579091
0.20108788 0.72950119 1.5814866
0.37455073 0.40655705 1.5070604
0.23572436 0.26209182 1.7291263
0.45324472 0.33891031 1.6031611
0.21927778 0.25098914 1.7442414
0.22544305 0.1366313 1.6431729
0.33686447 0.35103846 1.575671
0.18943895 0.47434095 1.4463849
0.10249826 0.11208146 1.5781946
0.073526621 0.67667818 1.5678592
0.11599851 0.087811664 1.5640616
0.3483285 0.33090857 1.6164027
0.40271169 0.3618961 1.5615317
0.27923858 0.44351453 1.4826167
0.45948577 0.34931451 1.5957582
0.33818975 0.43009257 1.5005317
0.53653109 0.43472135 1.513974
0.040136911 0.6369772 1.5256258
0.50979638 0.82763958 2.345928
0.31050146 0.45013833 1.4605265
0.53530675 0.43441904 1.5144874
0.26005021 0.328289 1.6027499
0.36980033 0.36608547 1.5620221
0.19238693 0.34894317 1.618009
0.18700211 0.13119698 1.6040561
0.011482685 0.63675338 1.5296339
0.35013053 0.43101281 1.4931673
0.010257379 0.74704981 1.5529023
0.20930478 0.28696984 1.6902798
0.21071537 0.14333358 1.6164227
0.25699067 0.39667892 1.5504597
0.0030893835 0.63884693 1.5317397
0.31314531 0.36393312 1.556826
0.2643652 0.3934738 1.5457795
-0.19589409 0.71706581 1.6280409
0.36813393 0.40405717 1.5234007
0.26088059 0.32745081 1.5999458
0.12370253 0.81833184 1.4085066
0.43942076 0.36476389 1.5963657
0.37040329 0.40862605 1.5116806
0.12644294 0.35898292 1.6159698
0.1061724 0.11238014 1.5750901
0.10609396 0.10860103 1.5753362
0.18030244 0.35002553 1.6328003
0.040370844 0.52207547 1.4946719
0.23727661 0.33205721 1.5877447
0.19710149 0.49570262 1.472262
-0.16769227 0.15645723 1.6754818
0.19158298 0.43999752 1.4751199
0.15534712 0.10210597 1.5570745
0.32174268 0.40344921 1.5381439
0.17782891 0.65880835 1.5618029
0.52944469 0.43596369 1.5260963
0.35513622 0.19740491 1.878805
0.30263698 0.45268103 1.4743286
0.13438621 0.27789077 1.6841992
0.055528227 0.52687109 1.4581952
0.39085677 0.29504055 1.7355934
0.15647912 0.28108525 1.6702222
0.077040561 0.69164348 1.5752846
0.22228067 0.30469567 1.6303318
0.34802148 0.30743632 1.5885236
0.3072015 0.28808427 1.6863921
0.11376574 0.37332958 1.6006944
0.42957374 0.40265366 1.5357933
0.45226127 0.39744768 1.5303676
-0.061864484 0.20489752 1.4831183
0.20641287 0.69653678 1.5643557
0.21093492 0.39142233 1.5517313
0.33732355 0.36388478 1.5319589
0.26742646 0.40127918 1.5335931
0.18247032 0.43823963 1.4830396
0.200721 0.69613802 1.5689826
0.28760546 0.32100415 1.6129481
0.20292278 0.45894054 1.4943166
0.26258618 0.40150654 1.5367985
0.21240936 0.28752911 1.6840258
0.34277618 0.42911783 1.4954039
0.20997883 0.40206239 1.5614141
0.19376832 0.411259 1.5323561
0.088997222 0.35967934 1.6438657
0.28720462 0.44688103 1.4685915
0.11425982 0.38969722 1.5888834
0.11459322 0.34383902 1.6648538
0.16876081 0.11073326 1.6533114
0.023996977 0.52847087 1.5008398
0.22534546 0.10682238 1.6627235
0.29776141 0.3217746 1.5933322
0.25876424 0.39506367 1.5458214
0.17640474 0.41073862 1.5564163
0.054718152 0.63736916 1.5584599
0.19107822 0.13973984 1.5933537
0.1996143 0.14023867 1.6433637
0.39514813 0.27161351 1.7616352
0.17239986 0.26322693 1.6632941
0.16664886 0.29927742 1.6870019
0.13789888 0.39131179 1.556216
0.3402181 0.29357019 1.6630334
0.20603977 0.1001929 1.6844926
0.048082896 0.58049881 1.5785718
0.050328411 0.58052093 1.5749236
0.36393335 0.2009435 1.8671124
0.068780892 0.64757061 1.5988731
-0.16342176 0.15382694 1.6761227
0.23179805 0.11050592 1.6443473
0.36296123 0.34499937 1.5920759
-0.44987115 -1.4074804 6.1649203
-0.1845915 -1.1071256 5.7263803
-0.35225904 -1.4135854 6.1422729
-0.38464922 -1.4694575 6.3166432
0.026173137 0.53360575 1.4874285
-0.45249879 -1.395663 6.1228662
-0.42425475 -1.7668952 6.0548639
0.49162591 0.78796881 2.4326258
-0.45239419 -1.4054941 6.1412086
-0.034343112 0.79380906 1.5190827
