# .PCD v0.7 - Point Cloud Data file format
VERSION 0.7
FIELDS x y z
SIZE 4 4 4
TYPE F F F
COUNT 1 1 1
WIDTH 255
HEIGHT 1
VIEWPOINT 0 0 0 1 0 0 0
POINTS 255
DATA ascii
-0.18302704 0.42766905 1.3778867
-0.53036809 0.56375861 1.2542701
-0.26956174 0.51516038 1.3504056
-0.26956174 0.51516038 1.3504056
-0.50916129 0.54820466 1.2653483
-0.27591759 0.57935256 1.24218
-0.46948144 0.57009929 1.2197219
0.032041136 0.54428905 1.3034968
-0.17814438 0.57746547 1.2694532
-0.28211993 0.42513099 1.253996
-0.48221561 0.54104292 1.2813441
-0.26191825 0.43197581 1.2984158
-0.050199173 0.39102089 1.5997107
-0.50911307 0.2644622 1.6043642
0.030866586 0.57510084 1.2655063
-0.72264373 0.31779167 1.5731629
-0.33294606 0.51709419 1.2939259
-0.10935812 0.56095672 1.3080517
0.031018166 0.5746668 1.2639397
-0.00028978501 0.54437542 1.2964982
-0.47881597 0.23886825 1.6348023
-0.77221656 0.27500871 1.700615
0.018056042 0.55296814 1.3039377
-0.52323818 0.55065399 1.2628496
0.089475244 0.55755186 1.3079243
0.14038356 0.54222405 1.3150909
-0.36509892 0.37524548 1.2737713
0.11232131 0.51783741 1.3364215
-0.21859971 0.57834166 1.2508912
-0.38014156 0.13233568 2.0303485
-0.22090182 0.14524645 2.0117307
-0.37422231 0.41589114 1.2745177
0.10332376 0.50850999 1.3684
-0.31857947 0.15531386 2.0062039
0.090083249 0.55933988 1.3140502
-0.17399681 0.56422544 1.2894161
-0.27154022 0.58873039 1.2426924
0.11933462 0.30370414 1.4977111
-0.21457696 0.45708016 1.3800191
-0.280395 0.44226709 1.2599376
-0.27930015 0.42236456 1.2477297
-0.47261062 0.49581182 1.3490195
-0.56101358 0.47161371 1.3558835
-0.21834294 0.40805501 1.3931578
-0.76325017 0.15207179 1.8090159
0.14408588 0.48185959 1.418029
-0.34085554 0.22709788 1.7672132
-0.051090676 0.38920337 1.6040099
-0.27709082 0.57992738 1.2465245
-0.31681985 0.53178006 1.2974946
0.23765901 0.34992442 1.6595294
-0.28127784 0.42385334 1.2533826
-0.26218063 0.42947385 1.291965
-0.67725247 0.24343325 1.7018936
-0.28284839 0.37574968 1.453752
-0.21842946 0.40984949 1.3917803
-0.042833343 0.52710551 1.3180053
0.061603379 0.48966584 1.3833889
-0.495056 0.47280011 1.3955994
-0.47548479 0.53494495 1.2963774
-0.27029905 0.22897738 1.8212675
-0.27543813 0.124399 2.0561354
-0.25179291 0.47458193 1.3369759
-0.64620143 0.35683951 1.5305009
-0.054893557 0.50355059 1.3444725
-0.60746258 0.34648046 1.534302
-0.67526191 0.25675082 1.7195951
-0.32497931 0.39319736 1.2629001
0.00016422245 0.56820691 1.2492983
0.00016422245 0.56820691 1.2492983
-0.023453355 0.52167559 1.3177202
-0.24026933 0.36909598 1.4094849
-0.66240352 0.15408832 1.9290495
-0.44803369 0.37423885 1.4605083
-0.34650922 0.2280883 1.7782582
-0.49959132 0.55571622 1.248714
-0.44062507 0.52920228 1.3035202
-0.76746333 0.15262623 1.812529
-0.49835265 0.47263113 1.3943793
-0.52690053 0.45597112 1.406387
-0.052054085 0.38504204 1.6020777
-0.5366286 0.11135897 2.0455997
0.30219904 0.48514196 1.4327308
0.061559778 0.48914042 1.3793793
-0.22939429 0.17077553 1.866044
-0.59928775 0.37207475 1.483479
-0.59928775 0.37207475 1.483479
0.15916994 0.3028121 1.5134485
-0.74238366 0.26788798 1.6673194
-0.15373577 0.34909666 1.4620954
-0.23015735 0.30171537 1.6867045
-0.52194488 0.48189551 1.3177543
-0.1549371 0.37028939 1.4056708
0.081669778 0.48639786 1.3886877
-0.21612065 0.45729265 1.3854879
-0.25414386 0.47589171 1.349414
-0.24014901 0.36947775 1.4083676
-0.71714532 0.25417531 1.7960807
-0.51441926 0.22726372 1.6670908
-0.69120252 0.19680342 1.7591652
-0.69120252 0.19680342 1.7591652
-0.76299345 0.14859657 1.8232323
-0.35647559 0.22482097 1.7734474
-0.39738074 0.19583064 1.7870729
-0.36710989 0.18059506 1.7780777
-0.38543469 0.13134754 2.0298011
-0.30077699 0.10643259 2.0866442
-0.014981369 0.57866079 1.2527999
-0.42238334 0.57065004 1.2799278
-0.30873546 0.33077231 1.4227782
0.019345758 0.49589118 1.3713994
-0.40654045 0.23947424 1.6628841
-0.40595543 0.23883115 1.6589848
-0.22067145 0.58221972 1.2563629
-0.23105082 0.29511157 1.7328228
-0.19364402 0.25965345 1.7719214
-0.30891246 0.17262538 1.9075778
-0.36445427 0.37618816 1.2713236
-0.37822232 0.40337238 1.2673867
-0.56493288 0.50403863 1.2789066
-0.60121959 0.37301639 1.4902973
-0.50915509 0.26196113 1.6051391
-0.67246377 0.24666072 1.7004573
0.039658058 0.55964571 1.2619232
-0.66627127 0.25739589 1.6928176
-0.34849373 0.2295212 1.7282324
-0.69199568 0.19901742 1.7583216
-0.50279915 0.15675949 1.9642543
-0.37799111 0.402803 1.2654735
-0.22597432 0.56787032 1.2740917
-0.33688051 0.3527011 1.5139359
-0.48631671 0.51681685 1.3382525
-0.27086735 0.44465011 1.483837
-0.2771641 0.37429777 1.4071445
-0.2771641 0.37429777 1.4071445
-0.24471842 0.31178251 1.4240407
-0.23072049 0.30658704 1.3917928
-0.23957489 0.31084579 1.420602
-0.23919599 0.31172726 1.4183984
0.13575743 0.50720054 1.3625811
-0.27291805 0.52090466 1.3078517
-0.042208426 0.52916527 1.3215598
-0.48932919 0.54000032 1.2875134
-0.23143786 0.44875911 1.3791617
-0.46943286 0.50402629 1.3395406
-0.31727779 0.42533126 1.45533
0.19671716 0.54843128 1.3300549
-0.24501646 0.33072355 1.5736437
0.10068183 0.50378466 1.3572545
-0.25177136 0.33553714 1.5973706
0.054771613 0.57359666 1.2703089
-0.39818215 0.29514319 1.5997238
-0.58080065 0.50370783 1.3478462
0.11703564 0.30508149 1.4929081
-0.36632669 0.37623563 1.2758473
-0.5528062 0.46247363 1.3974267
-0.26205376 0.40949947 1.2794454
-0.14230923 0.32144436 1.4488689
-0.32306674 0.42543557 1.4631041
-0.3145459 0.42120776 1.448007
-0.50595683 0.51858276 1.311709
0.015614601 0.56531215 1.2624066
-0.31590125 0.45633087 1.2514508
-0.45897174 0.57324737 1.2345688
-0.4842923 0.55589634 1.2597691
0.11964365 0.53598386 1.2954606
-0.042378858 0.52685237 1.3177882
-0.24050494 0.36788556 1.4032393
0.0010522224 0.49564952 1.3586247
-0.49484822 0.54628748 1.3058128
-0.2755703 0.37267745 1.4022335
-0.4199658 0.35030389 1.4305581
-0.14819357 0.36518115 1.4135952
0.15574807 0.3027308 1.5082943
-0.4577328 0.57177126 1.2310872
-0.4577328 0.57177126 1.2310872
-0.024297619 0.52226514 1.3198806
-0.32058176 0.40345913 1.489424
0.20997764 0.41996783 1.5902811
-0.51299316 0.42068449 1.4804068
-0.49349731 0.3208203 1.5454752
-1.037349 0.032594185 2.092418
0.030377107 0.51589257 1.3401486
-0.3140513 0.481365 1.2687743
-0.48590115 0.51821977 1.337612
0.01762869 0.49263805 1.3656385
-0.51094848 0.55379128 1.2645158
-0.36164004 0.39618418 1.2434593
-0.59970248 0.37297097 1.4910158
-0.59970248 0.37297097 1.4910158
-0.55722475 0.46795464 1.3491684
-0.47521934 0.53529984 1.2929932
-0.60971582 0.20908543 1.8049227
-0.21360114 0.40361041 1.379654
-0.37486908 0.42113614 1.2832155
-0.27539164 0.4794614 1.3003571
-0.17448594 0.27739927 1.7479491
-0.55032986 0.46016496 1.3938433
-0.55032986 0.46016496 1.3938433
0.030087497 0.51629752 1.3381766
-0.61009824 0.38767949 1.4641038
0.0018375181 0.53251678 1.3520799
0.31037334 0.44038224 1.5328648
-0.49997741 0.48916313 1.3755659
-0.094159082 0.30536449 1.457836
-0.22121873 0.44462988 1.3613251
-0.22548988 0.33198407 1.4033829
-0.39533335 0.29457313 1.5936223
-0.63227814 0.2761589 1.7279269
-0.18595494 0.56533206 1.2847825
-0.32498434 0.42118761 1.4772443
0.26280689 0.46618626 1.4485655
0.70180941 0.54940838 1.4263756
-0.23643839 0.32455704 1.5449404
0.23148188 0.34439752 1.6538794
-0.21957079 0.30564982 1.6747626
-0.013872623 0.57824457 1.2457062
-0.54465371 0.57862419 1.2142794
0.031453967 0.51507443 1.3353727
-0.27409959 0.57893771 1.2329472
-0.021906449 0.60682493 1.2485687
-0.60998404 0.63957006 1.0847058
-0.34711802 0.22630373 1.75585
-0.49531224 0.40447685 1.4890571
-0.264395 0.35625342 1.242976
-0.57339442 0.51440287 1.3075714
-0.59389824 0.3887592 1.4406036
0.14399819 0.48173141 1.4165455
0.14399819 0.48173141 1.4165455
-0.59818727 0.37504166 1.4711658
-0.26877612 0.25351784 1.801616
0.32404557 0.39752954 1.6583191
-0.64732289 0.36956221 1.4773625
-0.50438982 0.58409768 1.2413377
-0.54787344 0.50383556 1.3028442
-0.54787344 0.50383556 1.3028442
-0.27612123 0.12265485 2.0543444
-0.55243033 0.46049163 1.3986225
0.062725343 0.49293458 1.3890144
-0.16572784 0.26946571 1.6948094
-0.65156651 0.3493664 1.5379658
-1.3571486 -0.33570948 3.1554825
-0.81182319 -0.13743371 2.5073924
-0.27543265 0.33944222 1.4290361
-0.21571445 0.40851286 1.3847378
-0.53881687 0.55667031 1.2653602
-0.31268975 0.53110373 1.292009
0.084898874 0.4203082 1.5553229
-0.047656517 0.56425297 1.3006027
-0.1869185 0.11940743 1.9485717
-0.14209932 0.32444987 1.4703678
-0.28735754 0.37087819 1.4477016
-0.077541023 0.34571552 1.5389458
-0.50068593 0.5572685 1.2478364
-0.16034906 0.22116922 1.8896191
