# .PCD v0.7 - Point Cloud Data file format
VERSION 0.7
FIELDS x y z
SIZE 4 4 4
TYPE F F F
COUNT 1 1 1
WIDTH 131
HEIGHT 1
VIEWPOINT 0 0 0 1 0 0 0
POINTS 131
DATA ascii
2.188699 0.26054457 2.7505963
2.1824393 0.25747538 2.7438669
1.6588483 0.42391026 2.485666
1.6594094 0.42279467 2.4860168
2.0364931 0.55716127 1.8208438
2.0979517 0.10383885 3.1258323
2.1818006 0.27146825 2.7472618
1.4055041 0.2365654 2.6439264
1.8233911 0.33553806 2.6436443
1.4041257 0.23601174 2.6386681
1.4138142 0.54269087 2.2869139
1.3999141 0.53913033 2.2849724
2.0989947 0.18135159 2.9521
2.1928225 0.12342877 3.0588586
2.0235987 0.23883149 2.9084005
1.4393086 -0.016907219 2.5064323
2.0956936 0.22694924 2.7803121
1.5773396 0.21695434 2.804893
1.5212097 0.30045927 2.6753478
2.1379206 0.19446473 2.9357576
2.2059546 0.16490117 2.9997907
1.8116583 0.34200352 2.6545713
1.9143655 0.09453766 2.7743444
2.0743921 0.34740868 2.6059189
1.627964 0.24621053 2.6994307
2.0358756 0.69756347 2.2074685
2.1272297 0.2339274 2.769084
1.9864544 0.22223102 2.786942
1.9879962 0.21687241 2.7884562
2.1656148 0.10476477 3.0901396
1.80392 0.34913 2.636797
1.8815517 0.44981131 2.5150404
1.8871388 0.44517019 2.5234663
1.7575169 0.4790661 2.4593978
1.7609501 0.1415735 2.9325638
1.5797031 0.21592578 2.8064432
1.5154873 0.51034355 2.4382336
2.1645093 0.13894795 3.0992413
1.5604553 0.51248789 2.3684034
1.4641516 0.59702039 2.1529605
2.0252929 0.22062884 2.8889387
1.2702191 0.57589364 2.2157967
2.0299838 0.23380697 2.9083865
2.0261977 0.78413004 2.2374754
2.0282183 0.78538454 2.2355762
2.1308324 0.14558831 3.02195
2.12959 0.14262778 3.0218768
1.7987521 0.17350723 2.9183722
1.7802396 0.17878248 2.9177406
2.2179284 0.14749877 3.0321348
2.2170174 0.12015145 3.0755734
2.1588452 0.10548069 3.0911298
2.181119 0.09668003 3.1584637
2.3347666 0.2226878 2.9362109
2.1624732 0.10629328 3.0909421
2.2577181 0.12831332 3.0732939
2.1030421 0.18355814 2.9503214
1.5690678 0.24157852 2.7716763
1.3882966 0.2481693 2.6427341
2.0529778 0.21272813 2.9517167
2.0280161 0.23467346 2.9065137
2.1185956 0.19557528 2.7475171
2.0028405 0.20762636 2.8591149
2.014946 0.18787634 2.8584933
1.5144919 -0.046734214 2.6710823
2.142215 0.2088131 2.9109817
2.1949711 0.21109378 2.9284966
2.1921027 0.25900888 2.7473164
2.1179957 0.14100276 3.0269282
2.3249395 0.19658113 2.9116557
1.5197484 -0.052005067 2.6698227
1.4617012 -0.024363799 2.5113387
1.4232166 -0.006648886 2.5113568
2.034313 0.56021857 1.8225558
1.7670006 0.13889006 2.9324989
2.2622418 0.12431129 3.0745559
1.5524009 0.23010124 2.803252
2.1618693 0.84023303 2.2246439
2.0529487 0.69779879 2.2147257
2.0315955 0.70642179 2.2030361
2.0575509 0.6930843 2.2119155
1.5058968 0.81468594 1.8183131
1.4617597 0.59882772 2.1534607
1.7442654 1.3437139 2.3440895
1.7579895 1.327179 2.3488202
1.6795179 1.2801862 2.3439815
1.6397365 1.337862 2.3273962
2.0593162 1.3438629 2.3114333
1.6066707 0.31726426 2.6479752
2.1926744 0.96767163 2.2251632
2.007293 0.84617651 2.301213
1.8954442 0.84050781 1.8902272
1.9281707 1.1604997 2.5686288
1.6981395 0.22391446 2.8071694
1.9466349 0.49714687 2.4570723
1.8870238 0.44533938 2.5266004
2.1149576 0.69977891 2.1989844
1.6786426 0.44086024 2.5092695
1.9482443 1.2160858 2.5482123
1.949296 1.218118 2.5445168
1.9531343 1.2181944 2.5447791
2.0628734 1.3366143 2.3144867
1.5486591 0.86998814 1.7889147
2.0890672 0.20127414 2.9198844
1.9084634 1.3526661 2.3431072
1.9015242 1.3571855 2.3440182
1.9101604 1.3360262 2.3481944
1.3125174 0.78084689 1.8341107
1.324546 0.77207673 1.8434159
1.3021731 0.81912571 1.8492017
1.9534369 0.24651986 2.7353733
1.4586574 0.6009019 2.1534982
2.014827 0.83876413 2.3025374
1.5701138 0.33230358 2.4327211
1.711188 0.29517409 2.6759703
1.2940816 0.82198966 1.8120477
1.2511841 0.74276829 1.9157373
-0.56994218 2.4523854 -0.50200731
-0.10315261 2.5436153 -0.3705242
-0.95455241 2.4068909 -0.30326277
-1.0625119 2.5618441 -0.48878995
2.0484142 0.63293308 2.2513533
1.5100443 0.83741814 1.8158468
1.5105966 0.81983441 1.8192068
1.1604933 0.70326948 1.9879115
1.3283449 0.4496361 2.413465
-0.49881667 2.5077741 -0.40561956
1.5470219 0.34113833 2.4225364
-1.1320502 2.2397542 -0.21554847
1.6866093 1.3570244 2.3839211
-0.58389759 2.4496925 -0.50320387
