# .PCD v0.7 - Point Cloud Data file format
VERSION 0.7
FIELDS x y z
SIZE 4 4 4
TYPE F F F
COUNT 1 1 1
WIDTH 567
HEIGHT 1
VIEWPOINT 0 0 0 1 0 0 0
POINTS 567
DATA ascii
-0.33765525 1.1375506 1.7894812
0.255108 1.0160731 1.9092206
0.50592029 1.1549084 1.6934726
0.4825305 1.2957122 1.5283107
0.5011906 1.1790724 1.6573108
0.53580391 1.166244 1.7015936
0.22636218 1.1887125 1.6291698
0.12795013 1.2195009 1.5919361
0.093312681 1.3272823 1.5828153
0.24818498 1.1909308 1.6293097
0.42437109 1.1984069 1.6820616
0.4337236 1.0344065 1.9200176
0.10724179 1.2804652 1.6002128
0.68807113 1.0523106 1.8833801
0.30157545 1.1728123 1.6175318
0.56192064 1.0195529 1.9125133
0.60019475 1.1468722 1.7369704
0.43217337 1.2677163 1.6366605
0.61480558 1.1395142 1.7459391
0.51279914 1.1533849 1.7256271
0.51117027 1.155105 1.719406
-0.095735528 1.0255526 1.9061681
-0.23080002 1.1255615 1.8001177
-0.18964157 0.75578076 1.9402108
0.39345095 1.1568593 1.7081188
0.26329803 0.98423511 1.9889593
-0.14486146 0.93647701 2.0607824
0.71022081 1.0456411 1.8942181
0.67498571 1.1607966 1.7121959
0.69452059 1.1306988 1.7340009
0.68913478 1.121745 1.7376276
0.599549 1.1709169 1.7037723
0.59581363 1.1655333 1.7380497
0.61500734 1.1438409 1.7375392
0.46880454 1.2339978 1.6359771
0.59093571 1.1407307 1.734632
0.53138107 1.1566683 1.7260193
0.55698019 1.1427081 1.7362084
0.54055297 1.1437794 1.7221503
0.54157108 1.1417909 1.7166023
0.53217936 1.2797756 1.5358986
0.52843416 1.2088602 1.6637254
0.54349327 1.1792578 1.6938702
0.21998395 0.95747393 1.8925886
0.58238095 1.0355059 1.9016459
0.57105482 1.0674256 1.8619018
0.3185938 1.0257275 1.9476959
-0.060999054 0.7128498 1.9137787
0.17335978 1.2424339 1.5612768
0.43358597 1.2681547 1.6364794
0.22809543 1.1869375 1.6318794
0.41319892 0.96324313 2.0072749
0.52146196 1.2839282 1.5226493
0.57048941 1.0717036 1.8380747
0.57401723 1.1684141 1.7239174
0.50770235 1.3388902 1.538008
0.56608933 1.1412905 1.7478483
0.50713265 1.1853101 1.6862285
0.47919035 1.1842898 1.7116717
0.15604049 1.1500514 1.6806228
0.29840526 0.94726729 1.8773454
0.13580379 1.3065326 1.5707114
0.51039898 1.2304279 1.6426452
0.433119 1.250567 1.6338117
0.23896627 1.1759305 1.6397538
0.26913098 1.1884755 1.6215358
0.031332053 0.73461276 1.9713347
0.42894873 1.2126243 1.662761
0.43014312 1.2141539 1.6515213
0.45152491 1.1944529 1.6804694
0.69440085 1.0523077 1.89035
0.0023232226 1.2324291 1.6886216
0.58527154 1.0769686 1.8546821
0.23894055 1.1760094 1.6412838
0.24786298 1.132532 1.6994369
0.3301706 1.0323336 1.9426659
0.14208199 1.156481 1.6693884
0.01946683 1.1597955 1.7361671
0.47034118 1.1912951 1.6805571
0.12575376 1.0933633 1.8187488
0.0082885912 1.1433015 1.7756405
-0.025406668 1.0663905 1.832859
-0.25511187 1.1213702 1.8011065
0.53331035 1.2798748 1.5343574
-0.40350491 1.0287386 1.8908453
0.0095541691 1.2526809 1.6772933
-0.15615515 1.0192181 1.9209545
0.53176147 1.1575917 1.7264166
0.6209591 1.2111137 1.6675674
0.19885668 1.2563901 1.5516025
0.51151156 1.1723497 1.6852742
0.20128579 1.2542549 1.5475732
0.62371427 1.1698351 1.72325
0.46243337 1.184975 1.7203578
0.48912346 1.1525642 1.7275856
0.44774863 1.1706489 1.7127945
0.44675866 1.1682885 1.7141066
0.41816819 1.1904663 1.6922605
0.45026624 1.1636801 1.7183419
0.42419398 1.1743298 1.7101064
0.56046158 1.0719721 1.8548712
0.28641167 1.0248386 1.8571581
0.42303285 0.99528372 1.9756982
-0.01935262 1.0402162 1.8732042
0.046621077 0.95324039 1.9453793
-0.094365172 0.7142688 1.8974136
-0.052446738 0.96724415 1.9572976
-0.084799901 0.97749704 1.957016
-0.12973118 0.84479856 2.0288627
0.0035139769 1.2268362 1.6934531
0.025461487 1.2087818 1.7029439
0.097116262 1.3258208 1.5827621
-0.36581075 1.1307347 1.822942
0.11999526 1.2932999 1.5792303
-0.14144175 0.96040756 2.0092204
-0.28794754 1.2015294 1.7182146
0.19651067 1.1989483 1.6157806
-0.27461439 1.1322641 1.7888079
-0.27611396 1.1255162 1.7838715
0.24985723 1.2021183 1.6101598
-0.39881834 1.210579 1.7309822
-0.21798676 1.1305633 1.7661073
-0.13744959 0.93730199 2.0420685
-0.19362488 1.0031343 1.9434419
0.10966991 1.1199839 1.7608478
0.4111872 1.1758556 1.7080009
0.54293394 1.1790094 1.6889133
0.22763176 1.188114 1.6285807
0.10861425 1.3237767 1.5916442
0.54061657 1.3092685 1.5612859
0.22777528 1.1875093 1.62672
0.42958051 0.98193789 1.9855356
0.5345214 1.1948496 1.6797601
0.0038138684 1.2572442 1.6893466
0.51038015 1.2309531 1.6430579
0.46762791 1.2340569 1.6402739
-0.12693605 1.3224504 1.6009161
0.32017037 0.94978571 1.8615129
0.049053419 1.062073 1.907171
-0.057912875 0.70652443 1.9099563
0.053237915 0.93025064 2.0224674
0.075260922 0.96901923 1.9994137
0.20154397 1.2536807 1.5468667
0.58907884 1.1854527 1.6856908
0.30249199 1.1334043 1.6860473
-0.43765298 1.0663842 1.9127365
0.53168643 1.1841205 1.7200162
0.24994342 1.130473 1.7044419
0.070700511 0.65281558 1.8921266
0.16437943 1.1925045 1.6237633
0.12847279 1.1968631 1.6244689
0.29880914 1.1894785 1.652009
-0.11954 0.75004989 1.9432037
-0.059422817 0.9669283 1.9613357
-0.42916265 1.0831772 1.9078491
0.24238047 1.209478 1.599998
0.10570147 1.2918935 1.6116128
0.46265268 1.1784137 1.7081558
0.51460779 1.1756341 1.7024122
0.5842424 1.2000089 1.6741898
0.45205134 1.1948313 1.6808697
-0.10959172 1.2273289 1.7173121
-0.010269699 1.0932792 1.8548839
0.015171809 1.0515457 1.9297905
0.45531368 1.3213611 1.5601221
0.54590738 1.2057658 1.6632326
0.54618615 1.2062988 1.6666584
0.16011856 1.1385283 1.6859978
0.16162771 1.1522355 1.6723816
0.12797338 1.1433233 1.6909797
0.1307862 1.1290928 1.7052186
0.13118578 1.3115158 1.5981452
0.33350524 1.1338816 1.701741
0.51674277 1.1592957 1.7254925
-0.30816671 0.99186194 1.8850882
-0.28746995 0.99446332 1.8516593
0.098914213 1.1571198 1.7521864
0.021010257 1.1650368 1.7761729
0.4326199 1.2615516 1.6338791
0.50604045 1.1853374 1.6898569
-0.096199691 1.2434014 1.6836679
0.0039009645 1.1884567 1.6652917
-0.23306124 1.1842451 1.7414504
-0.27728003 1.1598474 1.7649372
0.28578115 1.0864294 1.7852957
-0.12542172 1.2445072 1.6554285
0.30569908 1.2848397 1.5516213
0.30533931 1.1268845 1.6986693
0.54997146 1.316074 1.5606354
0.11192384 1.3004751 1.6121373
0.19493623 1.1442268 1.6858027
0.30118808 1.3121905 1.5880001
-0.16355766 0.84761447 2.0106936
-0.42362449 1.1253134 1.8398696
-0.45196065 1.067699 1.9303846
0.28049588 1.1776221 1.6413925
0.16637293 1.1351548 1.6935595
0.17237832 1.1163108 1.7347876
0.18173265 1.1312855 1.7009079
0.13730045 1.1488496 1.6645417
0.029500885 1.2256714 1.6995481
0.036466829 1.2516336 1.6869334
0.5142864 1.1745279 1.7031686
0.026888117 1.2269009 1.701036
0.17309554 1.1159577 1.7249393
-0.1580563 1.2763063 1.6524999
0.11625743 0.73272002 1.9543778
0.21302 1.1148994 1.7260172
0.54394156 1.1791683 1.6953789
-0.026034132 1.0318631 1.9065093
-0.2502313 1.1871729 1.7334585
0.53400069 1.1940738 1.6756096
0.48596635 1.334993 1.5485758
0.4874368 1.1747925 1.6937542
-0.28223228 1.1322397 1.79798
0.4096728 1.1635424 1.6381258
-0.15159327 1.0296911 1.9200048
-0.32723105 1.1381124 1.7841847
-0.30231029 0.99930125 1.8221027
-0.15628092 0.99203169 1.9593291
0.5118584 1.1737396 1.7295012
-0.29850554 0.99716789 1.7974035
0.017776866 0.94235682 1.8976724
-0.27727947 1.1265273 1.7867205
-0.44132933 1.0765011 1.9065259
0.15640233 1.3051274 1.6285586
0.0067862505 1.1962759 1.6838831
-0.30973834 1.2647071 1.684021
0.12007266 1.1491778 1.7038594
-0.29438663 1.1629701 1.7592499
0.1400273 1.2424724 1.5620013
0.32366577 1.1187084 1.7160094
-0.10167585 1.2903605 1.6163632
-0.11753482 1.2651068 1.6115803
-0.0029621359 1.1969094 1.6877711
0.47737759 1.3298461 1.5424671
-0.089013711 0.93015707 2.0197103
0.45256314 1.3278222 1.5585028
-0.42750275 1.0580894 1.9267398
-0.15545507 1.0130904 1.9318352
-0.1366183 0.9599514 2.0068161
0.033065714 1.2385968 1.6856773
0.50599098 1.1728638 1.7187561
0.31674096 1.2570996 1.5401211
0.29964823 1.2033551 1.603719
-0.29280844 1.161706 1.7585152
-0.28966829 1.1469166 1.7644916
0.0062202686 0.66560036 1.8789276
0.46969318 1.1909996 1.6808057
0.069245659 1.0003493 1.9334314
-0.13342625 0.67491001 1.8729615
-0.09734939 1.0264057 1.9013176
0.26697859 0.96968013 1.9590827
-0.0074944175 0.75357282 1.9087937
0.13892733 0.81578988 2.0223165
-0.13710962 0.97995329 1.9482753
0.46933421 1.2352107 1.645041
0.31522354 1.263271 1.5476689
0.29114577 1.2858597 1.5557568
-0.086134218 0.92887777 2.0317805
0.15906617 1.1513451 1.6740704
0.0013828254 0.7285313 1.9381878
-0.022059558 0.74305701 1.9480548
0.047248129 0.9856407 1.9336294
0.54362386 1.1672102 1.7184291
0.47659025 1.1810253 1.6900636
0.35272861 1.150107 1.7455207
0.28477737 1.1030978 1.7686311
-0.10526323 1.2455243 1.6764624
0.52908373 1.1514878 1.7318599
0.61610597 1.2087522 1.6571982
-0.31140718 1.1665989 1.78767
-0.2894825 1.1272241 1.8112122
0.49193233 1.2154247 1.658946
0.23835006 1.1773409 1.6383158
-0.015839135 1.0622265 1.8538862
0.27880833 1.1755332 1.6493375
0.63470864 1.1893224 1.6678624
0.13967121 1.2414687 1.5596753
0.49120075 1.2910621 1.5411528
0.60180676 1.1473476 1.7368079
0.21411423 1.1138269 1.7207717
0.37859327 1.162532 1.6679778
-0.089137159 1.2564607 1.6780279
0.52694422 1.2077581 1.6588292
0.56458217 0.9506734 1.8389993
0.56988972 0.94463116 1.8628016
0.60342228 1.0431142 1.8973386
0.16195771 1.2043254 1.6074699
0.52170891 1.1708736 1.6969771
0.1138544 1.2861285 1.5785453
0.41101587 1.1655582 1.7151483
-0.13797896 1.2863834 1.5901511
0.17913413 1.1462187 1.6707056
0.034597464 1.2531443 1.6886016
0.26150024 1.1336521 1.6336248
0.47120529 1.1579325 1.7184689
0.5303266 1.1490563 1.7393054
0.12341938 1.2987849 1.6390101
0.14951135 1.1932504 1.627849
0.18905604 1.1762638 1.6998932
0.30704358 1.1417675 1.6775632
0.51716447 1.1599398 1.7198151
0.26596364 1.1372051 1.701659
0.25402215 1.1232406 1.7064142
0.17628574 1.1274133 1.7151715
0.21536927 1.1159328 1.7160804
0.26470527 1.1370242 1.6964399
0.15862095 1.1504376 1.6765169
0.17660198 1.1474069 1.695649
0.3489725 1.1530312 1.7465518
0.16876142 1.1355152 1.6878181
0.13702518 1.2104872 1.608629
0.050906841 1.0600005 1.9279647
-0.28156921 1.0028298 1.8454514
0.48894045 1.338259 1.5792282
0.46761853 1.3165779 1.5868429
0.43237931 1.2682214 1.6330018
0.15954703 1.2488393 1.613495
0.19540682 1.2486326 1.5875508
-0.091182247 0.79599482 1.9785993
0.31458643 1.2787704 1.561622
0.28577322 1.1784596 1.640118
0.13010223 1.0877113 1.8006421
0.60110313 1.1957743 1.6740842
0.13906798 1.2434651 1.5652498
0.1658904 1.1942821 1.6280656
0.48137259 1.1767997 1.7012508
0.11422475 1.2497164 1.5879599
0.13901758 1.296352 1.6088656
-0.018459164 1.1457011 1.7518702
0.068533182 1.0488384 1.9075713
-0.24563985 1.2026638 1.7159429
0.079574734 1.0003053 1.9581563
0.12267224 1.2453476 1.5692197
-0.050269373 1.0332696 1.8975847
0.27541119 1.1819263 1.6228327
0.46470162 1.2414074 1.6681645
0.0057123979 1.2569542 1.67992
-0.12742338 1.2713895 1.6145877
0.21579035 1.1173371 1.7283139
0.52895278 1.171567 1.6871951
0.3493281 1.151376 1.7511955
0.19765233 1.1385504 1.6653825
-0.11706008 1.2832824 1.6042442
0.18199837 1.1396667 1.6992044
0.2147101 1.1139902 1.7178057
0.096110173 1.2539245 1.6498441
0.025348265 1.2064884 1.6673695
0.26072955 1.2066267 1.6089354
-0.11304637 1.2459227 1.6906736
-0.17600356 0.94668484 2.0633807
-0.16976494 0.9594177 2.0393155
-0.12296388 0.95473826 1.9822038
-0.19400664 0.9537847 2.0711751
0.27609041 1.2024314 1.6060747
0.48013979 1.2974638 1.538515
0.46880561 1.3152902 1.5545939
0.56926256 1.1794943 1.82623
0.44804364 1.1723889 1.7144772
0.30780005 1.1243768 1.7032192
-0.23447052 1.1838101 1.7414173
0.52605212 1.1705723 1.7028835
0.65675908 1.1462977 1.7125121
0.13754699 1.1572942 1.6710318
0.2791529 1.1745566 1.6434746
0.58686048 1.1846464 1.6815178
0.58856016 1.1851783 1.6872989
-0.34309581 1.2137345 1.7301906
0.53240007 1.1943754 1.6714392
0.6081062 1.1610736 1.7163951
-0.1364228 1.0368904 1.8822477
-0.016308988 0.98418385 1.9460222
-0.14698796 0.75045514 1.9292891
0.01824031 0.95697385 1.9589148
-0.19203603 1.0525385 1.9163468
-0.066895597 0.92570895 2.0045006
0.53944385 1.0058841 1.9414344
0.096165121 1.1634057 1.7570142
0.12113716 1.2992547 1.5898136
0.12583163 1.1321172 1.7344503
0.49543744 0.99868065 1.9413221
-0.26817489 1.1891823 1.7605739
-0.26893893 1.1740124 1.7439793
-0.27615708 1.1736406 1.7532142
0.30146912 1.1805692 1.606313
0.077532195 0.66136158 1.8957086
-0.24681361 1.1369928 1.8437766
-0.29144609 1.1476116 1.7665706
0.10318963 1.0056542 1.9318408
0.096844651 1.3252524 1.584075
-0.28664482 1.1336663 1.8014393
-0.046291646 1.0573497 1.854854
0.067242064 0.69250739 1.9195436
0.25862321 0.95290989 1.9284104
0.10486792 1.0085533 1.9114233
-0.26298091 0.99736297 1.8197721
0.10399926 1.3194131 1.5905497
0.1677078 1.1942329 1.6273826
0.026658881 0.72858608 1.9366926
-0.47533503 1.0461309 1.8133222
-0.0361204 0.98366976 1.9623404
0.58049935 1.1734542 1.701197
0.072128519 1.0065958 1.9489523
0.047786061 0.94032204 1.9996883
0.20351918 1.2214489 1.5795227
0.052644689 0.93986803 2.0152254
0.037168302 0.94399112 2.0021861
-0.096241854 0.98469335 1.9617816
-0.31229857 1.1176444 1.8200548
-0.14327571 0.97354317 2.011847
0.47414449 1.2985808 1.5540955
-0.36737305 1.1226357 1.8736981
0.54728782 1.2879174 1.5801175
0.21003768 1.3020201 1.5924578
0.049813002 0.85324466 2.0198972
0.42466736 1.199509 1.6829011
-0.43866801 1.0747824 1.9212971
0.1492155 1.2017595 1.6140006
0.42687389 0.98010314 1.9973652
-0.11098401 1.0497407 1.8806002
0.58912516 1.2033373 1.6640911
0.3772088 0.97686642 1.9870019
0.50717068 1.278652 1.5573184
-0.13822435 1.0319029 1.899691
-0.3172152 1.1210233 1.8185034
0.60169405 1.2144624 1.6516414
-0.1350904 0.99353766 1.9571474
0.52628475 1.1830081 1.6978409
0.59807003 1.1695883 1.6950796
0.13876924 0.82451952 2.0242941
0.11312254 0.81888926 2.0112491
0.028950591 0.94747651 1.9944695
0.42951977 1.2129952 1.6633129
0.20111027 1.2060776 1.6253159
-0.015177621 0.93334907 2.0383732
0.504677 1.1869826 1.6217847
-0.040721182 0.92612559 2.0338795
0.58068699 1.198361 1.6633247
0.2373407 0.89180636 2.1750064
-0.11288103 0.93724525 2.0299003
-0.097953826 0.9447124 1.9887353
0.60729605 1.1831026 1.6852872
-0.16699149 0.84878987 2.0123391
0.63640779 1.1648504 1.7085919
-0.099067762 1.1844832 1.7497776
0.25347492 1.1216164 1.6962792
0.044268247 1.2359551 1.6850803
0.6301741 1.1302376 1.7516652
0.10063898 1.2289889 1.6607263
-0.13185324 1.247171 1.6708615
-0.12984285 1.2397196 1.7467538
0.39602765 1.1572526 1.7444413
0.30254087 1.3114069 1.5782833
0.62159497 1.1232805 1.7675149
0.6123603 1.1251798 1.7636952
0.61508244 1.1249202 1.7717507
0.61684328 1.1246172 1.7701937
0.27068487 1.0746346 1.8201925
0.10017566 1.1627666 1.7442373
0.12506062 1.0944703 1.8261162
0.60280579 0.94340742 1.8726063
0.27031916 1.0719222 1.8247347
0.60914218 0.9417088 1.8782585
0.69929713 0.97131002 1.8482732
0.20020966 1.2224642 1.5951909
0.70265192 0.97025067 1.8592641
0.60533988 1.0861021 1.9244143
-0.23642984 1.1544845 1.7622871
0.12439559 1.299004 1.6047649
-0.12286962 1.3240479 1.5954192
0.55795395 1.0686572 1.8848912
0.29841858 0.94955325 1.8730915
0.002976269 1.1424705 1.798316
0.48753405 1.0564823 1.8930855
0.59242934 1.0317684 1.933207
-0.29177538 0.98955351 1.8844726
0.098087616 1.1119294 1.8121178
0.45525414 1.2236003 1.642554
-0.0032384375 1.0955619 1.8696499
0.5127793 1.0041236 1.9084132
-0.014981044 1.0341293 1.882073
0.11005855 1.0069208 1.9138011
-0.14619295 1.0444968 1.8884012
-0.32185972 1.1289598 1.8468468
4.9909137e-05 0.74688858 1.9306656
-0.014421924 0.74667126 1.9314548
-0.11169707 0.99562627 1.9562174
0.08222542 0.8018105 1.9884489
0.12674497 0.80077541 1.9962062
0.044081718 0.79742289 1.9976646
0.1391979 0.80684566 2.0270538
0.14034131 0.81129098 2.0156307
0.10659159 0.81178081 2.0255413
0.12964495 0.8358779 2.0428972
-0.12111978 0.93865615 2.0623045
-0.13484317 0.85478204 2.0529649
-0.1851899 0.98099065 2.0372322
-0.1957085 0.97897112 2.0500259
-0.17698109 0.94449824 2.0766783
0.042233672 1.2440734 1.6910745
-0.1562271 1.028927 1.9114922
-0.018521758 0.97504354 1.985622
-0.12161929 1.2707078 1.6313173
-0.45457792 1.0719943 1.9240577
0.015717462 0.92827386 2.0285728
0.0066384301 0.94612062 1.9680178
-0.091714606 0.93270403 2.0354199
-0.17804131 1.0052478 1.9660372
-0.20131831 0.95569211 2.0725279
0.086354479 0.70203388 2.0057378
-0.11380857 1.0225962 1.951197
0.016356567 0.73398554 1.9431354
0.4247328 0.99393761 1.9950608
-0.017814528 0.96352357 1.9854394
-0.22308648 1.0047295 1.9961609
0.26150894 1.2088206 1.5969994
-0.028461553 1.048155 1.8758128
0.0037092459 1.2108961 1.6689441
0.051093638 1.0571338 1.9393536
0.60914803 1.1159892 1.8024657
0.47176459 1.1927371 1.6896025
0.70061374 1.0548183 1.9418533
0.27261469 0.97066504 1.9035115
-0.061431412 1.0472823 1.8890939
-0.32228974 1.1180323 1.8201098
-0.11612956 1.0462575 1.8796158
0.11949252 0.7356075 1.9521948
0.32171017 1.0143582 1.9656744
-0.063457564 0.84043372 2.0191848
-0.034858298 0.93685812 2.0161569
-0.1984826 1.0078287 1.9832733
-0.17022687 1.009527 1.931987
-0.23036197 1.2253989 1.7497467
0.56116468 1.0172499 1.9279991
-0.036914106 1.0389637 1.8546377
-0.28678653 1.2058413 1.7182791
0.12410095 0.98823333 1.9918797
-0.099045202 1.3148586 1.5911716
0.034051202 0.7433452 1.9416615
0.0074759563 0.94789457 1.9980252
0.22303653 0.93796825 2.042942
0.22108054 0.91713446 2.0842519
-0.2464384 1.1248372 1.8353112
-0.35027674 1.1227587 1.8457795
-0.39250195 1.1277183 1.8533543
-0.082625724 0.94955826 2.0020001
-0.41182238 1.1565722 1.7746235
-0.21288857 1.1576618 1.8040711
-0.35003188 1.1420026 1.7678792
-0.45237893 1.1303971 1.8309218
-0.36507368 1.1227362 1.7695912
0.56901681 1.0756273 1.8438357
0.57922393 1.0756204 1.8494481
-0.17716093 1.0577589 1.8912855
0.60314065 1.1155797 1.7786899
0.56094658 1.0161256 1.9323013
0.28215662 1.2873744 1.5638384
0.25629687 1.1781949 1.6427038
-0.16560481 0.66868997 1.9045253
0.32410985 1.1190392 1.7262348
0.077251188 0.99019176 1.9625523
0.2733615 0.97061157 1.8929528
-0.27613956 1.0080622 1.8404071
0.49046883 1.2158364 1.6608713
-0.11059322 1.2474501 1.688427
-0.44106716 1.0674531 1.9153402
