# .PCD v0.7 - Point Cloud Data file format
VERSION 0.7
FIELDS x y z
SIZE 4 4 4
TYPE F F F
COUNT 1 1 1
WIDTH 169
HEIGHT 1
VIEWPOINT 0 0 0 1 0 0 0
POINTS 169
DATA ascii
1.8247297 0.42874756 2.3079853
1.3243512 0.43166736 2.3510809
1.2388668 0.54546881 2.2000194
1.2396046 0.54441017 2.2001512
1.4911176 0.65071833 2.1025219
1.8236277 0.4424704 2.3122518
1.7459253 0.37942427 2.3728795
1.0539461 0.32662934 2.4055464
1.6113335 0.35104313 2.494272
1.4461666 0.4704639 2.3060484
0.94075775 0.64324355 2.0766335
1.8052204 0.33728668 2.5256391
1.0408365 0.33160844 2.4066234
2.0944238 0.31008929 2.6223431
1.7183274 0.20210007 2.7471194
2.0949731 0.31051642 2.621479
1.8866619 0.37803537 2.4795234
1.5960491 0.39160168 2.3629968
1.512418 0.23933601 2.5337424
1.1670759 0.40168816 2.4105825
1.061693 0.32275638 2.3951848
1.8725302 0.39882955 2.4559886
1.871382 0.40239942 2.4523246
1.5308266 0.4051975 2.3566637
1.2403697 0.34593758 2.4936028
1.1509943 0.42216384 2.3677998
1.6954691 0.41405934 2.3284838
1.2284039 0.17118618 2.0353136
1.4660442 0.5902195 2.1803932
2.020777 0.40792748 2.4531429
1.4789653 0.26159766 2.5894117
1.9100444 0.29752317 2.6488118
1.5676658 0.2105033 2.7318778
1.0232937 0.77386516 1.8863382
0.94957435 0.70704079 1.9377766
1.7143439 0.37033227 2.4854708
0.68420941 0.85850966 1.7927623
1.4936136 0.95138884 1.8891571
1.4949484 0.95291674 1.8868881
1.8572074 0.3029581 2.5830023
1.8562812 0.29988387 2.5830691
1.7930051 0.23519963 2.7111547
1.9943713 0.2968418 2.5977421
1.9454665 0.31276786 2.5694132
1.9057659 0.26391867 2.6404233
1.8953 0.2682063 2.6308844
1.8953255 0.26846248 2.6262846
1.9940697 0.29794508 2.5996814
1.8384095 0.30438602 2.5737705
1.7825577 0.34899697 2.5089693
1.6324118 0.34549835 2.4944062
1.1444808 0.12761804 2.3768468
1.2434981 0.34527805 2.488133
1.0359657 0.3363235 2.4094062
1.6941799 0.34096044 2.4592986
1.6920877 0.34281862 2.4590752
1.6997696 0.33765155 2.4567258
1.8061783 0.34058121 2.5243087
1.8347583 0.43121141 2.3089786
1.7222427 0.38490185 2.5011244
1.2668251 0.17363711 2.5889235
1.3828481 0.4059729 2.4360759
1.0993364 0.07780169 2.2479196
1.0606104 0.091211759 2.2586596
1.786761 0.34848756 2.5043426
1.8764305 0.41651136 2.4550412
1.7168787 0.20179848 2.7473869
1.8363874 0.43027604 2.3088255
1.5751109 0.97837704 1.8810347
1.6143912 1.0288508 1.8548301
1.5110539 0.86587405 1.850251
1.5260515 0.86517358 1.851205
1.6529125 0.34063372 2.3301973
1.8234792 0.61787283 2.1978097
1.6901902 0.35933283 2.4597318
0.8828553 0.93868291 1.6168401
1.204499 1.4648966 2.0963175
1.7450143 0.47036472 2.2496655
1.0912549 1.4565524 2.1058927
1.490106 1.508709 1.9853305
1.4665509 1.3524823 2.2227919
0.83377886 0.36314502 1.7885568
1.584291 0.35319117 2.5210154
0.87142569 0.62319666 1.9234899
0.8707571 0.62157673 1.9251604
0.90438569 0.97602987 1.562651
0.58498907 0.58752316 1.8075926
0.55114597 0.72005606 1.7146612
0.58544004 0.66317976 1.7166393
1.7972548 0.71611232 2.2110889
1.2406223 0.42857483 2.3636436
1.4857438 1.008911 1.9591492
1.524327 0.52904147 2.2704766
1.1926633 1.0765017 1.6504109
1.5012082 0.65048766 2.1043618
1.4667202 0.59027356 2.18346
1.6982932 0.41282222 2.3269708
1.473497 1.5333734 1.9838524
1.9980197 0.29239073 2.6201141
1.4563528 1.3619968 2.234458
1.4562201 1.3642501 2.2307434
1.4915979 1.5056899 1.9793664
1.4599714 1.3647352 2.230036
2.0153844 0.37498209 2.424149
1.715201 0.38808617 2.5051541
1.495013 1.5017958 1.9869579
0.91108263 0.99923486 1.5809529
1.345409 1.5037118 2.0572703
1.3116139 1.5316638 2.0663593
1.3647498 1.4472669 1.9922888
0.69536304 0.85605824 1.785954
0.704207 0.88349885 1.6787251
1.5504329 0.31449983 2.5582554
0.69441134 0.9199149 1.6981653
1.603377 0.39320776 2.3567111
1.3238276 0.93451625 1.7758622
1.494048 1.0023239 1.9580967
1.9787765 0.45086432 2.4222834
1.14885 0.44650999 2.165772
1.2088183 0.65492237 2.0453265
1.5636631 0.21156374 2.7298687
1.6946026 0.58167708 2.2181866
1.376026 0.40797293 2.4432719
1.1235195 0.37442997 2.161726
1.549782 1.0226315 2.5385232
1.6329783 0.94484359 2.4981015
1.5727637 0.99795592 2.5390332
1.1345738 0.45469254 2.1666491
1.5332028 1.5820736 1.8910638
1.1750004 0.75749379 1.9351741
1.1450188 0.36773092 2.4537654
1.508445 1.3500408 2.2334986
0.8277092 0.36527377 1.7874136
0.90839791 0.97312623 1.5622139
1.0110372 0.67169762 1.9988744
1.3704016 1.4221169 1.9896666
0.7245962 0.87156236 1.6853882
0.5547933 0.72088587 1.6711222
0.78995204 0.4161686 1.7875558
0.69832212 0.91951013 1.6986537
1.0763217 0.14783178 2.3217022
1.2151791 0.23477 2.539855
1.5306644 0.29714724 2.6340489
1.2918804 0.38022795 2.4264505
0.912907 0.9429546 1.5970529
0.6698308 0.83634537 1.7707548
1.2095661 0.47851312 2.3153095
-2.3162498 1.9218314 0.94661713
-2.3329971 2.2539787 0.45106673
-2.3073485 1.7259868 0.44514725
0.8840065 0.96179938 1.6147569
0.88710475 0.94428068 1.6168257
0.8659054 0.97184628 1.6026833
0.60493612 0.78489113 1.8609504
0.91074353 0.99893278 1.5834422
1.4814748 0.59758347 2.1215754
1.0216123 0.77365887 1.8915257
-2.5357432 1.7427865 0.7429474
-2.4718525 1.662599 0.77038413
1.8351729 0.3111012 2.583925
-2.3135564 2.1332338 0.39939374
-2.3524313 1.6403527 0.78476954
1.9602091 0.36301777 2.4862146
-2.3707056 2.3634629 0.25247264
-2.2999077 2.0042057 0.80782187
-2.3298857 2.2485445 0.46313474
-2.2270715 2.1144137 0.41856506
-2.3049157 2.1657221 0.38154095
0.55011505 0.72365129 1.6726366
