# .PCD v0.7 - Point Cloud Data file format
VERSION 0.7
FIELDS x y z
SIZE 4 4 4
TYPE F F F
COUNT 1 1 1
WIDTH 224
HEIGHT 1
VIEWPOINT 0 0 0 1 0 0 0
POINTS 224
DATA ascii
1.4275959 0.65581501 2.0667567
1.4197286 0.65155882 2.0630314
0.81560475 0.69880241 2.0764427
1.0291251 0.83681649 1.9369688
1.1659464 0.40946853 2.3275011
1.3614395 0.59159547 2.1395881
0.7001518 0.45545211 2.303458
1.3647224 0.59275579 2.2661264
0.48899329 0.76404124 2.0181079
0.47667202 0.7574361 2.021878
0.92503929 0.47340804 2.3698921
1.4990013 0.62403184 2.1973557
1.5721456 0.56055635 2.2706547
1.4246446 0.68535101 2.0709817
1.049808 0.64761966 2.1490626
1.0394074 0.65095431 2.152209
0.84410846 0.60972565 2.1911097
0.77637637 0.56281328 2.2521415
1.2996014 0.62099081 2.1075201
0.91488832 1.1013352 1.7131139
1.2068452 0.64405984 2.0792139
0.67695856 0.33815873 1.9282187
1.1921644 0.58266145 2.1520469
1.1835345 0.64099801 2.1006763
1.500071 0.51546079 2.3731844
1.3665825 0.60338217 2.1337142
1.0839268 0.70576644 2.0540392
1.2744218 0.57124257 2.1811116
1.2774872 0.56634486 2.1811452
1.0240062 0.78551948 1.9552232
1.0132145 0.78592277 1.9642841
0.95631588 0.59425038 2.1997328
0.87930202 0.77377939 2.0146546
0.87856907 0.77671885 2.0175815
1.157765 0.43743423 2.3980219
0.82003987 0.78055108 1.9815867
1.3690956 0.40379766 2.4873939
0.74121624 0.80846125 1.9346678
1.2781487 0.39392644 2.5179796
0.72105652 0.55592 2.3039029
0.074230745 0.87263972 1.8968369
0.46283707 0.83176053 1.8833524
0.3253631 0.76516378 2.0199919
0.95599502 1.1423991 1.739212
0.82240456 0.39764607 2.3546705
1.5200913 0.52398425 2.3202553
1.5195495 0.52082044 2.3203554
1.65725 0.53400278 2.3077772
1.5831624 0.48967645 2.3652465
1.5696803 0.49327499 2.3536346
1.6572167 0.53501493 2.309788
1.4565423 0.55632353 2.2727122
1.2788541 0.54138911 2.2791016
0.8050518 0.26947913 2.2483604
0.89898163 0.49469653 2.3484561
1.3615121 0.58993059 2.2719169
0.86269838 0.20412742 2.2461083
1.4545223 0.55662078 2.2744303
1.0918978 0.70245606 2.0471697
1.0140246 0.77628088 2.0141523
0.74114251 0.21772915 2.1284459
1.4307649 0.56262076 2.2590101
1.1635484 0.43621278 2.3950429
1.5001814 0.64566201 2.195838
1.4274831 0.40280187 2.5037935
1.0572859 1.2266972 1.679009
1.6281003 0.62710392 2.1464257
1.431073 0.65445316 2.0616632
1.269924 0.48444644 2.2746861
1.0573626 1.2328546 1.6881956
1.2617307 0.88713706 1.9128897
0.97422576 1.0588226 1.6960759
0.98909599 1.0599024 1.6940657
1.3753242 0.84176803 1.9642525
0.30808827 1.0613942 1.5927824
1.3978138 0.55979091 2.2736821
0.46061644 0.83295798 1.8850474
0.65700507 1.6106731 2.0249908
1.3224585 0.84908056 1.9493024
1.3258537 0.6847114 2.0233309
1.2683748 0.40009695 2.5065167
0.602979 1.5411812 2.0466609
1.2879951 0.42615139 2.4953446
0.35928524 0.48015669 1.743384
1.2364135 0.5426144 2.3148806
1.2417235 0.74626994 2.0261359
0.5420962 0.6786558 2.129781
0.39337316 0.73952079 1.8805677
0.39323634 0.73779261 1.8822577
1.3847462 0.84217012 1.9566556
1.3832023 0.71232575 2.1556768
1.3505101 0.59846032 2.1424496
1.0592935 1.1234145 1.6626878
0.095527396 0.67256647 1.8209376
0.029194221 0.80228537 1.7427106
0.013044491 0.81117719 1.7418504
1.5512671 0.53819293 2.2936325
1.2392693 0.74796927 2.0306938
0.14369293 0.9259969 1.797832
1.3336138 1.0850794 2.0939865
1.6380699 0.61888248 2.1331348
1.0373628 1.0764227 1.6588656
0.80346924 1.1025991 1.7839974
0.86209214 0.58002132 2.2309694
1.6822205 0.70721692 2.1277804
1.429037 0.65424889 2.0612259
1.2113194 0.58412957 2.1595008
1.3373623 0.87647176 1.9588937
1.4692214 0.59650606 2.2222242
0.3976219 0.73683774 2.0061085
0.94358367 1.4762169 2.1265836
1.0282444 0.77195138 2.018157
0.80215055 0.25961035 2.2484207
1.0322257 1.0799049 1.6587487
0.73544478 0.7348206 2.0263777
1.3021903 0.62013793 2.1054308
0.52018118 0.909702 1.8255345
0.32162231 1.1257401 1.5549979
0.78861529 1.6642474 1.956861
0.7820738 1.6670303 1.9612049
0.79438072 1.6148925 1.891113
1.3398989 0.84237891 1.9237572
0.16840844 0.95283961 1.7909871
0.1526535 0.98371673 1.6854997
0.14286511 1.0182171 1.7081695
1.21789 0.58857548 2.1520739
0.079885937 0.87123036 1.8739305
1.0102731 0.66076142 2.1587782
0.9653939 0.1406592 2.2483842
0.85409677 1.1719412 1.5874233
0.93049383 0.1861925 2.2714
0.91264856 1.0782995 1.710814
1.5532595 0.75848645 2.007647
0.86696911 0.33518565 2.5188978
0.76944071 1.1062955 1.6627811
0.69641078 1.1505191 1.6710609
1.178336 0.91712493 1.8144451
1.5501618 0.76045471 2.0272233
1.668605 0.52999127 2.2812767
0.95169383 0.31983051 2.4170315
-0.19625024 0.63888609 1.7657517
1.05327 0.78894228 1.961778
1.3433074 0.38494882 2.4373827
1.302267 0.82609892 1.9547226
0.14818537 0.99800122 1.7670492
0.81969023 0.59862822 2.2103217
0.71335942 0.74338031 2.019367
0.050091211 0.75092673 1.7969977
1.5387169 0.50005573 2.3454707
0.024552731 0.84282273 1.9060036
0.047025293 0.84437793 1.9078491
0.96758133 0.33703563 2.4345012
0.32781765 1.0820616 1.6094148
1.0979629 1.0741677 2.4302378
0.31833366 1.0566192 1.591159
1.0429033 1.1037726 2.4883072
0.67660594 0.34101078 1.9265286
0.86192769 0.52094454 2.2923238
1.2682015 0.54099137 2.2835355
1.2707589 0.54098463 2.2843196
1.3789997 0.84500134 1.9595884
0.69782269 0.34988213 2.2164626
1.381228 0.84542221 1.9594154
1.0601521 1.1694807 1.6643348
1.5898893 0.68922508 2.1461592
0.69831115 0.60290992 2.0691547
0.74245405 0.80852288 1.9359368
1.5814769 0.64930308 2.1334321
1.0400454 1.2852883 1.6853337
1.3788747 0.39987722 2.5044861
1.5630684 0.68247449 2.1401854
0.95011652 1.4729513 2.1335571
0.60953712 0.77085352 1.964395
0.53997952 1.6005051 2.0671275
0.62383038 1.6556902 2.0394557
0.6755178 1.487999 2.0096571
1.326697 0.67897964 2.0253501
-0.038090046 0.5577597 1.7673882
0.93159008 0.21322046 2.3148046
1.0169048 0.65675688 2.1703908
0.92302823 0.56933343 2.2962332
0.93357515 1.0836424 1.7105118
1.0733536 0.70860189 2.063853
1.1647714 0.43838283 2.392632
0.90543395 0.47897309 2.4042594
1.2737335 0.39454746 2.5168381
1.2088404 0.65295392 2.0671551
1.2327024 0.75247544 2.0396883
0.83598095 0.60799915 2.1886406
1.3841115 0.59008241 2.2376432
0.71413255 0.51710629 2.053304
1.1560403 1.1807249 2.3652232
1.1166006 1.2070689 2.4004982
0.71681887 0.59797323 2.0597718
0.67610878 0.90892285 1.8394163
0.79375076 0.50600231 2.3349628
0.80156678 0.63076133 2.1856804
0.35290885 0.48156935 1.7435428
0.3919107 0.7428689 1.8821135
0.53878444 0.80257982 1.9296153
0.80219996 1.5906719 1.8862586
1.5651909 0.68770742 2.1376913
0.31043553 0.52755231 1.7534168
0.70984024 1.6865432 1.9297689
0.70725018 1.6798787 1.927133
1.1175158 1.1052691 2.5201631
0.14681521 1.0182724 1.7078696
0.093568832 0.69810838 1.7444715
0.61977839 1.531526 2.0367548
-2.5926178 1.7912695 1.9251387
0.7315045 0.33440363 2.2274907
0.87523609 0.36771312 2.3846796
1.26788 0.39524326 2.5213788
1.3582386 0.40600982 2.4982622
1.4817929 0.44832143 2.4605777
1.0286121 1.1916915 1.6233132
0.81663489 0.6270256 2.1919987
0.93827796 0.13498655 2.2656145
0.31159136 1.0674598 1.5922076
0.10327104 0.86955976 1.8786675
0.84010535 0.60504448 2.1999304
1.5728022 0.55978763 2.26808
0.042820882 0.92644519 1.7856061
0.019448746 0.80674201 1.7019035
