# .PCD v0.7 - Point Cloud Data file format
VERSION 0.7
FIELDS x y z
SIZE 4 4 4
TYPE F F F
COUNT 1 1 1
WIDTH 541
HEIGHT 1
VIEWPOINT 0 0 0 1 0 0 0
POINTS 541
DATA ascii
0.55561596 1.4804199 1.8132447
-0.023193231 1.4219928 1.7801054
0.35481688 1.522553 1.6298972
0.73344988 1.3147111 2.0091374
0.12609147 1.3125448 1.8396477
0.52388048 1.4804441 1.6811323
0.71533406 1.461574 1.8213711
0.71466446 1.4636296 1.815075
0.091910712 1.3012062 1.8911995
-0.0036720973 1.1237376 1.9816833
0.30380079 1.4118112 1.8146229
0.022323562 1.2007699 2.0302088
0.73343676 1.4654753 1.8250173
0.5929845 1.2893963 2.0403552
0.49350706 1.3132616 2.0005996
0.2120036 1.213902 2.004611
0.291076 0.9749971 1.9165043
0.75756145 1.374952 1.9369477
0.20975275 1.099331 2.0120754
0.71472698 1.4957316 1.7834705
0.37118891 1.4486095 1.7178856
-0.0072305626 1.1325259 1.9783218
0.45841175 1.4799386 1.6928385
0.23877755 1.5034976 1.7167896
0.66044509 1.5032674 1.7691295
0.67635053 1.4874175 1.7848818
0.21466543 1.5248656 1.7050608
0.41695866 1.5033566 1.6623981
0.45941585 1.433156 1.7505883
0.50543875 1.3205776 1.9979395
0.39274672 1.4276332 1.7454246
0.35897124 1.45525 1.7048846
0.31246823 1.4201951 1.819797
0.5935359 1.2914157 2.0392852
0.32139519 1.3821884 1.8456293
0.21038981 1.4306267 1.786623
0.17132737 1.3490841 1.8329862
0.22118963 1.1184067 2.0284441
-0.024728419 1.4022125 1.7678232
0.42960969 1.5644071 1.6040202
0.65253121 1.4773299 1.7989694
0.65144819 1.4748571 1.7999624
0.62582737 1.4973683 1.7749956
0.65175414 1.4729469 1.8034858
0.65442324 1.4701135 1.8044486
0.62347883 1.4710146 1.7977686
0.7740497 1.3397995 2.0005198
0.07723859 1.2094569 1.9686596
0.045354534 1.0240533 1.8915806
0.075339355 1.0581172 1.9361486
0.23527041 1.1141553 1.943242
0.050464172 1.1141511 1.9822772
0.21207114 1.5312309 1.7082597
0.23620425 1.5011781 1.7216344
0.049814567 1.1286266 1.9925772
0.41943392 1.5029371 1.6635331
-0.070090264 1.4088546 1.7521819
0.47278562 1.5083289 1.6670004
0.032639876 1.2030478 2.0130563
-0.0096308468 1.2730333 1.9104308
0.46776962 1.5148666 1.6586699
0.44851086 1.4924058 1.6806612
0.21489751 1.5496207 1.7074412
0.41435766 1.5532717 1.6018754
0.097492427 1.6157148 1.6024891
0.10986232 1.5590889 1.6147616
0.12610416 1.5466115 1.6776894
0.41286969 1.4873013 1.6797409
0.21558169 1.5024775 1.6815493
0.3867552 1.4948735 1.6657115
0.097309187 1.3359168 1.8697445
0.12135851 1.2404882 1.9481648
-0.089563072 1.273883 1.7647941
-0.088621095 1.2751921 1.7573239
0.46673977 1.5160557 1.6561804
0.46824044 1.5148152 1.6543758
0.55389297 1.455213 1.7956311
0.21576448 1.5265505 1.7028773
0.66088164 1.5036377 1.7696323
0.20120083 1.3310838 1.9267331
0.19620253 1.3295118 1.9342819
0.17184451 1.3488274 1.8305126
0.68636787 1.4618237 1.8112155
0.01368813 1.3332095 1.8680713
0.10035826 1.1908805 2.0061545
0.24708498 1.2868725 2.0490468
0.4071992 1.4424862 1.7335633
0.11787201 1.5326693 1.6845223
0.093620367 1.5345505 1.6519504
0.51644498 1.4295886 1.7590122
0.033691756 1.2310178 1.9740539
0.016062407 1.1146866 1.9727159
-0.0083181858 1.1136203 1.9773625
0.4741177 1.4934531 1.6824362
0.49900067 1.4829779 1.7014152
0.34569356 1.4936472 1.6614997
0.37999046 1.4120725 1.7719851
0.12384969 1.57145 1.6327316
0.23997702 1.5183814 1.7199255
0.24772678 1.5453244 1.710143
0.23710404 1.5194209 1.7210288
0.38231742 1.4123746 1.7623872
0.1602692 1.3099229 1.9034207
-0.0395183 1.4680074 1.7048601
0.034416113 1.3024907 1.8958244
-0.12146061 1.413137 1.7392653
-0.096815117 1.2731473 1.7727743
0.17743465 1.2819706 1.9201967
0.10994211 1.2385557 1.9621047
0.34997419 1.4723623 1.6679634
0.12132017 1.5836097 1.6200378
0.34695318 1.4296602 1.7297509
0.10760723 1.5581722 1.6112614
0.22075179 1.5090202 1.6940001
0.48825312 1.396897 1.837918
0.46479207 1.3661005 1.8667334
0.51590657 1.2441071 1.907894
0.072750069 1.2150189 1.9886971
0.084343009 1.1990488 1.9986421
-0.23990165 1.3207054 1.8584634
0.029431457 1.285043 1.9058837
-0.014198713 1.2272438 1.9906144
0.52285361 1.5117201 1.668962
-0.084415913 1.4395146 1.7210333
0.52131361 1.4962033 1.6911448
0.67845291 1.500439 1.7722669
0.20167057 1.2988447 1.9788148
0.3137376 1.0928146 2.0323491
0.04632936 1.2515876 1.923207
0.12395379 1.2085993 1.9867042
0.4066512 1.5509107 1.6129446
0.37518004 1.4504244 1.7120086
0.19581027 1.006336 1.9217834
-0.021211781 1.4308285 1.794506
0.17044289 1.0193707 1.9284538
0.20062387 1.235466 1.9639049
0.24952453 1.5396764 1.7012978
0.68419254 1.490142 1.7819514
0.24010357 1.5332503 1.7023536
0.11001682 1.5349287 1.6760509
0.73045468 1.4598551 1.8300916
-0.085469134 1.4300926 1.7726049
0.69134992 1.2970883 2.0119679
-0.10771668 1.4418801 1.7469435
0.49003965 1.4855511 1.694767
-0.088166572 1.4018756 1.7714939
0.17751996 1.3439239 1.8550326
0.34490362 1.5019726 1.6599199
0.40405595 1.2603412 1.9707724
0.46246547 1.4248812 1.7680535
0.096342057 1.5647824 1.6130627
0.12516275 1.5463016 1.6808842
0.062185805 1.5439241 1.6870892
0.37143934 1.5451784 1.6021234
0.78165638 1.343809 1.9991063
0.38648927 1.5076187 1.6499455
0.46861207 1.4970297 1.6777503
0.67529958 1.4651076 1.8077067
0.72028774 1.4686356 1.8167456
0.47668341 1.4383098 1.7560363
0.38597822 1.447946 1.7385612
0.46636772 1.4380589 1.7342284
0.11842097 1.6116364 1.6042299
0.47630146 1.4384184 1.7506791
0.37438366 1.4493475 1.7142918
0.38274312 1.4516904 1.6954408
0.55047196 1.4541384 1.8148664
0.38321033 1.4340986 1.7262411
0.37636036 1.4338622 1.7446774
-0.13233337 1.4120876 1.7510822
-0.19318144 1.2316527 1.9332176
0.28923211 1.0970348 2.0263777
0.50437194 1.4840797 1.7010808
0.32888535 1.3778605 1.8281974
0.63040084 1.4811652 1.7907072
0.38746351 1.4964247 1.6702989
0.40503401 1.4827598 1.6903088
-0.032838374 1.4847369 1.6892604
0.25736913 1.2788551 1.9699258
0.1377729 1.3110455 1.8907073
0.49681821 1.4882774 1.6825472
0.11200438 1.5340602 1.6849638
0.35383356 1.418112 1.7684968
0.21874343 1.5048205 1.6792576
0.21907148 1.4869455 1.6825116
0.46124336 1.4256121 1.7517602
0.46199194 1.4247699 1.764774
0.59913856 1.4620637 1.8065094
0.4342773 1.53045 1.6188129
0.42378613 1.4150323 1.7728475
0.73669559 1.4827287 1.7872431
0.34175777 1.4445772 1.7176305
0.24688219 1.5316024 1.7064072
0.10001288 1.5341455 1.6887788
-0.028587889 1.215644 2.0333064
0.40652749 1.5487566 1.6126506
0.45939359 1.4418238 1.8064256
0.63171291 1.4832745 1.7962939
0.41077 1.4451413 1.7222157
0.6524694 1.4789681 1.8007745
0.34386525 1.4440819 1.7149996
0.45657215 1.434659 1.7559325
0.64832783 1.4692864 1.8007468
0.48546228 1.479364 1.7015352
-0.013408281 1.5072281 1.7241976
0.34914216 1.3871028 1.8202254
0.29133493 1.4547274 1.8133309
0.33543923 1.3808388 1.8138193
0.71444142 1.4957203 1.7866668
0.73264903 1.4930891 1.794221
0.35997787 1.4556329 1.7079313
0.18148212 1.3155782 1.8732053
0.44856292 1.2649856 1.9979244
0.2183034 1.4497756 1.8018005
0.73132598 1.4806329 1.8021531
0.37232739 1.4516176 1.7319777
0.23405683 1.4871128 1.6815482
0.51546514 1.4857962 1.6995263
0.47878313 1.4906759 1.6819874
0.34743625 1.5486021 1.6013786
0.74163115 1.5066037 1.7736057
0.22508195 1.3024989 1.9359018
0.055193849 1.3126143 1.86157
0.16556835 1.2601881 1.9412031
0.28510112 1.1156553 2.0465968
0.41797131 1.1936635 2.0294611
-0.13227189 1.3900732 1.7950255
-0.1066923 1.3596942 1.8547821
0.015289739 1.2662467 1.9481471
0.71309459 1.3016175 2.0298133
0.30331236 1.3743445 1.8919557
-0.059897557 1.3984437 1.7769593
0.28468958 1.2866987 1.9482266
-0.08406835 1.4090244 1.7627096
0.14756784 1.3379301 1.8506715
0.38936821 1.496483 1.6699243
0.18199839 1.2826092 1.9139434
0.14340711 1.2579384 1.9539647
0.22197765 1.2152638 2.0021284
0.084195435 1.256886 1.9435331
0.209194 1.2136515 2.0236306
0.63334984 1.5072126 1.7673727
0.37298232 1.5041956 1.6541219
0.5109852 1.4861556 1.691458
0.59419626 1.2683847 2.0647943
0.34459245 1.4937755 1.6606883
0.35497305 1.4240658 1.8610531
0.47258788 1.508086 1.6684314
0.050801843 1.3064628 1.8781608
-0.0024292937 1.3610842 1.8732539
0.52427667 1.5122968 1.6699883
-0.11640834 1.3942528 1.7737327
-0.16392472 1.3920922 1.7909596
0.04626181 1.2646401 1.9330535
0.082238644 1.2513731 1.9590012
0.42247504 1.4675739 1.6966784
0.31286597 1.1013891 2.0347698
0.64071494 1.5220842 1.7496607
0.15393293 1.2036303 2.0294075
0.46096486 1.491019 1.6851913
0.12981459 1.195817 2.0203464
0.058839593 1.2046301 2.0051343
0.012356931 1.1156334 1.9738356
0.092602283 1.5106975 1.7286657
0.47807786 1.4949565 1.6824137
0.056648493 1.4809285 1.8111494
-0.048114084 1.4415113 1.7273536
0.34292158 1.4346627 1.7266392
0.46081463 1.4242797 1.7704188
0.13238466 1.5522455 1.6811999
0.33526877 1.4360603 1.7413515
0.3868365 1.4957676 1.6699634
0.38682175 1.4242954 1.7528352
0.47770113 1.4916909 1.6779716
0.44632849 1.4896595 1.685666
0.42209238 1.4116583 1.7685883
0.33130142 1.4203876 1.7631202
0.34172764 1.4118351 1.7556098
0.66835284 1.4643623 1.7908947
0.084647425 1.5359961 1.6662343
0.48362532 1.5157402 1.6555269
0.2075959 1.4348558 1.8002754
0.65316963 1.463976 1.7884454
0.32651719 1.6030039 1.642892
0.4205156 1.5014668 1.6708305
0.66022646 1.5027496 1.7664837
0.46485063 1.3685011 1.869941
0.4578445 1.4895405 1.685112
0.31946206 1.3827977 1.8528318
0.46387264 1.3654931 1.8741975
0.37353191 1.5026617 1.6516778
0.42537305 1.5278351 1.6452184
0.48311311 1.4867082 1.6860777
0.7771976 1.3850207 2.0285416
-0.029137159 1.434049 1.7336551
0.33889189 1.4144603 1.7553629
0.49675807 1.4905339 1.6996402
0.1023237 1.6178018 1.5978408
0.73771787 1.368484 1.9807951
0.72915238 1.4584502 1.8212125
0.48920926 1.2413467 1.9194508
0.20149782 1.4281635 1.8080229
0.33972335 1.511274 1.6507705
0.16465032 1.3420107 1.8651239
0.11262339 1.6176653 1.6081007
0.48425877 1.4413757 1.7454745
0.38595036 1.4567692 1.7051709
0.17504147 1.3141314 1.8813184
0.294341 1.2893549 1.9316733
-0.080296427 1.4001771 1.8035018
0.46051988 1.4966369 1.6801102
0.33356935 1.26167 1.9767725
0.35383558 1.5215161 1.6257834
0.4759396 1.4840606 1.7014215
0.52389532 1.5222263 1.6666189
0.34477162 1.5609933 1.5930083
0.46221629 1.4854864 1.6708156
0.194894 1.0250781 1.9152075
0.65949088 1.4899948 1.781763
0.52249169 1.5126824 1.6737037
0.26399842 1.0790462 1.9888291
0.11982751 1.2376838 1.9532698
0.4936716 1.4839778 1.7174646
0.28152254 1.0874759 2.0299487
0.30033055 1.1112092 2.0522275
0.52325839 1.4824663 1.7070761
0.092401251 1.2255388 1.9608047
0.37902117 1.2230023 2.0646691
0.44618267 1.4912839 1.6912057
0.4596124 1.4927183 1.6917748
0.64828265 1.5365977 1.7286434
-0.027956115 1.2420545 2.0136435
-0.048046686 1.4890634 1.7019818
-0.012284922 1.2066281 2.041008
0.3984423 1.5555336 1.6179117
-0.10795954 1.4391131 1.7159506
-0.060612418 1.4227979 1.7415286
-0.097590744 1.4251657 1.7433908
-0.084477551 1.4249045 1.7289591
-0.11391155 1.4284792 1.7591714
-0.096047364 1.4234909 1.7417264
0.45366296 1.25892 1.9630799
-0.14547272 1.4130635 1.7671455
0.37473193 1.4327826 1.7645575
0.34588835 1.4297231 1.7349828
0.25142071 1.5434523 1.7044256
0.25307706 1.5377222 1.7147409
0.031270005 1.3021097 1.8866333
-0.1868127 1.3919264 1.8307551
-0.17376614 1.3830799 1.8198929
0.074821927 1.0612637 1.9234548
0.015277055 1.273265 1.923288
0.14553517 1.2585671 1.9495715
0.15734926 1.2484655 1.9793034
0.016181624 1.2772967 1.9104764
0.16162987 1.2466894 1.9568108
0.40116379 1.4304869 1.7354354
0.20411274 1.4993787 1.7265747
0.34695256 1.4301845 1.7351302
0.30859548 1.0903473 1.9985424
0.016463006 1.2500509 1.9682014
0.10510638 1.0836035 1.9582618
-0.26677746 1.333795 1.8521421
-0.24980971 1.3344651 1.8366724
0.28018352 1.0918072 2.0477216
0.31436777 1.1012553 2.0306091
0.028202891 1.2320415 2.0233309
-0.2101039 1.3286698 1.8625093
0.036076061 1.2359068 1.9622192
0.11099825 1.2045979 2.0190287
0.18620881 1.2002782 2.0245757
0.044198412 1.2102412 1.9893515
0.017467754 1.1315684 1.9777142
0.039489057 1.2081574 1.9976332
-0.01284224 1.1326772 1.9853258
0.0019527185 1.2742448 1.9353751
0.072203413 1.2977134 1.906662
0.22959729 1.5074755 1.6894056
-0.20041615 1.265309 1.9403337
0.098814875 1.322317 1.8951428
0.058305189 1.32099 1.8495793
0.0073868688 1.3299092 1.8629233
0.081398509 1.3045262 1.9002242
0.4237738 1.2613097 1.9619282
0.26975131 0.97857553 2.000824
0.63030267 1.4813217 1.7901255
0.20951673 1.0119851 1.9294426
0.23617338 1.3250759 1.9520006
0.25944266 1.2470857 1.970273
0.2538138 1.2709494 1.9756205
0.093123704 1.2730323 1.9437532
0.16943936 1.2622806 1.9452341
0.44652554 1.4924288 1.6759405
0.15859555 1.2370126 1.9785811
0.17517684 1.2200568 1.9511998
0.031454273 1.2322985 1.9750954
0.091985427 1.2231352 1.9715241
0.50646967 1.4839424 1.6969873
0.46406755 1.5179747 1.6624819
0.12338509 1.2085792 1.9910936
0.34514454 1.4957831 1.6631299
0.09900856 1.2163033 1.9918873
0.26227805 1.2513318 1.9553881
-0.047327809 1.2702241 1.957557
0.095293559 1.1882981 2.030015
0.20725726 1.1954882 2.0794761
0.4861111 1.5162625 1.6563531
-0.022171292 1.213155 2.0323391
-0.24160418 1.228617 1.9816964
-0.19254327 1.2977228 1.8814529
0.16953808 1.3377252 1.8753
0.17000356 1.3299341 1.8775104
0.16214211 1.3280467 1.8737288
0.083159275 1.3313148 1.8693241
0.22836122 1.523533 1.680081
0.50542647 1.3204633 1.9902064
0.12212782 1.3273537 1.86186
0.40601701 1.2611851 1.9626474
0.29463306 1.0016319 1.9407567
0.081665263 1.316447 1.8824637
-0.096537612 1.4040328 1.7915146
0.2617107 1.2732456 1.95032
0.2505196 1.0215011 1.9375167
-0.14996126 1.3991438 1.7933035
0.34688917 1.492502 1.6557666
0.02937828 1.3699964 1.8559847
0.23766783 1.0355167 1.8949656
0.19577198 1.0179262 1.9494841
0.39419028 1.2305405 2.0077014
0.11464931 1.5601373 1.6139612
-0.057073079 1.4006501 1.7607865
0.29353574 1.4054414 1.8313824
0.34932885 1.5212047 1.6045908
0.27281827 1.432687 1.8381845
0.72073805 1.5244225 1.7607638
0.093116321 1.5587436 1.622519
0.33794439 1.4761616 1.691135
0.67898327 1.5016829 1.7813699
0.47985902 1.439045 1.7469482
0.39335334 1.4452902 1.7112714
0.40063471 1.4386383 1.7382072
0.61591709 1.4856359 1.7986757
0.35850736 1.441152 1.7268734
0.33211356 1.4312656 1.748623
-0.020646097 1.4527832 1.7146783
0.73587227 1.3688112 1.9510733
-0.051581837 1.4533155 1.7271608
0.29069367 1.4045857 1.8389038
-0.066990323 1.4499882 1.7177323
-0.026382955 1.4344356 1.7322406
-0.066452563 1.4390128 1.7500657
-0.059736133 1.4367516 1.7449547
0.70263022 1.365291 1.9742663
-0.058628388 1.4374322 1.7169223
0.50863338 1.2404907 1.9162996
0.49389294 1.2420585 1.9142215
0.4578695 1.2595546 1.9463437
0.11989149 1.3267978 1.8689613
0.16455306 1.325757 1.8600508
0.083544016 1.3160826 1.8825161
0.14788769 1.312665 1.8718483
-0.12153665 1.3909893 1.774304
0.00034112699 1.3414861 1.8729489
0.075201459 1.3228363 1.8628699
0.066487521 1.3101015 1.8943396
0.12937637 0.99064565 1.8946472
0.077063531 1.297636 1.9163576
0.40078717 1.2577809 1.9888583
0.14285243 1.2793076 1.948516
0.1674736 1.0128531 1.9353305
0.24166591 1.3358463 1.9315815
0.30962011 1.0166417 1.955507
-0.11560721 1.3545953 1.8678722
0.075538553 1.2678144 1.9309484
0.50640458 1.2939056 2.0166321
0.066778541 1.2642717 1.9400706
0.16916569 1.2379738 1.9840697
0.040012665 1.2464954 1.9751096
0.55145723 1.2642076 2.0542607
0.17924756 1.2078948 2.0712652
0.2064302 1.2051363 2.0603247
0.12495035 1.2098409 1.9879537
0.17657557 1.219039 1.984609
0.13799596 1.2078584 2.0044806
0.078991868 1.1844701 2.0540254
0.36642289 1.190621 2.1165595
0.45132655 1.4906636 1.712858
-0.024311749 1.5057886 1.7263699
0.47261068 1.1414269 1.8248969
0.35959381 1.3898729 1.8204994
0.472525 1.3681041 1.8453264
0.3510859 1.3867093 1.8254471
0.35055944 1.3862882 1.8249834
0.21248159 1.4487638 1.8101159
-0.082946464 1.4124308 1.7576795
0.30787122 1.4180055 1.8118123
0.45558754 1.2161373 1.897826
0.18053302 1.3438503 1.8529671
0.73617882 1.314573 2.0208271
0.18713745 1.3843575 1.8617784
0.64588708 1.5375718 1.7409968
0.16603182 1.3340461 1.8501281
0.14062485 1.3147453 1.9002019
0.18317096 1.380518 1.8760552
0.07349845 1.562236 1.6372582
0.093393095 1.5644541 1.6313676
0.10908858 1.5662447 1.6127014
0.18316808 1.3272659 1.8699821
0.055179249 1.3203459 1.8508881
-0.057935294 1.4020389 1.786775
0.25667685 1.0965135 2.024106
0.21151248 1.1009215 2.0195765
0.38776752 1.2163012 2.0735552
0.3721709 1.1868105 2.1244123
0.07402008 1.1989932 2.0059955
0.26003778 1.5283631 1.7022344
0.12219293 1.5477844 1.6879864
0.34285399 1.41238 1.7450637
0.24429041 1.5113765 1.7174249
0.23355901 1.5072941 1.7368268
0.092298761 1.5354161 1.6964751
0.41858158 1.4137688 1.7964958
0.3141529 1.1086524 2.0530705
0.26409096 1.1257079 2.0388901
0.051839169 1.2503072 1.9514797
-0.22842921 1.3224329 1.8465871
0.09264899 1.2197534 1.9833715
0.15944234 1.3453922 1.8439051
0.11476931 1.1114651 1.9918718
0.74952227 1.2476885 1.9531358
0.35935232 1.2004558 2.1049376
0.47491041 1.4826165 1.698738
0.25481904 1.2684062 1.9732909
0.28988126 1.2740263 1.9514881
-0.047269233 1.471897 1.709419
0.047267165 1.1301751 1.9915736
-0.10343157 1.3405696 1.9215863
0.39102504 1.4963169 1.6659294
-0.077570409 1.4725657 1.6995184
0.20611911 1.2096864 2.0424824
-0.15319642 1.2876246 1.7574681
