# .PCD v0.7 - Point Cloud Data file format
VERSION 0.7
FIELDS x y z
SIZE 4 4 4
TYPE F F F
COUNT 1 1 1
WIDTH 181
HEIGHT 1
VIEWPOINT 0 0 0 1 0 0 0
POINTS 181
DATA ascii
1.2615185 0.7290982 1.9884746
0.64979523 0.74686629 2.0326769
0.84928697 0.89368337 1.8818805
1.2022555 0.66214031 2.0646963
0.55738002 0.49875003 2.2650182
1.3135501 0.48054603 2.4180679
0.54437882 0.50154823 2.2695959
0.56273246 0.49634194 2.2528555
1.3414043 0.70015085 2.1147494
1.4210998 0.63966584 2.1836128
1.2576008 0.75848371 1.992956
0.68833679 0.65892476 2.1452668
1.1375571 0.68899858 2.0362513
0.71187979 1.153499 1.6656713
1.042487 0.70826048 2.013278
1.0344591 0.64623868 2.0866182
1.0205663 0.70422131 2.0360065
1.2526684 0.78717899 2.015851
1.2518252 0.78912193 2.0197604
0.95218861 0.75868344 2.0117102
0.84731174 0.84220129 1.9002246
0.8542214 0.82864738 1.9599748
0.78969699 0.63023198 2.1811388
0.70678532 0.82446057 1.9676546
0.70609826 0.8273645 1.9706277
0.56311053 0.85351163 1.8956683
0.33076769 0.94764686 1.7968597
-0.10701696 0.89023727 1.8955892
0.28156355 0.86539084 1.8601543
0.15484501 0.79306144 2.0040829
-0.031610556 0.97486699 1.7943705
0.63113225 0.32609382 2.1792912
1.4272529 0.57192409 2.2708178
1.5092144 0.61760694 2.2178192
1.2764051 0.63567656 2.1854844
0.66655171 0.31730357 2.2035005
1.2581438 0.64549446 2.2211871
0.72661185 0.25438064 2.1977975
1.2113808 0.66159409 2.1949043
1.0035669 0.65769845 2.0830724
1.2793223 0.63592446 2.1799381
1.2647563 0.7278856 1.9831893
1.1061838 0.95494306 1.8437063
0.8472116 1.290792 1.6332198
0.77185786 1.1134799 1.6451859
1.1365367 0.69074845 2.0375354
1.0129434 0.67605913 2.0661776
1.1379223 0.46661544 2.435642
0.21589464 0.7703746 1.8609735
0.21592413 0.76864064 1.8626628
1.2049332 0.9136411 1.88157
0.52665597 0.6397289 2.0854604
-0.081838056 0.69128406 1.8179545
-0.15773314 0.81824142 1.7440064
-0.11590224 0.76756066 1.7341802
1.0678399 0.81346333 1.9633552
0.83202553 1.1336986 1.6045446
0.60466886 1.1501092 1.7427077
1.262709 0.72759813 1.9828665
0.22730874 0.76774526 1.9860677
0.85563815 0.82875717 1.9627757
0.82675153 1.1369667 1.6047282
0.74249244 1.5879053 2.0584693
0.33231771 0.94568181 1.7994623
1.1583346 0.91203731 1.8512444
-0.045234647 1.0046537 1.6805463
1.0598813 0.65320587 2.0852191
-0.1026069 0.88908428 1.8723968
0.85018516 0.716784 2.1038175
1.4739158 0.70396566 2.057667
0.79640174 0.23922476 2.2191801
0.64550334 1.1663566 1.6172266
1.1130408 0.94596457 1.8320678
0.98794609 0.98018169 1.751431
1.3772702 0.83872974 1.9424614
0.55270296 0.64083815 2.0252373
0.27634016 0.8676697 1.8637688
0.64238596 0.70183128 2.1454196
0.54275757 0.78725672 1.9815843
0.98639441 1.1711712 2.6853535
0.43888271 1.605051 2.0257804
-0.11539391 0.84548163 1.8230581
-0.15483554 0.85839307 1.9074348
-0.15827753 0.86177659 1.9142359
-0.13237746 0.86086959 1.9080197
-0.099369869 0.85837322 1.9488441
-0.15835284 1.5324951 2.2330649
1.3170277 0.40161341 2.3671262
1.4208277 0.63963383 2.1852055
0.93598503 1.1331807 2.3712811
0.88311315 1.1604387 2.4324498
0.57130116 0.59977973 2.2756877
0.57131463 0.60021818 2.2734756
0.75607556 1.5234406 2.0841429
1.119421 0.60760242 2.2134883
1.1992495 0.91623068 1.8848304
0.84320867 1.2259955 1.6559756
1.2014453 0.91674298 1.8845338
0.85125065 1.2276099 1.6090312
0.56923968 0.78025103 1.984018
1.2008052 0.62201345 2.1381795
0.56441426 0.85362285 1.896866
0.52127939 0.54126006 2.6358933
1.1575841 0.7481336 1.9528798
-0.13515793 0.84630358 1.8239802
1.0769894 0.62891525 2.1192977
1.0821172 0.4578914 2.2970181
1.0786314 0.45947751 2.294337
0.92649603 0.78849888 2.0094919
0.73400038 1.2546762 1.7708699
1.1726468 0.5067963 2.4007354
0.83555597 0.21687649 2.2630527
0.79882973 0.26623231 2.2625434
1.2335536 0.7964654 2.0359528
0.85761857 0.71304429 2.1150258
0.77463806 0.62170976 2.245656
0.92184001 0.76393193 1.9907409
0.83629727 1.1852618 1.5782182
0.95168662 0.7897256 2.0210586
0.8204053 1.1593294 1.6636931
0.62859404 0.90129405 1.9029678
0.64620757 0.77996814 1.9926932
1.3593192 0.60433656 2.2286267
0.82910234 0.39302909 2.3314245
0.65286428 0.76643169 2.0511308
0.76320362 0.33147523 2.2596092
1.3367776 0.71429837 2.1108634
1.1019721 0.95247817 1.843154
1.0616103 0.81768674 1.9727196
0.55444628 0.64207542 2.0212514
1.3639501 0.68136173 2.1317921
0.48867998 0.9513036 1.8045576
0.6504516 0.55307657 2.2913799
0.64473003 0.67819804 2.1423061
0.85228986 1.221259 1.6480169
1.3264188 0.64949679 2.1621962
0.40165955 0.74991161 2.0710263
0.21438541 0.77365822 1.86261
-0.16543314 0.8203783 1.7010437
0.13469563 0.55529898 1.7379863
0.95927602 1.1649716 2.4600675
-0.051216975 1.0389179 1.7033228
-0.08914306 0.71679884 1.7418039
-0.0909632 0.68386483 1.8323288
1.165532 0.92848885 1.8651794
-0.13743986 0.8520546 1.8221602
0.81088769 0.39284584 2.3628047
0.86225241 0.71542549 2.0947835
-0.095179819 0.68285245 1.8367381
1.1384641 0.46173093 2.4504924
1.3632371 0.52232146 2.3912272
1.2629079 0.48193017 2.5297456
1.0420123 0.71389133 2.0072649
0.51979339 0.82424676 1.9434932
0.5642004 0.77984869 1.9827012
0.90012288 0.48082715 2.4466367
0.32010099 0.81928766 2.0080104
0.77909338 1.1119399 1.642333
0.71396273 0.56874442 2.2516718
0.74528664 0.32760108 2.2772744
0.71199381 0.628721 2.1841204
0.49113753 0.78323859 1.9779811
0.76186824 0.44036672 2.3454413
-0.03430865 0.919177 1.7770542
0.51551545 0.86814111 1.9001294
0.68179113 1.0869263 1.6145251
0.8165676 1.2485448 1.5699202
0.65397924 0.76715547 1.932559
0.24914613 0.7371757 2.0746598
0.66027039 0.67507911 2.1477554
-0.082247704 0.67883211 1.8391178
-0.078943446 0.8883723 1.8758066
0.85291421 0.83937651 1.8996834
1.2202811 0.68885291 2.0302403
1.3449074 0.60528976 2.2342377
1.0578744 0.81646949 1.9753393
1.4216415 0.63892728 2.1810026
-0.14681755 0.94281447 1.7864772
1.4594461 0.76447129 2.0511053
1.3393679 0.71330965 2.1089294
-0.16993442 0.82233351 1.7038263
