# .PCD v0.7 - Point Cloud Data file format
VERSION 0.7
FIELDS x y z
SIZE 4 4 4
TYPE F F F
COUNT 1 1 1
WIDTH 496
HEIGHT 1
VIEWPOINT 0 0 0 1 0 0 0
POINTS 496
DATA ascii
0.38727084 1.4371568 1.7913983
0.5031268 1.4355606 1.8528032
1.0619367 1.4480175 1.8439624
1.0462255 1.2344662 2.2080913
0.58840054 1.3058693 1.9796449
0.4979955 1.4170322 1.8419474
0.81827712 1.3982644 1.9394605
0.96665347 1.2846961 2.1524737
0.66809189 1.0951664 2.1156774
0.9032132 1.4290955 1.8552663
1.0415426 1.3963529 1.9213989
0.96918911 1.5315715 1.754249
0.99562156 1.4529933 1.8449565
0.995103 1.4530002 1.8463984
0.96170759 1.4797103 1.8084954
0.98341691 1.4064254 1.9015881
0.82610339 1.4460682 1.8867363
0.97942096 1.2909868 2.1518531
0.89384693 1.4366999 1.8405409
0.97368854 1.2141771 2.059768
0.82812464 1.3673522 1.9725655
0.73249328 1.4247277 1.8969816
0.67985666 1.3468305 1.9355308
0.68675256 1.3728288 1.9668529
0.67826951 1.1132617 2.1338871
0.30248654 1.3241639 1.8661311
0.40950659 1.4343393 1.7956396
1.140577 1.4306918 1.9773759
0.67173517 1.3185048 1.9740168
0.55388302 1.2158427 2.0526998
0.54477268 1.0651109 2.0186236
0.51948673 1.1227934 2.0607591
0.51124626 1.1212478 2.0736864
0.75511259 1.524658 1.8210402
0.86308098 1.365485 1.9346393
0.25617397 1.4105234 1.8312794
0.47837171 1.1412562 2.0578249
0.4604345 1.4263079 1.8175411
1.016275 1.4800271 1.8220911
0.50232291 1.2132744 2.0892532
0.48311129 1.2862957 1.9819425
0.96218634 1.20876 2.0906618
0.98888159 1.4662131 1.8314822
0.98960376 1.4656918 1.8297341
0.89201665 1.5689139 1.7546554
0.75954258 1.5427467 1.8208929
0.67200494 1.5607113 1.7126062
0.92857772 1.4868819 1.7954342
0.67678088 1.5470724 1.7771862
0.72601467 1.3354932 2.0294783
0.99131876 1.2122114 2.0671651
0.95355916 1.4640923 1.8247724
0.76050609 1.4956495 1.794926
0.93076968 1.4737799 1.8068024
1.0574027 1.450521 1.8669728
0.54595536 1.0303259 1.9903368
0.60314375 1.2430439 2.0399318
0.42391071 1.4978629 1.753245
0.43034509 1.2946653 1.8181391
1.0127155 1.4882051 1.8105248
1.0143803 1.4868398 1.8089721
0.83676785 1.3631518 1.9579048
0.69260311 1.3266251 2.0326605
0.68074363 1.3465257 1.9331702
0.87312299 1.4231997 1.855595
0.87075245 1.4081894 1.8690944
0.63054574 1.5628374 1.7296207
0.63414633 1.2190226 2.0675993
0.78011376 1.5093238 1.8315146
0.744973 1.4457945 1.9028974
0.66643035 1.5338802 1.782447
0.76545352 1.4752576 1.7940475
0.46645379 1.4550941 1.7957956
0.64799863 1.537698 1.746415
0.51196754 1.2409679 2.0512443
0.47609913 1.1389557 2.0453136
0.2449633 1.3634132 1.8902099
1.0344023 1.452662 1.8599967
0.89096868 1.4759674 1.7960137
0.90835547 1.4131316 1.86992
0.90011221 1.3920797 1.9096665
0.68387759 1.5719067 1.7327324
0.7796098 1.5095567 1.8369075
0.79103583 1.5357378 1.8288028
0.90397608 1.3921645 1.9005731
0.61900914 1.5710912 1.7350446
0.70451218 1.3265526 2.0186591
0.50302786 1.4825981 1.776428
0.45025501 1.4262015 1.8237481
0.53121901 1.3119482 1.974956
0.41235694 1.434823 1.7965618
0.51294291 1.2727138 2.0083215
0.43117329 1.2922196 1.8098085
0.35925475 1.5151814 1.7053193
0.34692812 1.4548434 1.7536627
0.76237291 1.4820367 1.8130122
0.75549918 0.96297038 2.0319409
0.46503988 1.5651014 1.7152166
0.66623247 1.2796465 2.021832
0.89237672 1.4544152 1.8028452
0.68444473 1.5842049 1.7199333
0.87589836 1.4122583 1.8628582
0.67027706 1.5599773 1.7087783
0.75191289 1.4829386 1.8135802
0.76411909 1.5017681 1.8081195
0.96440405 1.3394281 2.0163264
0.99794871 1.2136989 2.0638258
0.26899338 1.3528562 1.8940728
0.52325147 1.295 1.9838853
0.46188483 1.2412341 2.0598261
0.68198937 1.2945814 2.0837743
0.50413257 1.3281311 1.9558563
1.0368236 1.4802957 1.8351476
0.53430814 1.2602943 2.0033319
0.60371941 1.1133453 2.0910687
0.96348673 1.5278414 1.7585602
0.397457 1.4604951 1.7965206
0.66128993 1.0034436 2.0232882
0.50347841 1.4442344 1.8674325
0.79376644 1.5299388 1.8203007
0.78380066 1.5243222 1.8197526
0.66026068 1.5367661 1.772846
0.42700544 1.4623398 1.8066747
1.0268764 1.4559569 1.8520201
0.90774053 1.5331885 1.7321653
0.65945357 1.5675068 1.7088138
0.94404811 1.3883203 1.9097328
0.67531335 1.5468495 1.7801838
0.96231663 1.5201051 1.7511263
1.0195482 1.4640917 1.8561869
0.93013412 1.525036 1.7421416
1.0295602 1.4541076 1.8462505
0.90036702 1.5717157 1.7534436
1.039273 1.4121138 1.9170874
0.95855576 1.52408 1.7478173
1.0095012 1.4691399 1.8319012
0.91436207 1.4272512 1.8780468
0.99330121 1.4106939 1.8866183
1.0397921 1.4123104 1.9127614
0.90699649 1.4295565 1.8522429
0.91845608 1.4311509 1.835013
0.72095942 1.3323457 2.0495939
0.39966893 1.4347104 1.8064592
0.43175599 1.2947824 1.8610002
0.56249624 1.2634859 2.0330904
0.4798601 1.2481483 2.0418482
0.83794934 1.3623747 1.9565216
1.1490467 1.4401227 1.9692752
0.93085319 1.4752774 1.811461
0.49545196 1.4660585 1.788578
0.68769282 1.3810058 1.9773432
0.46334133 1.5683347 1.708181
0.73654926 1.2700019 2.0837572
0.5810256 1.3359932 1.9419827
0.91055763 1.5310594 1.7450171
0.63439351 1.311854 1.9866611
1.0541582 1.4503286 1.8714521
1.0333216 1.4578048 1.8467553
0.76250017 1.4798832 1.7962651
0.98440188 1.3987583 1.9029551
0.98296613 1.3978871 1.9159092
0.66013271 1.5665646 1.70881
0.94328606 1.3913841 1.9176099
0.9471699 1.4164034 1.8535919
0.9214263 1.4166334 1.8805628
1.0293877 1.4607046 1.8585358
0.64830184 1.5368485 1.7837853
0.51621664 1.2860528 1.9853034
0.43987975 1.2309732 2.0995085
1.1496085 1.4421287 1.9750234
0.94115156 1.4223534 1.8658807
1.1640735 1.426816 1.98194
0.87007755 1.4217348 1.855912
0.78700244 1.518733 1.8345938
0.85992098 1.3698792 1.9520224
0.80977011 1.4420664 1.9366543
0.89437628 1.4370048 1.843714
0.5591535 1.0799905 2.0558581
0.81036901 1.4469905 1.9287939
0.93691206 1.2298942 2.0573502
0.91890168 1.2403244 2.1420512
0.92834425 1.2994412 2.0799823
0.7394045 1.4431865 1.9134487
0.90992391 1.4301714 1.8506554
0.88904941 1.4376446 1.8406802
1.0577685 1.4560016 1.8590134
1.0182945 1.4619713 1.8376513
0.64947659 1.2789633 2.0124967
0.71224666 1.2961725 2.0452394
0.55802166 1.3202258 1.9446135
0.92786455 1.2012542 2.0790727
0.39081267 1.4128708 1.8495897
0.30007342 1.3507044 1.9069475
0.25578144 1.3422251 1.942804
0.58088577 1.2002041 2.0758123
0.80221009 1.3611503 2.0152812
0.47171634 1.469364 1.7859154
0.69722688 1.4283448 1.8925896
0.46901613 1.4271013 1.8787172
0.46559563 1.4151425 1.8435199
0.68677807 1.380276 1.9749358
0.4450016 1.4276658 1.8256794
0.39971182 1.4368707 1.780193
0.93279165 1.475176 1.8113989
0.68567383 1.0023884 2.0300286
1.0159136 1.4587716 1.8164524
0.66409022 1.2297152 2.0803177
0.73267704 1.277066 2.0730412
0.69129246 1.2096548 2.1091237
0.68054891 1.2136925 2.1082811
0.56869954 1.2624687 2.0295534
0.41424575 1.4119896 1.8340271
0.67511415 1.2091631 2.1282647
0.50766402 1.2511504 2.0610116
0.96189243 1.5235038 1.7533083
0.68414718 1.121712 2.123615
0.93159145 1.3932776 1.9470552
0.26068345 1.3702936 1.8863382
0.26892376 1.3670521 1.8704647
0.9198674 1.4841893 1.7932489
1.0480589 1.4548073 1.8521374
0.86211097 1.406324 1.9936655
0.55051434 1.3145005 1.96021
0.41019794 1.4156647 1.8311802
0.36050868 1.4175091 1.8404977
0.56382114 1.2571741 2.0444415
0.91431898 1.4278616 1.8721386
1.0002825 1.4638046 1.8379447
0.98633653 1.4690086 1.8331728
0.52949822 1.2126507 2.085676
1.0267955 1.4676034 1.8509389
0.62249637 1.5162418 1.8327845
0.63263446 1.5141929 1.8216925
0.64057106 1.4720701 1.84042
0.87284935 1.4175718 1.8591932
0.79856223 1.5198182 1.8286217
0.96624655 1.4753522 1.8138369
1.1122521 1.4318066 1.9724581
0.90364116 1.566326 1.7433603
0.85434985 1.4043999 1.8931627
1.020781 1.46547 1.8311073
0.63698632 1.5399194 1.759081
0.61404431 1.5287657 1.8309731
0.96368718 1.4775507 1.8173692
0.81060696 1.4458388 1.9282428
0.83011776 1.4413548 1.8981164
0.9971047 1.4625908 1.8373471
1.0215641 1.4576664 1.8423415
1.0331074 1.4603744 1.8579677
0.72008824 1.4230638 1.9166397
0.95285988 1.5283406 1.756868
0.88828617 1.4940048 1.7846596
1.0371562 1.4803584 1.8317736
1.0599238 1.4653212 1.8548763
0.67281514 1.3118035 1.9834372
0.46950123 1.4159282 1.8678555
0.77995425 1.2772965 2.0520837
0.44139037 1.4186311 1.8664449
0.42662165 1.4111614 1.8257076
0.90704662 1.5029775 1.7623895
0.90668726 1.5429953 1.7290239
1.0033789 1.4581531 1.8238981
1.0100446 1.4898185 1.8163705
0.55620754 1.2743652 2.0199735
0.98368764 1.4177767 1.898465
0.76306164 1.0668961 2.122874
0.60058188 1.2403886 2.0446916
0.76991487 1.075825 2.1462417
0.75166047 1.0995544 2.1700342
0.51123381 1.2128958 2.1137161
0.4988786 1.1302966 2.0954089
0.83626497 1.2044351 2.1962421
0.99802923 1.4656261 1.8442427
0.46001276 1.2593275 2.0719273
1.0158083 1.4590589 1.8317027
0.44585812 1.2571931 2.0805001
0.45392352 1.220649 2.1096363
0.4373436 1.2305894 2.1008563
0.43154517 1.4595298 1.776019
0.76894599 1.5227041 1.7971082
0.43780568 1.4430304 1.8032022
0.52957851 1.3118089 1.9653742
0.91356844 1.4053882 1.8798683
0.33155775 1.4193435 1.8760793
0.50554782 1.2844825 1.9986482
0.86823291 1.4213743 1.8679191
0.92835921 1.408581 1.877215
0.56135899 1.0830388 2.0467699
0.24466552 1.3681235 1.8836484
0.76813543 1.0884155 2.1508517
0.51662785 1.2456136 2.040004
0.57854396 1.2083076 2.1077945
0.66283411 1.2188761 2.0662885
0.56748843 1.2170534 2.0696659
0.49057281 1.2865969 2.0084398
0.77343255 1.4994813 1.8049939
0.29002354 1.2945564 1.9806147
0.4325828 1.2331535 2.0985441
0.72411466 0.96233881 2.0319042
0.51221734 1.341445 1.9384359
1.0535423 1.4499598 1.865186
0.67399794 1.0079495 2.033119
0.72241718 1.3177851 2.0631661
0.47665909 1.0407866 1.9699625
0.73148024 1.2624332 2.088716
1.0582372 1.4494597 1.8649939
0.64278316 1.2604128 2.0539627
0.99155027 1.4634567 1.8229961
0.63456202 1.2365509 2.0759118
0.76615942 1.0676296 2.1187413
0.50970465 1.242433 2.0519259
1.0425422 1.4529908 1.8568417
0.59556693 1.2111778 2.0822675
0.67524648 1.2129313 2.119894
0.89034176 1.4781454 1.7975578
0.4446896 1.1239805 2.0585146
0.74145293 1.2421315 2.069895
0.4381946 1.2867461 2.022342
0.47139299 1.2816496 2.0014439
0.6626879 1.1913553 2.1828618
0.23980743 1.2615192 2.0143859
0.98163283 1.4072136 1.8963937
0.98064876 1.2908556 2.1442184
0.76473212 1.4974816 1.7987896
0.98938608 1.4152068 1.8788773
0.42767361 1.4237977 1.8520404
0.6933347 1.0030073 2.0598729
0.71380162 1.0140369 2.0478022
0.7173577 1.3289325 2.06024
0.53827441 1.3795452 1.9355799
0.65513664 1.0187855 2.0267439
0.65773404 1.0150617 2.0507479
1.0161581 1.4690753 1.8351078
0.90601265 1.5029926 1.7407455
0.8771168 1.4592575 1.8238157
0.92580432 1.4239265 1.8522747
0.92422736 1.4140534 1.8824596
1.1274098 1.4352525 1.9793763
0.95269114 1.2013663 2.0113053
0.63365197 1.5384367 1.7975036
0.64060229 1.5345455 1.7916473
0.46684361 1.4560533 1.8163751
0.98913968 1.2107203 2.0709083
0.97510904 1.2135054 2.066499
0.93593848 1.2340161 2.0925877
0.40479299 1.412841 1.8308811
0.50462466 1.3535919 1.9473232
0.57833117 1.3287492 1.9492352
0.95948035 1.305275 2.1210232
0.65377849 1.2828448 2.0332663
0.63177299 1.0123297 2.0321624
0.83137852 1.2376981 2.1111717
0.72644556 1.2447512 2.0982442
0.47912815 1.1117743 2.0103683
0.57691926 1.1142575 2.0856485
0.55087584 1.2292742 2.0642214
0.68485665 1.2401035 2.1435471
0.50913382 1.2921277 1.9790511
0.8128193 1.1733373 2.245059
0.44356561 1.2272885 2.0991337
0.44924524 1.2301682 2.0934198
0.98630524 1.464318 1.8636904
0.51762635 1.519032 1.8005272
0.96030229 1.1147861 1.9737964
0.74815357 1.4486486 1.8768477
0.87038356 1.3717699 1.9540085
0.86897844 1.3668529 1.9507819
1.0193789 1.462235 1.8441402
0.82324547 1.4040915 1.937412
1.0561143 1.446468 1.8495092
0.7872197 1.512624 1.8277078
0.67063814 1.3323261 1.9514263
0.89294541 1.4925731 1.7768242
0.4739297 1.5036582 1.7514285
0.50266796 1.491123 1.7723854
0.48026094 1.4975381 1.7508047
0.44703206 1.508114 1.7522113
0.61936599 1.4642642 1.8651863
0.42387289 1.511463 1.742967
0.43941659 1.489697 1.7488053
0.43525407 1.4914048 1.7516354
0.4323222 1.4918613 1.7531248
0.37995467 1.5141094 1.711863
0.45454872 1.4525084 1.8005705
0.48652238 1.4320346 1.8104553
0.35515195 1.5117686 1.7124158
0.39944273 1.482111 1.7257981
0.42233828 1.4626964 1.7399036
0.45432448 1.4432625 1.7996869
0.3666057 1.4883376 1.7446917
0.68030083 1.3354701 1.9633673
0.44411361 1.4442214 1.795922
0.36291566 1.4881567 1.7467842
0.72525871 1.3188689 2.0578241
0.30875626 1.5213864 1.6923237
0.34112749 1.470499 1.8572185
0.67974132 1.3381724 1.9599236
0.42681006 1.446745 1.7945454
0.42904788 1.4448813 1.7937691
0.42776945 1.4467278 1.7791559
0.42735022 1.444603 1.7812272
0.41295955 1.4496014 1.7695421
0.3893559 1.4539654 1.7662079
0.66612577 1.0078859 2.0121555
0.38732955 1.4567027 1.7799222
0.42459604 1.4492478 1.7270591
0.37983605 1.4447608 1.8154764
0.69147462 1.0165316 2.0379963
0.3464393 1.4576215 1.7498516
0.81409663 1.2524706 2.0556955
0.30417678 1.4650806 1.7653519
0.60232913 1.3398532 1.9595143
0.80989081 1.2407016 2.0997419
0.64201319 1.3179051 1.9809147
0.67313057 1.3090186 1.9921242
0.35542709 1.319714 1.7812569
0.41532582 1.4620066 1.7700775
0.69406259 1.3045484 2.0092313
0.58059406 1.3326286 1.9548481
0.71324682 1.3282127 2.0698063
0.56081265 1.3190203 1.9861194
0.58471072 1.3193071 1.9545784
0.26179373 1.3504138 1.7638968
0.53947461 1.3236187 1.9619788
0.56037134 1.3279066 1.9341558
0.46623638 1.4185849 1.853563
0.55898422 1.3118855 1.9603
0.5343613 1.3150667 1.9525505
0.65542251 1.2616066 2.0302908
0.65851688 1.2571607 2.0310349
0.71206111 1.0884792 2.135082
0.64511132 1.2509599 2.061415
0.68049502 1.0925559 2.1474774
0.5601303 1.0909039 2.0319138
0.66874188 1.0966223 2.1233814
0.66145462 1.2396845 2.0480034
0.55061191 1.0893385 2.0445557
0.37407658 1.435973 1.8076916
0.43325502 1.4009109 1.8625627
0.65709043 1.2222174 2.1038511
0.67233169 1.1032574 2.0984294
0.61798894 1.2280042 2.1313334
0.3355394 1.4368427 1.785291
0.70925063 1.1213009 2.1194704
0.72519052 1.4240659 1.8989465
0.55185097 1.2626289 2.0124874
0.29974279 1.4129306 1.8992527
0.65393901 1.2191737 2.0950124
0.60982794 1.1169244 2.0761771
0.85240901 1.2111521 2.1544452
0.29573545 1.4411167 1.7936476
0.31603959 1.4321785 1.8253193
0.84287733 1.1970497 2.2063465
0.63500547 1.2145003 2.1073215
0.36455148 1.4222356 1.8108546
0.58104634 1.117972 2.0939612
0.22030696 1.4129287 1.8539231
0.2394163 1.4497535 1.7605809
0.20693879 1.4096605 1.8477527
0.20373504 1.4502547 1.789382
0.53771693 1.2545019 2.0179989
0.53537309 1.1404865 2.0690358
0.81688869 1.1690799 2.2536926
0.82769382 1.1803867 2.2055581
0.83306915 1.1746001 2.2258692
0.82702327 1.1743808 2.2434833
0.49401864 1.1430907 2.0492394
0.54382229 1.2057712 2.0889099
0.27089402 1.3564014 1.9096342
0.29904374 1.3602401 1.8977848
0.80301982 1.5177915 1.8227935
0.87273252 1.3936781 1.8713137
0.76965249 1.4990821 1.8524287
0.63957727 1.5387753 1.7901514
0.93523628 1.3909589 1.9362251
1.0138417 1.4085665 1.8888166
0.2049343 1.361093 1.7647564
0.20445539 1.3627952 1.764187
0.37013844 1.4176387 1.8463922
0.34760246 1.4066714 1.8523878
0.27881819 1.3480972 1.8852853
0.59397757 1.2700119 2.0183873
0.14983058 1.3927174 1.8161788
0.32787684 1.3269563 1.9075642
0.52559596 1.3285369 1.9414909
0.43011963 1.4521116 1.7864808
0.69004208 1.6138566 1.7013935
0.34153464 1.5191501 1.6973684
0.31356809 1.4910593 1.7213991
0.51447356 1.3290613 1.9467213
0.94006956 1.2344321 2.0828507
0.88828063 1.4758499 1.7995174
0.65139413 1.5383652 1.7825463
0.26234189 1.3496733 1.7474306
0.90547997 1.3938891 1.9132061
0.91474432 1.4150517 1.8702381
