# .PCD v0.7 - Point Cloud Data file format
VERSION 0.7
FIELDS x y z
SIZE 4 4 4
TYPE F F F
COUNT 1 1 1
WIDTH 229
HEIGHT 1
VIEWPOINT 0 0 0 1 0 0 0
POINTS 229
DATA ascii
1.323524 1.311916 2.067924
1.4146656 1.2967292 2.160974
1.3652648 1.1893495 2.2964897
1.410501 1.2787323 2.1488807
1.4658637 1.0761449 2.426158
1.6767861 1.3434837 2.2045412
1.3429067 1.3062863 2.078553
1.4146219 1.277076 2.1483955
1.1494063 1.3210484 2.0471199
1.324096 0.99158978 2.3603542
1.3332921 1.1064054 2.3570318
1.383478 1.2921962 2.1145148
1.3307719 1.3882385 2.0009296
1.3058524 1.4766757 1.8899616
1.1818957 1.5048652 1.7997582
1.1784536 1.5060638 1.8009528
1.0869207 1.4091116 1.8653812
1.146618 1.4596852 1.8338224
1.0929999 1.3735973 1.8820057
0.87471861 1.4556187 1.748664
0.82049358 1.4920599 1.6213452
0.81428492 1.5247377 1.6429809
0.8221364 1.4590062 1.7253113
0.80089837 1.4569147 1.7338672
1.5724088 1.3748983 2.1423149
1.0702287 1.3692719 1.9067643
0.86950493 1.448289 1.7598557
1.3777325 1.3660129 2.0430574
1.3369058 1.1658233 2.1046951
1.325792 1.1548934 2.2838531
1.0909822 1.3728739 1.8827496
1.3730851 1.0573753 2.4074633
1.6928921 1.3322028 2.2238042
0.79705918 1.4274709 1.7326639
1.5970423 1.3753707 2.1035929
1.2985059 0.99878418 2.3365092
1.6908513 1.3326632 2.2288058
1.7076219 1.3568295 2.2247522
1.6880785 1.3343375 2.2285607
1.5411108 1.1668785 2.3779933
1.4889642 1.1607878 2.3187451
1.3224733 1.1663665 2.1147673
1.2892836 1.0190395 2.3268054
1.2247974 1.2370687 1.9953103
1.3049017 1.333397 2.0196738
1.2837021 1.4154817 1.9297924
1.1735311 1.2671996 2.1068757
1.1449289 1.4390022 1.8429537
0.71196681 1.3625562 1.8099494
1.6778752 1.3069811 2.2005658
1.4370389 1.4259855 2.0197163
1.4199511 1.3143042 2.1044405
1.6456774 1.4157796 2.0896556
1.6322813 1.3933336 2.0745277
1.1651517 1.2247312 2.1783276
0.68988043 1.3269892 1.8004178
1.2792041 1.4119376 1.9367365
1.5990053 1.3709778 2.1488719
1.3576856 1.2901921 2.1234114
1.6141196 1.3818102 2.1440537
1.6560826 1.4429046 2.0755222
1.3304543 1.3082927 2.0859621
1.1781082 1.4391826 1.852078
1.3111675 1.1198825 2.3324852
1.5448613 1.2218181 2.3341458
1.3475771 1.4029115 1.9709256
1.4483442 1.1903934 2.2681811
1.6235793 1.4012132 2.0716145
1.586153 1.3756155 2.1393521
1.4508647 1.3353482 2.1039639
1.3590602 0.94314855 2.3675876
1.3641247 1.3342566 2.0933173
1.0701612 1.3629256 1.9032942
1.3366542 1.3888097 1.9764928
1.1210036 1.4039184 1.8791558
1.4714438 1.0782033 2.4237802
1.3329788 1.2846718 2.1163659
1.1666312 1.2654327 2.1201985
1.446661 1.1864184 2.2783132
1.5831852 1.3794223 2.1124361
1.2924211 1.1565633 2.1704161
1.3147525 1.0829424 2.4100394
1.2850254 1.1345116 2.3554249
1.3894849 1.1740057 2.2749534
1.3531923 1.1511455 2.2992766
1.6181582 1.4000057 2.0884428
1.1519877 1.2653389 2.1128447
1.4782683 1.347805 2.0744715
1.3364251 1.1555331 2.3041961
1.6930827 1.3225446 2.1963899
1.3850845 1.2048674 2.2443988
1.3986208 1.1618305 2.331382
1.1959955 1.2161846 2.1704485
1.6995332 1.3379824 2.1882424
1.6595495 1.3945224 2.0940733
1.3939378 1.3207717 2.1156337
1.4426628 1.1837958 2.2742245
1.2809966 1.2549238 2.19519
1.4552257 1.3759055 2.116292
1.7011869 1.3344091 2.2223184
1.4263492 1.3650256 2.0562568
1.3527842 1.3863798 2.0061669
1.6336092 1.3916756 2.0804279
1.3267062 1.3877304 1.9837884
1.615635 1.4000742 2.087543
1.2649648 1.3530858 2.1174126
1.6662582 1.4388995 2.0728154
1.3795022 1.3169738 2.0177271
1.5759255 1.3822712 2.116936
1.2564809 1.3498782 2.0186608
1.6279097 1.3983836 2.0695498
1.4436699 1.1875061 2.2802987
1.3778112 1.196665 2.2683964
1.4300312 1.1849027 2.2544794
1.6502298 1.4352422 2.0490153
1.6507559 1.4305145 2.0481434
1.6804626 1.588082 1.9007453
1.4187979 1.1700053 2.2788517
1.398246 1.1762081 2.2641678
1.6714073 1.4374311 2.0643241
1.3060663 1.3129951 2.0795443
1.6549742 1.4483434 2.0695095
1.2763807 1.3183225 2.0467107
1.6645089 1.437551 2.0492384
1.2055496 1.3028471 2.1446083
1.1438649 1.3120766 2.0777156
1.1622198 1.249216 2.1480575
1.6086894 1.3842592 2.1491501
1.2592821 1.492981 1.9078802
1.2562531 1.4095255 1.9714451
1.3445065 1.3554025 1.9787467
1.3922092 1.2270931 2.2418537
1.2836107 1.4026539 1.9573967
1.1816181 1.2119486 2.0690837
1.2694929 1.2041465 2.0371439
1.2558513 1.355621 2.0019662
1.3119794 1.3951989 1.9714684
1.1904509 1.4328468 1.8556887
1.2126952 1.4216492 1.8641974
1.1829535 1.3810614 1.9100155
1.2030033 1.4012239 1.8623989
1.0874187 1.4244261 1.8719076
1.1486536 1.2600906 1.9874468
1.1486015 1.2618234 1.9867793
1.3095945 1.2883003 2.1175227
1.1115083 1.4213215 1.8586844
1.0885633 1.4243625 1.8695252
1.2883896 1.2965252 2.1151206
1.105201 1.4043193 1.8675381
1.3303109 1.2817962 2.088964
1.0667434 1.3887161 1.8885862
1.3759401 1.3241956 2.0912426
1.2795364 1.1844513 2.1066008
1.2101756 1.3166078 2.0330379
0.99522942 1.2880486 1.8327469
1.148708 1.3299897 2.0363531
1.1482048 1.3304788 2.0408874
1.1568108 1.3255522 2.0396636
1.1228952 1.3267385 2.028657
1.0990939 1.3241955 2.0340769
1.1379496 1.3235223 2.0217991
1.1408209 1.3209921 2.0220122
1.1350726 1.2701354 2.1355028
1.3959874 1.3777519 2.0405407
1.1810615 1.2409937 2.1243408
1.0856502 1.3003198 2.0205066
1.0526649 1.3792919 1.8904622
1.0318073 1.3734202 1.9149151
0.70002276 1.3633345 1.8143047
0.72463375 1.3257933 1.7820191
1.200833 1.2152138 2.0480762
1.3825809 1.0859572 2.3849897
1.2575872 1.3586016 1.9862312
1.2600765 1.3933616 1.943769
1.2203611 1.2210721 2.0051041
1.1718647 1.2500349 2.0039015
1.1427063 1.460374 1.8400015
1.2117229 1.4925902 1.809476
1.1771619 1.5071335 1.8064435
1.1807828 1.5070986 1.7933134
1.165531 1.4157113 1.8703946
1.2566549 1.2901549 2.1347654
1.2571017 1.3070806 2.0956228
1.1578307 1.388166 1.9018505
1.1400813 1.4077863 1.8680613
1.1554204 1.4063194 1.8520507
1.1980214 1.305096 2.0539551
1.1431137 1.3314258 2.0474083
1.3070741 1.1545899 2.3017275
1.3185874 1.1579353 2.2854972
1.2049199 1.3227179 2.0227375
1.1862947 1.2767472 2.1335492
1.0513183 1.2736733 1.8318809
1.0954262 1.3309793 2.0381858
1.3950689 1.1903877 2.2511511
1.2998207 1.4793952 1.8923739
1.4270099 1.3075774 2.1650765
0.89598095 1.4569607 1.7397282
1.0764086 1.3778478 1.8995736
0.81135905 1.5242765 1.6378314
0.77217704 1.5285275 1.60079
0.82495481 1.5114355 1.6045413
0.77705437 1.4666787 1.7351772
0.73975211 1.4131184 1.6970148
0.7251147 1.4472197 1.7170473
0.71307439 1.4448352 1.7246743
0.79620081 1.4391757 1.7102194
1.2915598 1.483543 1.8919429
1.3076878 1.3314409 2.0201721
1.2899162 1.3437537 1.9588683
1.1485741 1.3558686 1.9248537
1.1904854 1.3034723 2.0664017
1.0060817 1.2872249 1.8454579
1.0340242 1.2891099 1.8370932
0.81215286 1.4989763 1.6223584
0.89236963 1.428411 1.6404861
0.87791163 1.4283059 1.7056502
0.88586485 1.4125397 1.7058576
0.66007739 1.3446289 1.8202744
0.67748082 1.3419826 1.8183764
1.3032157 1.4768764 1.8907659
0.82274622 1.5173236 1.6054759
1.1671975 1.258448 2.1134272
1.2064987 1.2405967 1.9878465
1.2896323 1.1966778 2.0592289
1.2832364 1.1914567 2.0766404
1.5912666 1.2635816 2.2560835
1.3810302 1.2059796 2.2448885
0.86299479 1.4343055 1.6383117
