# .PCD v0.7 - Point Cloud Data file format
VERSION 0.7
FIELDS x y z
SIZE 4 4 4
TYPE F F F
COUNT 1 1 1
WIDTH 227
HEIGHT 1
VIEWPOINT 0 0 0 1 0 0 0
POINTS 227
DATA ascii
1.1264684 0.92518026 1.8881093
0.52844626 0.90095866 1.9838191
1.0729374 0.80719709 2.0587976
0.70355684 1.0641102 1.8200827
1.0864886 0.85823667 1.9704157
0.78783488 0.79232299 2.0783958
0.56486839 0.72875363 2.1791883
0.19160096 0.92774981 1.9715065
1.2306079 0.67794871 2.3152542
1.2241352 0.67657465 2.3172781
0.47845611 0.64224869 2.2060602
1.2259669 0.90621352 2.0098681
1.3480556 0.9176718 1.9411708
0.52952754 0.76005644 2.1600218
1.0178763 0.88038313 1.9476509
1.1226022 0.98908699 1.9237816
1.0124745 0.82299471 2.022305
0.70922899 1.0011582 1.8932812
0.71963364 0.99882871 1.8964542
0.57336527 0.98615444 1.9188263
0.22457249 0.84714586 2.120065
0.17560019 1.0755365 1.7765974
-0.24556996 0.98767936 1.9097141
-0.1851279 1.078858 1.8042306
1.2748867 0.80526417 2.1265724
1.1719005 0.83624119 2.0844738
0.59111595 0.47216383 2.1456618
0.67116576 0.70614803 2.2373586
0.45659074 0.64928466 2.2288771
1.1794667 0.85550195 2.0621607
0.89082122 0.83848017 2.0044534
1.2229605 0.67593914 2.3179693
0.65164888 1.4624766 1.5789574
0.5910331 1.2798243 1.5939503
1.0168339 0.88203669 1.9490408
0.13756868 0.99379408 1.8451004
0.99243093 1.1106954 1.79309
1.0248598 0.94734466 1.8621831
1.067099 0.65452361 2.3420262
1.077469 0.68022162 2.3374088
0.93535513 0.99856144 1.8777062
0.18615109 1.1236187 1.7344716
0.18820441 1.1220458 1.7333398
0.081592806 0.89313197 1.8475647
0.081888363 0.89138776 1.8492175
1.0555168 1.1111054 1.7918291
-0.2581847 0.86637133 1.747521
-0.19689606 1.049536 1.8035135
0.79448217 0.96378636 1.9455113
0.64604402 1.3049903 1.5489933
0.60898656 0.7873745 2.1279042
1.0052382 1.1395804 1.8012154
0.7134766 1.0662425 1.8185633
0.64057142 1.307845 1.5496495
0.43858689 0.92765504 1.9458449
1.020237 0.87985551 1.945213
1.0068802 1.1062726 1.7652818
0.78887391 0.9538027 1.9852427
-0.25736922 0.86736166 1.7454863
0.94730353 0.83826858 2.0020421
1.1827742 0.86313075 2.0673871
1.35279 0.92070681 1.9425029
0.70932698 0.79328156 2.0993056
0.95776975 1.1368488 1.7503288
0.43930802 0.78792536 1.9823742
0.75258625 0.53821158 2.2941682
1.053008 1.1148348 1.822969
1.2286211 0.8645438 2.0620403
0.20409627 0.99817359 1.840198
0.62275493 0.7261259 2.1876636
0.18432398 0.99285126 1.8992639
0.98423892 1.0750103 1.7884257
0.57656318 0.60628808 2.2456686
0.56574357 0.7004531 2.2501051
0.46633077 0.63283169 2.2085588
0.37362257 0.83409703 1.9896926
0.13458894 0.99471474 1.8471501
-0.24490342 0.83994037 1.7793764
-0.14554809 0.75459474 1.8324853
-0.23054934 0.95413041 1.9619613
0.79447645 0.96033633 1.9466904
1.1989579 0.72895443 2.2821164
1.043985 0.89762247 1.9252642
1.1067224 0.85578781 2.0974967
1.3551627 0.93804699 1.9509518
0.42189038 0.91266125 1.9838866
0.38163263 0.95550615 1.8981458
0.57568973 0.4565686 2.1664636
0.24388526 1.0593388 1.8021733
0.44506443 0.7953229 2.0207212
1.1284466 0.92852122 1.898892
0.73376179 0.79439938 2.1489606
0.92272002 0.67853761 2.2888982
0.97595912 1.0854609 1.8006488
0.73732144 0.55629516 2.2994494
0.53672796 0.55845225 2.1843257
0.82167751 0.6470812 2.3987038
0.18137577 0.94884455 2.0002418
-0.20499399 1.1217856 1.7740722
-0.27651525 0.74243492 1.9041997
1.0433288 0.8773303 1.9565377
0.53354216 0.85431749 2.0960357
0.41491202 0.93360776 1.9420707
1.2995703 0.78671986 2.1483934
-0.21000457 0.76383877 1.8502523
-0.28975245 0.9521631 1.9247968
-0.29288 0.95520353 1.9319049
-0.23128828 0.95593715 1.9616597
0.76861298 0.55704117 2.3097312
0.73417109 0.55310899 2.3007617
0.98340964 1.001865 1.9103727
0.99296027 1.1327573 1.8038325
0.57990301 1.6827941 2.039474
1.1306356 0.9638418 1.8964541
0.62401927 0.72825438 2.1873455
1.0499357 1.1132205 1.7955732
1.052056 1.1139016 1.7951115
0.65846074 1.4000415 1.5534856
1.3008754 0.98200405 1.9484156
0.44195524 0.92861491 1.9422755
0.42463142 1.0023102 1.857005
1.295475 0.94146115 1.9360214
0.33686289 1.0942979 1.777176
1.2744516 0.97218883 1.9459535
0.57914013 1.6851289 2.0401118
0.97363234 0.81731868 2.0300224
1.0011265 0.6430189 2.2081525
0.69017094 1.206635 1.6717572
1.3559843 0.94012398 1.9413218
0.93345618 0.89625621 1.8982226
0.68141139 1.3738115 1.609027
0.7311793 0.43070543 2.1931517
1.2663101 0.83808511 2.0890198
0.74417669 0.88221067 2.0488167
0.79417861 0.93913543 1.9206759
0.94520652 0.68116814 2.2440391
0.51917493 0.93410593 1.9447986
0.66143119 0.48392063 2.222188
0.68694264 0.69089675 2.2914081
0.94167364 0.83211225 2.007597
0.92139256 0.83990622 1.954247
0.81046224 0.9837898 1.9302257
1.0739998 0.80006385 2.070071
0.3535549 1.0200323 1.8610262
1.219993 0.92000717 2.0065963
1.0272779 0.94587481 1.856111
0.25059202 0.98631287 1.86129
0.91937822 0.90173727 1.9206196
0.94717175 1.1423843 1.7623656
1.2511591 0.88901997 2.0247524
0.33458906 1.0948943 1.7726331
0.53739613 0.83096522 2.0923564
0.66310966 1.3933822 1.5921552
0.83046669 1.1681006 1.7219939
1.2186971 0.85407329 2.0575144
1.0460895 0.89615208 1.9226677
-0.21310183 0.78452766 1.8455317
0.17080367 1.0768765 1.7792147
0.7554822 0.55939007 2.3233991
1.0713111 0.8864404 1.8683805
1.3375767 0.7875644 2.1514096
0.36476454 0.97438306 1.8776709
0.66741484 0.57699949 2.2735157
1.1396279 0.92900306 1.8821104
-0.29686379 0.74429423 1.9126345
1.1064819 0.85690784 1.9140116
0.71210742 0.80202639 2.0912032
0.80672848 0.74020064 2.1746619
0.82275623 0.97732317 1.9174566
0.8999452 0.84502971 1.990441
1.01791 0.79134446 2.1203396
0.4541727 1.3221983 1.5909387
1.005284 0.64424896 2.1997871
1.0778986 0.68457466 2.3343501
0.91870886 0.89822561 1.9267664
0.70120943 0.81266814 2.0750957
0.75849032 0.72867322 2.2192051
1.1537062 0.67102128 2.3218865
0.70486385 1.0141501 1.8315442
0.94030201 1.0507703 1.8645746
0.54390806 0.96020365 1.9108088
0.69179124 0.81402326 2.0897434
0.74892974 0.46819335 2.2356703
0.34579733 1.0208611 1.8389976
0.43687075 0.92784363 1.941357
0.44172886 0.78881717 1.9842207
0.58037657 0.47325757 2.1547279
1.0854324 0.88989675 1.947873
0.82380974 0.64648634 2.3950388
0.83056349 0.65046293 2.3721237
1.1401643 0.92826295 1.8841313
1.1978223 0.82647139 2.106915
0.28303236 0.88339406 2.0461702
0.30622602 0.86961842 2.0861409
0.1417723 0.99562865 1.8431332
1.1449279 0.92199737 1.8599435
1.2642344 0.81212991 2.1131773
0.62347174 0.49609682 2.1884146
0.68744582 0.75194991 2.1666179
1.1776905 0.85677469 2.0627348
1.0558627 0.86907142 1.9769713
1.0187899 0.8767128 1.9474908
0.70444459 1.0606253 1.8146123
0.76589012 0.55964386 2.3114524
0.83129686 0.97545725 1.9501743
0.51483464 0.90066957 2.0014613
0.57264972 0.59230793 2.3040731
0.63327628 0.95075285 2.0205927
1.2652416 0.72783488 2.2688947
0.50355029 0.5255959 2.142354
0.65656257 0.49549341 2.2001355
0.54951173 0.97387195 1.8989848
0.67957842 0.812985 2.0900457
-0.18545255 1.0185509 1.7889692
-0.34995604 0.93897629 1.9130113
0.13434136 0.86033738 2.0573545
0.59403116 0.46319646 2.1416402
-0.21911997 0.98816478 1.8877342
1.3553928 0.95627064 1.9528278
1.2533429 0.81120211 2.1350999
0.92420012 1.0020412 1.8953772
-0.2978628 1.038206 1.8049935
-0.36355549 0.72488713 1.7566611
1.2300563 0.60253978 2.2714877
-0.33921275 0.93407077 1.9026788
0.57092261 0.79956198 2.1086721
1.222486 0.91923887 2.0044465
