# .PCD v0.7 - Point Cloud Data file format
VERSION 0.7
FIELDS x y z
SIZE 4 4 4
TYPE F F F
COUNT 1 1 1
WIDTH 215
HEIGHT 1
VIEWPOINT 0 0 0 1 0 0 0
POINTS 215
DATA ascii
0.37307996 1.0346562 1.9277869
0.53059709 1.2104712 1.7593553
0.93032628 1.0157964 1.8774188
1.1495148 0.88166636 2.1480515
0.9587118 1.0130326 2.0007505
0.035350546 1.047737 1.9378786
1.0533034 0.98830092 1.9903239
1.0970296 1.0516678 1.9232979
0.5584197 0.92091078 2.041405
0.46004575 0.60482991 2.0709486
1.070065 1.0681945 1.909668
0.85955811 1.0358158 1.8598839
0.4081462 1.4045901 1.5315678
0.95813102 1.149555 1.8334155
0.66590482 1.0836309 1.8655289
0.55416912 1.1433566 1.8321064
0.41027835 1.1238203 1.8632411
0.80867273 0.82148987 2.1593449
0.081062198 0.96357059 2.0809877
0.95588416 0.7940222 2.2507195
-0.027354456 1.1149708 1.8154989
0.92864674 0.95385116 1.9677709
1.1547103 0.99517816 1.9796646
1.0544562 0.99186182 1.9870983
0.53955674 0.83746523 2.1644373
0.32730147 0.77199757 2.1675184
1.029101 1.0138308 1.9629124
1.0098995 0.99959904 2.023349
1.1196828 1.133423 1.8558947
0.95829231 1.011017 2.0048265
1.0258003 0.99434596 1.979064
1.0961837 0.82763743 2.2086859
0.77060318 1.3037168 1.6892956
0.39518154 1.428865 1.5488871
0.87031281 1.2708826 1.7197764
0.85832262 1.1058824 1.7766584
0.95594096 0.82819659 2.2288144
0.76805913 1.1527519 1.7997012
-0.080547363 1.011003 1.8215517
0.87784433 1.2730832 1.7105526
0.79019988 0.98324174 1.9253044
1.1906217 1.0886105 1.8297867
0.80971754 1.2714872 1.6784114
0.54030514 1.2130672 1.7572883
0.27995875 1.058848 1.8965997
0.86177462 1.0354707 1.8572834
0.79438776 0.98895818 1.9170654
0.80463487 0.83573812 2.1805425
0.56717712 0.66898316 2.3268249
0.77666706 1.2961134 1.6763147
0.83480728 1.0504106 1.8396535
0.23593868 0.95902538 1.9295394
0.63107353 0.67124462 2.2097654
0.87721747 1.2756417 1.7419047
0.93224227 1.0258421 1.8774142
0.92833441 0.95330524 1.9713787
0.036496978 1.1230526 1.8087127
0.64159042 0.69212681 2.2259538
0.56323552 0.72674525 2.2025123
0.45780605 1.5497348 1.5503252
-0.36433557 0.86976391 1.8369414
-0.3030009 0.86546499 1.8142897
-0.38724092 1.0567453 1.9561318
0.64658403 1.1307356 1.8607533
0.63358009 1.1063402 1.8760434
1.1930244 1.1098235 1.8494958
0.95885068 1.0098699 2.0027831
0.77121365 1.1024144 1.7802018
0.96473783 1.0901694 1.8060008
0.44356099 0.83941931 2.1670783
0.70244676 0.77928603 2.3136251
0.18490119 1.0509126 1.9260229
0.64857233 1.0674635 1.8491646
0.93167698 1.0141952 1.8780943
-0.42845088 0.84540218 1.8936812
0.094212882 1.0909863 1.8344535
0.4192175 0.9318524 2.0513904
1.1571776 0.9472363 2.0387645
-0.44860825 1.0535699 1.9227545
0.64731973 0.69018722 2.2249596
0.61255062 0.68512547 2.2180569
1.1652272 1.0148401 1.964731
0.43755507 0.83586353 2.172852
0.35910052 0.87547302 2.1452212
0.87243891 1.274834 1.7147186
0.8744961 1.2756187 1.7141485
1.137768 1.1491009 1.8464037
1.111649 1.1382785 1.845266
-0.069432683 1.145891 1.8256185
0.823286 0.96818721 1.9425303
1.1939132 1.1098286 1.8342938
0.77154481 1.0498176 1.8165313
0.59314829 1.0227463 1.9782236
0.81422609 0.82375765 2.1527832
0.35999036 1.0686961 1.8906755
1.1150845 0.9706471 2.0142007
0.88425517 1.0533181 1.8334535
0.63276947 0.67505753 2.2023804
0.95128781 0.79395419 2.2504933
0.74313635 0.9956038 1.9133444
0.96554279 1.0929769 1.8089634
0.9314512 0.95367318 1.9683934
0.32075959 1.1855062 1.820071
0.93361968 1.0275971 1.8687552
0.75032037 0.99322098 1.9012113
0.7893784 0.98238611 1.9227371
0.79502565 0.99202931 1.815339
0.76538324 0.99113715 1.8711044
0.80323279 0.80697936 2.1377785
1.0293009 0.81873983 2.217643
0.3681356 1.0556225 1.9535528
0.31348014 1.0767348 1.9110123
0.27886501 1.0886719 1.8697375
0.77337486 1.1990775 1.7812709
0.21180704 1.1425205 1.823401
0.29012728 1.0560324 1.8916763
0.57273424 0.9143405 2.0754945
0.24957031 1.0661337 1.8983685
0.29648435 0.92330146 1.9627799
0.56458998 0.62698549 2.1122804
0.62895739 0.66784322 2.2107196
0.86039758 1.1047227 1.7703953
0.97395074 1.0926273 1.7952999
0.58375448 0.85764813 2.1965852
1.1369709 1.1057678 1.8043358
0.75874519 1.0539391 1.8399628
0.7610994 1.1569226 1.8151196
1.0968308 1.0515729 1.9222819
0.15839851 1.2273921 1.7365906
0.64665627 1.3229594 1.6572857
1.0679727 1.0142035 1.9557353
-0.082635649 1.0157968 1.8220043
0.88544369 1.0535927 1.8337549
0.99904799 0.98943704 2.0025043
0.71783429 0.99225664 1.9656583
1.0038033 0.98462927 1.9830518
0.41294059 1.0059031 2.0479481
0.096799143 1.1101466 1.8187732
0.23969398 0.95870721 1.9269525
-0.0037725915 1.2023251 1.7528938
0.47293136 0.91636401 2.0424738
0.37601849 0.60504365 2.0466766
0.52433014 0.86684144 2.1373885
0.5247829 0.84688884 2.167269
0.56070185 0.83958918 2.1364541
0.61951375 0.68936801 2.2111804
0.63502163 0.69151795 2.2395105
0.33600935 0.66673362 2.0708995
0.55417919 0.72270912 2.2243087
0.16898084 1.0541562 1.9427686
0.39291316 0.95978683 2.0306792
0.70983684 0.77622277 2.3034139
0.39313427 0.74849117 2.1585689
0.62392247 0.86070591 2.1427231
0.56257868 0.72216898 2.2076337
1.0534617 1.0354302 1.9317497
0.59448934 1.0264955 1.9577043
0.84770155 0.9178344 2.0535741
0.71764815 0.95233089 2.0032358
0.64044577 1.1093855 1.8631766
0.76613075 1.0161413 1.8787674
1.1211562 1.1287378 1.854467
0.94665134 1.0172267 1.8198482
0.94155711 0.80158901 2.292845
0.94642812 0.7935257 2.2561114
0.60248315 0.56955618 2.1120431
0.74614573 0.99412346 1.9087507
0.87432802 0.94102734 2.0288405
0.87271625 0.79091227 2.1034815
0.95226389 0.82963443 2.2345502
0.75861591 1.0501951 1.8460069
0.53462082 1.1602483 1.7688707
1.0850537 1.0091327 1.968742
0.77007371 1.205539 1.7882055
0.34654498 1.1173707 1.8372597
0.54626942 0.95107311 2.019866
0.20448759 1.1610868 1.7974074
0.6263985 0.60316747 2.1490896
0.2087965 1.1477699 1.7997013
0.27794868 1.0591173 1.8922397
0.29107559 0.91903681 1.9295813
0.45287675 0.60392994 2.0792534
0.92655689 1.048134 1.8561647
0.70944715 0.78393966 2.2866764
0.97547328 1.0909044 1.7905263
0.03724565 1.0678207 1.953614
0.82572061 1.0954239 1.7909447
1.0514582 0.98408628 2.0053163
1.112408 1.0153569 1.9683917
0.97890019 1.0856709 1.7658713
1.118652 0.97233051 2.0068188
0.84831882 0.91692924 2.0500939
1.0842781 1.0085701 1.960565
0.57454586 0.93891132 2.0080163
0.9572441 1.1471519 1.8313625
1.0273169 1.0150079 1.9636446
0.89978606 1.0251111 1.8862985
0.99650282 0.98623055 2.0003722
1.0054404 0.99589795 1.9671937
0.78556091 0.99143636 1.901917
0.62262994 0.94637281 2.1108859
0.66992205 1.1228607 1.8777344
0.36066481 1.0331974 1.9462352
0.79950494 1.0619261 1.8288218
0.35788122 0.76968902 2.1580005
0.47802484 1.0875108 1.959631
0.52603549 1.0929837 1.8866568
0.35453874 1.1018361 1.8579398
0.40728381 0.68555224 2.1152718
1.1381342 1.144611 1.8328136
1.0292089 0.99459708 1.9780918
0.57385308 0.97807014 2.051285
0.20809083 1.1442176 1.8225139
0.40824062 0.95999634 2.035934
-9.8783603e-05 0.9871859 1.9943101
