# .PCD v0.7 - Point Cloud Data file format
VERSION 0.7
FIELDS x y z
SIZE 4 4 4
TYPE F F F
COUNT 1 1 1
WIDTH 201
HEIGHT 1
VIEWPOINT 0 0 0 1 0 0 0
POINTS 201
DATA ascii
2.9643767 1.3581048 2.7108641
3.4008532 1.2289193 3.1001024
3.3991857 1.2647216 3.1119409
3.4003868 1.2507459 3.1037629
3.4011531 1.2504305 3.1042552
3.0995858 1.2050238 2.8696861
3.2636437 0.96510178 2.8293493
2.7667353 1.0442387 2.9657688
2.7081337 1.0106199 2.9758923
2.7381084 1.1724921 2.6822464
2.5390441 1.1607208 2.6597025
2.3553884 1.001318 2.6604741
2.3897631 1.0885729 2.6703873
3.091697 1.1554453 3.0940506
2.3367212 1.0158837 2.6579092
2.7752109 1.186727 2.666311
3.3166237 0.9886561 2.8487353
2.4139178 1.1009116 2.6291878
2.288559 1.0182076 2.714952
2.7118165 1.0193967 2.9888558
2.3665376 1.0520545 2.7346201
3.3254626 0.99351639 2.7889245
3.0813868 1.1155857 3.0125864
3.0724919 1.1455015 2.9828014
3.2842073 0.959813 2.817667
3.3296604 1.2069229 3.0189378
3.1749847 1.0938237 3.1989086
3.3850889 1.1878523 2.8471885
3.0676186 1.1575096 2.984587
3.2665715 1.2273399 3.0685518
3.3234229 1.0725814 2.8527982
3.29462 1.2366493 3.078702
2.7511992 0.95053411 3.0412176
2.7193639 0.98733807 3.0029366
3.3190439 1.1228821 2.8749716
2.6647873 0.9619506 2.9889081
2.5974426 0.97207558 2.973139
3.2716162 1.131888 2.8392665
3.1007419 1.0821079 3.0976696
2.3188889 1.0430553 2.7380939
2.345294 0.99917394 2.7172465
3.2925618 1.2429925 3.0880263
3.2123275 1.2363791 3.0643132
3.2341692 1.2126133 3.0657318
3.410327 1.2156761 3.0388622
3.2927587 1.2369891 3.0784328
2.7020602 1.0125624 2.9795389
2.7828922 1.0231775 2.9888394
3.0646369 1.1821021 3.039206
3.2420566 1.1944942 3.1321652
3.04356 1.2466919 2.9238687
3.3459549 1.0383034 2.8251669
3.2811685 1.0065286 2.8520079
3.2515109 1.0048609 2.8429773
3.0777636 1.1395713 2.9337878
3.0485361 1.196967 2.8997366
3.0396748 1.1893572 2.8999918
3.283144 0.96145815 2.8121898
3.3462102 1.2199085 3.0517774
3.2635598 0.96621323 2.8318803
3.0585577 1.2192372 2.9986091
2.708739 0.96320266 3.0324025
3.134244 1.2092963 2.8084707
3.0310178 1.2399848 2.853812
3.3608475 1.1146314 2.8632824
2.7831476 1.2071974 2.7095163
2.5231347 1.0939677 2.7615902
2.5431216 1.0756204 2.7753282
2.9333518 1.3354579 2.5498061
2.4552131 1.0512729 2.7044146
2.53896 1.1609478 2.6537669
2.5251489 1.1749346 2.6033785
2.5630524 1.1438252 2.6295936
2.408582 1.113598 2.6740296
2.3942113 1.1149182 2.6747804
3.2581878 0.96518362 2.7905476
3.3473096 1.2189686 3.0523725
3.3254447 0.99599415 2.7873533
3.2580407 0.97631198 2.8256171
3.3254459 0.99364328 2.7877691
3.3963759 1.2057493 3.0670133
3.3305571 1.0017492 2.7880387
3.3245056 1.076663 2.8550251
2.7389395 0.97639543 3.0071688
3.3119862 1.0394672 2.8594902
3.0895686 1.1473262 3.1189423
3.087678 1.1885512 3.0351424
3.0878284 1.1878245 3.0356128
3.1810143 1.17035 2.7760532
3.1735277 1.1788144 2.7691591
3.0630717 1.1796339 3.0382037
3.0502069 1.1944215 3.024245
3.0761282 1.1421373 2.9357502
3.3631334 1.1303154 2.8505425
3.0122459 1.22745 2.8817446
3.355695 1.0193588 2.8333323
3.2616429 0.95095831 2.8175015
3.1332333 1.2121458 2.8085828
3.1344979 1.2071816 2.8102434
3.3974197 1.27262 3.111078
3.395721 1.2118928 3.0552146
3.3845961 1.232825 3.0944157
3.394383 1.2427351 3.0989788
3.0678639 1.1523161 2.9873986
3.0706525 1.1721956 3.0825658
3.0274851 1.205206 2.8633327
3.0287008 1.2088796 2.8590708
3.0487938 1.2021309 2.8584476
3.0293961 1.2317705 2.8351336
3.0288057 1.2158955 2.8434165
3.0308568 1.2274187 2.8350019
3.079915 1.2470025 2.8478639
3.0731909 1.2415333 2.8666689
3.0531652 1.2301799 2.8596563
3.0992858 1.1592952 2.8948016
3.0857632 1.2279288 2.8339391
3.0382903 1.2285861 2.8590109
3.3321753 0.995785 2.7823627
3.0314252 1.2345848 2.8586843
3.0377808 1.2291191 2.8453743
3.033128 1.2390426 2.8893311
3.0358319 1.2426153 2.8881452
3.0337157 1.2416104 2.8911719
3.0161827 1.2511926 2.8932676
2.9967546 1.2582763 2.7690589
3.018986 1.2565558 2.8923769
2.7556236 1.0450146 2.9778271
2.6526215 0.95826596 2.9730031
2.9500058 1.3317368 2.6441793
2.9800351 1.2898737 2.6740136
2.9816647 1.2863889 2.657352
2.9770882 1.2957171 2.6517541
2.7630377 1.0470438 2.9653261
2.8094509 1.1926932 2.7153838
2.7996659 1.1975118 2.7163203
2.7519732 1.2386858 2.6828628
2.7353969 1.1751091 2.6758583
2.5805433 1.0463094 2.6835806
2.4820867 1.055344 2.7262256
2.39152 1.0407288 2.7424929
3.3813179 1.1842304 2.8823507
3.3894024 1.1949109 2.8591471
3.3900735 1.1891488 2.8573239
3.2906678 1.0971811 2.8465185
3.2724051 1.0929075 2.8333549
3.3364716 1.2228423 3.0608292
3.2444072 1.1987669 3.1042373
3.3193638 1.2525693 3.0446188
3.3370411 0.99665332 2.7725198
3.2488391 1.1740452 2.990046
3.289777 1.2372476 3.0950613
3.2970853 1.2249047 3.0962474
3.2578714 1.1411184 2.8285108
3.2133555 1.2198223 3.0634692
3.0699241 1.1715477 3.0776155
2.7942901 1.1802213 2.6895909
2.9386013 1.3358376 2.5524716
2.9339175 1.3392993 2.5482461
2.9383795 1.331516 2.5554771
2.9062805 1.4575046 2.6623628
2.5088012 1.0899597 2.6645472
2.8913999 1.464933 2.6649952
2.4268937 1.0306085 2.7599361
2.5369937 1.0521988 2.7338216
2.2072973 1.0366604 2.6326597
3.2662477 1.2216572 3.0699179
3.3538013 1.0218712 2.8312001
3.3142996 1.0371376 2.8603306
3.2938817 1.228421 3.0906184
3.2466674 1.2269708 3.0712953
3.079473 1.165544 3.0898159
3.3694499 1.1009957 2.8688176
3.2795832 1.2241261 3.1194234
3.2896128 1.2391424 3.1295321
3.2713549 1.2108612 3.1118777
3.3270092 1.2262602 3.0563707
3.1897261 1.2105733 3.0648801
2.7967777 1.17293 2.7279179
3.1952181 1.0700146 3.1973317
2.7748961 1.1988127 2.7135468
3.1873279 1.2095137 3.0595341
2.5385215 1.0485018 2.6860213
2.5788114 1.0423421 2.6880844
2.8161781 1.1798738 2.6920226
2.4777219 1.0774742 2.6688759
3.2961514 1.2206281 3.0892475
2.7415369 1.1891421 2.6934912
2.9285133 1.3426973 2.5516677
3.054394 1.1559262 3.1051311
2.7875266 1.2083688 2.6454294
2.2171311 1.0326152 2.6307163
2.4055545 1.080809 2.6366816
2.5585485 1.0601505 2.6685138
3.1066122 1.0744345 3.1103969
2.8013656 1.2194467 2.6779234
2.461628 1.1008638 2.6196799
3.3401718 1.0143729 2.8156278
3.2443211 1.220938 3.0726678
3.3458636 1.0058682 2.8240125
3.1888149 1.2008423 2.7667034
2.5690165 1.06721 2.6831577
