# .PCD v0.7 - Point Cloud Data file format
VERSION 0.7
FIELDS x y z
SIZE 4 4 4
TYPE F F F
COUNT 1 1 1
WIDTH 215
HEIGHT 1
VIEWPOINT 0 0 0 1 0 0 0
POINTS 215
DATA ascii
-0.38749245 1.2377802 1.8104876
-0.38650557 1.2371339 1.8099483
-0.29795867 1.437674 1.6201199
0.1419374 1.3042499 1.6377289
-0.32456133 0.96533465 2.0252919
0.12040309 1.095645 1.9387006
0.28976074 1.2939421 1.7193927
-0.29427627 1.06689 2.0191789
0.40939301 1.1416469 1.910154
0.40413412 1.1389606 1.9137607
0.13890341 1.3148913 1.6277174
0.38768578 1.3378085 1.6696751
-0.14791167 1.2599387 1.7840555
-0.14371836 1.0630909 2.0003929
0.13948801 1.441396 1.595472
0.089567468 1.2569294 1.7064943
0.093583293 1.2532325 1.7045995
-0.030680353 1.2117332 1.8227484
-0.24920094 1.3737352 1.6824677
-0.37805226 1.3319856 1.7433766
-0.10244144 1.0503031 2.0002711
0.053809918 1.2411256 1.7468227
0.25933352 1.2946899 1.7208852
-0.20559077 0.82252055 1.9066502
-0.1444232 1.0637077 1.994127
-0.33879784 0.96661818 2.0403864
0.25659013 1.3159379 1.6992728
0.30963618 1.365181 1.6473985
-0.16055989 1.3273747 1.6757349
0.36922002 1.4159449 1.5412909
-0.028744811 1.2454883 1.7228717
0.27068093 1.397732 1.6425015
0.40334141 1.1380816 1.9146882
0.036896057 1.383974 1.5598634
-0.051708467 1.4161518 1.6044621
0.022357224 1.2499307 1.7134802
-0.28944284 1.441753 1.6161075
-0.24692412 1.3741274 1.6845953
-0.20536065 0.81224018 1.9063797
0.11489249 1.102127 1.9516051
-0.23887628 1.0371248 2.0351233
-0.15188718 1.3748698 1.6894816
-0.15745535 1.3485268 1.7060066
0.081934877 1.3364133 1.6101305
-0.12669306 1.1659335 1.9005519
0.054447424 1.0285579 2.1008506
0.14362256 1.302862 1.6380106
-0.4633083 1.1092373 1.8485621
-0.29942435 1.1405208 1.915105
-0.005664899 0.93358552 2.0220728
0.3155815 1.4681052 1.5687128
0.05744851 1.2364404 1.7273967
0.34913683 1.3146609 1.6991192
-0.16138841 1.2580612 1.8102367
0.11964293 1.0922111 1.9218525
0.35721189 1.2855144 1.7282236
-0.45061031 1.1101625 1.8192906
-0.030656327 0.93497187 1.9792742
0.05518968 1.2364187 1.7357587
0.14145851 1.3165568 1.6291578
0.021113543 1.2490027 1.711116
0.16936722 1.2407876 1.7309563
-0.25522932 1.3978227 1.639963
0.38524345 1.3092344 1.6968392
-0.17915595 1.2616336 1.7837926
-0.4537988 1.2699119 1.8087857
0.41304785 1.1963094 1.8838912
0.4301644 1.1600912 1.877887
0.34517264 1.4069912 1.5426019
0.0050963215 1.3171301 1.633487
0.13971105 1.3379955 1.6017214
-0.46842748 1.2274847 1.8279966
0.037658557 1.3832482 1.5532476
0.15442732 1.3881854 1.5520061
-0.055560485 1.4189563 1.6212208
0.021415977 1.2527293 1.7175697
-0.039633069 1.2471409 1.7691211
-0.11981701 0.84065527 1.9321324
-0.13063142 1.0694939 1.9623309
0.14346583 1.4233553 1.5767118
-0.33346573 1.164461 1.9020954
0.059722021 1.0268266 2.0891268
-0.3454715 1.0568515 2.0803668
0.15281197 1.3888912 1.5605268
0.44315758 1.2764784 1.734133
-0.1805227 1.2614769 1.7850969
0.15114622 1.2490822 1.7040658
-0.456646 1.2382407 1.8486466
0.38753027 1.3370361 1.669868
-0.14313325 1.3792981 1.7395107
0.37619844 1.32447 1.6875175
-0.050268136 1.413074 1.5941617
0.26994663 1.3415122 1.6646513
-0.24978496 1.3746539 1.6923031
0.42055011 1.0681053 1.8749694
0.3801524 1.4245822 1.5757033
-0.1652424 1.2623115 1.7901375
-0.025599657 1.207034 1.8037717
-0.040281065 1.325732 1.6407968
-0.016043132 1.2795473 1.6750658
0.15385093 1.3874971 1.5452222
0.30433118 1.4453175 1.5791899
-0.14233443 1.3718507 1.6717973
-0.025386969 1.2542459 1.7075574
-0.035566807 1.3125982 1.6465027
0.13719258 1.3370697 1.5971041
-0.40947786 1.2719679 1.7687351
-0.071504459 1.1034873 1.9545927
0.34020036 1.119645 1.9372491
-0.28467235 1.3884996 1.6259876
0.31249923 1.3197247 1.6924474
-0.21149977 1.2742318 1.8636142
0.261181 1.3183087 1.6778722
-0.030243997 0.84566736 1.9483663
0.15360242 1.3825548 1.5218973
0.11596566 1.1911838 1.8189973
-0.54186136 1.072975 2.0595751
-0.15770678 1.1146156 1.9263109
0.25433192 1.3144712 1.6889031
0.25475174 1.3133689 1.6864231
0.056578085 1.2377877 1.730872
0.2373464 1.2945403 1.7077324
-0.040348444 1.324996 1.6360388
-0.037890825 1.3690615 1.5748765
0.4617126 1.0732129 1.8437546
-0.28573555 1.3888036 1.6231911
-0.058558289 0.81203544 1.9172409
0.35754651 1.1226926 1.911791
-0.31974307 1.150273 1.9180003
-0.22001939 0.82135141 1.9252886
0.17656368 1.1511463 1.9417161
-0.15236005 1.1203443 1.8923775
0.008618379 1.0922573 1.9456421
-0.089985065 1.1649078 1.9351188
-0.34699839 0.86177039 1.9543457
0.0082817916 1.2582331 1.7162383
0.00087956968 1.2793819 1.7099497
-0.12042941 1.1324067 1.9662199
-0.29810876 1.4346517 1.6143147
-0.2180689 0.94303823 2.0399525
-0.038202912 0.92529523 2.0333724
-0.25049001 1.0592647 2.0105364
-0.0081788758 0.93553787 2.0247221
-0.34545502 0.96869123 2.046176
-0.35786599 1.1082947 1.9847862
-0.4520874 1.0582306 2.0595396
-0.2915729 1.0458143 2.052248
-0.25028467 1.3761899 1.6986463
-0.12811795 1.3598387 1.7055773
-0.14514226 1.31417 1.6810713
0.45929015 1.2729721 1.8422021
-0.037256729 1.3164737 1.6376562
-0.17019264 1.1655645 1.8701332
-0.16174896 1.2149163 1.8745198
-0.16756408 1.1469141 1.8903213
0.14973609 1.1659286 1.913154
-0.39411983 1.2334937 1.8305731
-0.0016277379 1.3299084 1.6193844
-0.073025592 1.101272 1.9625472
-0.25814319 0.89706057 1.9562517
-0.34962451 0.94664061 2.0443418
0.0050404249 1.1068882 1.9392307
-0.27266473 1.1593736 1.8932379
0.15070888 1.2486056 1.6980854
0.3117336 1.3444486 1.6479253
-0.24658169 1.1350765 1.9137158
0.10998777 1.3162898 1.6347451
-0.33645895 0.86287868 1.9337016
-0.18205146 1.093685 1.9519734
-0.16723368 0.87754816 2.0027444
-0.2514233 1.0897311 1.9778714
-0.31813934 1.1522348 1.9067502
-0.33351162 1.1059186 2.0006139
-0.26712361 1.0417502 2.0478871
-0.33258462 1.0576618 2.0565481
-0.12614648 1.3322375 1.6935558
0.1230915 0.9423672 1.8123893
0.12169419 0.93936825 1.8206109
0.13648398 1.2229009 1.8015772
-0.28588256 1.3048263 1.8206172
0.11633676 1.1966292 1.8145505
-0.031017952 1.2431326 1.7410053
0.080355823 1.3390903 1.6165483
0.26630327 1.302655 1.706833
-0.05333861 1.2493289 1.8255395
0.15276036 1.0538659 1.9392794
-0.04303984 1.372453 1.5899487
-0.049923066 1.2283052 1.7790123
-0.15778059 1.0989068 1.9305704
-0.21822129 1.0731419 1.9874005
-0.039883092 0.92628455 1.9869013
-0.010288552 0.93091726 2.0338204
-0.26092097 0.89425111 1.9675999
-0.076371245 1.0886322 1.9983382
-0.086151481 0.97261435 1.9701017
0.31353587 1.4639502 1.5551654
0.007458345 1.319996 1.6387786
-0.32779425 1.1082952 1.9821749
-0.48611948 1.225664 1.8519328
-0.021740563 1.2045745 1.7981527
0.11036891 1.0534842 1.8161497
0.12300517 1.0910883 1.8813261
-0.13389164 1.0663505 1.9953464
0.27494159 1.0892856 1.9948264
0.066629827 1.3153192 1.6471353
-0.40412414 1.3161122 1.7298923
0.14720042 1.3008912 1.6317481
0.38738939 1.3373356 1.6669657
0.40928704 1.0693963 1.8613466
-0.26722318 1.4339043 1.6002065
0.26875037 1.3411591 1.6626827
-0.40680879 1.301706 1.7416276
-0.27280822 0.97019643 2.0282311
-0.34487137 1.0609109 2.0611322
-0.32194915 1.1526659 1.9089065
