# .PCD v0.7 - Point Cloud Data file format
VERSION 0.7
FIELDS x y z
SIZE 4 4 4
TYPE F F F
COUNT 1 1 1
WIDTH 231
HEIGHT 1
VIEWPOINT 0 0 0 1 0 0 0
POINTS 231
DATA ascii
0.22079347 1.4165403 1.6750365
-0.26363191 1.0612999 2.0240724
0.5004003 1.3104438 1.8982856
0.26925239 1.4135063 1.7919409
0.36354679 1.405658 1.7652032
0.47349238 1.2494274 1.9585929
0.21822602 1.4274251 1.6651572
0.34948394 1.4931998 1.6869045
-0.076731995 1.3646888 1.8022271
0.14581417 1.4249598 1.67018
0.47752738 1.1800504 1.9070097
0.51667494 1.1856827 1.8531872
0.56290293 1.212954 1.9887582
0.16501229 1.3666748 1.7391646
-0.17323081 1.4801236 1.6978625
-0.30494821 1.4351498 1.7496647
0.18030208 1.1928264 1.9584966
-0.041570596 1.1495503 2.0149312
-0.048489764 1.1516961 2.019269
0.12710305 1.3493133 1.7767973
0.44703522 1.3950678 1.7801003
0.52875262 1.3850631 1.7960352
0.51411366 1.3842149 1.7940624
0.44596821 1.4364343 1.7016934
0.33307764 1.4060053 1.7648669
0.60599262 1.2889581 1.941372
0.38676852 1.4791402 1.6965426
0.33395123 1.4074067 1.7588166
0.46722683 1.245664 1.9626515
0.23541103 1.502158 1.5894321
0.11957724 1.4972014 1.5931727
0.028018847 1.5270565 1.6331848
0.097603284 1.3586907 1.7418637
-0.057776619 1.4515561 1.731162
-0.21030799 1.5495195 1.6310866
-0.18389148 0.99920714 1.9472634
0.040003367 1.0126294 2.0255983
0.042684034 1.4253283 1.6652691
-0.061316397 1.2676712 1.9171557
0.15723404 1.4127048 1.6829971
0.51479632 1.4146502 1.7585943
0.10924379 1.1268058 2.1242056
0.22247709 1.4151649 1.6753815
0.17273507 1.4268413 1.6729825
0.15530802 1.4159092 1.6831626
-0.23425344 1.2398262 1.9204941
-0.27605161 1.2867858 1.9155657
0.055276286 1.0334072 2.0393329
0.080806173 1.5384314 1.6548958
0.20563962 1.3318807 1.8318106
-0.081304081 1.4600224 1.7186682
0.050753694 1.4255999 1.642163
-0.091737032 1.3619106 1.8274807
0.18425572 1.1962757 1.9513195
0.43044969 1.3977768 1.7778744
0.032895677 1.0357137 1.9951514
0.047842845 1.3633657 1.7382742
0.1292109 1.3449389 1.7657115
0.096517093 1.3578156 1.7394036
-0.075881332 1.4826653 1.709401
0.40506104 1.2251694 1.9813085
-0.17700779 1.5053352 1.6557517
-0.1079235 1.3660229 1.8001159
-0.32004818 1.3570846 1.8405546
0.084536627 1.4291158 1.6658567
0.54038578 1.3801657 1.8290918
0.018439956 1.221594 1.9440033
-0.070324518 1.4216706 1.6936458
0.057689004 1.388494 1.7094111
0.12074713 1.4966727 1.5865978
0.22021668 1.4452469 1.6539019
0.38446912 1.4781814 1.6957028
0.36793345 1.4350932 1.730608
0.096379504 1.3613608 1.7459643
0.31258646 1.3970532 1.7857534
-0.051981818 0.94173104 1.9400997
-0.067676261 1.1694773 1.9758949
0.086638473 1.4288934 1.6624906
0.55347687 1.4094372 1.7700436
0.22439708 1.5373393 1.6175373
0.11523879 1.1254702 2.1127801
-0.21305096 1.0510885 2.0154212
-0.28905568 1.1509646 2.0802836
0.23516537 1.5034606 1.6010038
0.51599616 1.389588 1.788736
-0.1093642 1.3658131 1.8013301
0.23650201 1.5057187 1.6022973
0.40808728 1.2259153 1.9792875
0.46353698 1.451287 1.7229111
-0.070881687 1.4853122 1.7613678
-0.37428439 1.3326733 1.8345233
0.36794552 1.4358467 1.7402152
0.030119181 1.5242894 1.6229097
0.1837375 1.4277065 1.6725941
0.34643263 1.4545263 1.7106951
0.4877401 1.1770504 1.9221325
0.044868704 1.3126878 1.8278598
0.49219987 1.17304 1.9417255
-0.078678519 1.4600383 1.7126781
0.038449239 1.4357824 1.6676348
0.061195087 1.388932 1.7020227
0.05024958 1.3626106 1.7331764
0.23829949 1.1759248 1.8913556
-0.0086529385 1.2043697 1.9727002
0.40309364 1.2258533 1.9808218
-0.20542607 1.4960669 1.6397636
0.38752028 1.4324605 1.7404097
-0.14519 1.3759694 1.8781455
0.33719841 1.4308554 1.7227139
-0.010556878 0.98266739 1.9846054
0.23827036 1.5017771 1.5875208
0.43242943 1.4003476 1.770159
0.18534729 1.4275389 1.6676973
0.38550398 1.4321153 1.732435
-0.09313418 1.2152816 1.9395583
0.014285356 1.4650383 1.7091055
0.44218865 1.3897694 1.7746273
0.32974866 1.4266262 1.7331989
0.3303321 1.4255997 1.7307193
0.31027323 1.3935527 1.7838298
0.22472315 1.376117 1.709541
0.017120579 1.4582773 1.6989882
0.044228349 1.4809905 1.6032028
0.17051598 1.4266536 1.6638367
0.5306381 1.1835256 1.8936259
0.53006124 1.180934 1.9011419
-0.20632264 1.4964375 1.6369171
-0.028826283 1.2861992 1.9483583
0.010443166 0.91426772 1.9281679
0.22308078 1.443192 1.6417882
0.16892248 1.4422284 1.6564791
-0.25483915 1.2492527 1.9224194
0.21863338 1.4432042 1.6547729
0.072007753 1.1943411 1.968321
-0.026749929 1.2660966 1.9538447
-0.28035298 0.95953429 1.9490625
-0.058574852 1.2323701 1.9821317
-0.15792739 1.0398502 2.0445461
0.022230402 1.0244174 2.0484042
0.15899071 1.4165725 1.7164419
-0.19007593 1.1564754 2.0164382
0.052581031 1.0352539 2.0418775
-0.39423001 1.1516805 2.0530717
-0.23341544 1.1413645 2.0551927
0.18787409 1.3718511 1.7308352
0.0483477 1.3772645 1.7116309
0.16222669 1.3671186 1.7449392
0.43475911 1.4020443 1.7721201
0.046647083 1.3784381 1.7150816
0.038623385 1.3765013 1.7446613
-0.049758054 1.4777068 1.7233454
-0.17532143 1.4821053 1.714007
0.047987048 1.3665719 1.728174
0.13200943 1.3446548 1.7593274
-0.19810139 1.4695259 1.7188811
0.19857378 1.0563638 1.800763
-0.053586334 1.4670017 1.7278836
0.1146776 1.3745241 1.7136178
0.33471242 1.4019293 1.7639714
0.49141124 1.1751802 1.9364705
0.49731132 1.3126777 1.925916
-0.10011001 1.3638401 1.7796093
0.18230677 1.1857096 1.882012
-0.10107449 1.3179618 1.9075631
-0.20495607 1.262587 1.9081346
0.40678209 1.2268423 1.9600059
-0.2181612 1.2548652 1.877257
-0.12003895 0.92651546 1.9128672
-0.12219748 0.94232541 1.8699689
-0.21748954 1.2402557 1.9065425
-0.17903452 1.2358414 1.9016365
-0.10289295 1.2676542 1.8841552
-0.32528666 1.3347685 1.8313024
-0.3249197 1.3340408 1.8329722
0.22238594 1.3752995 1.7247732
0.068626523 1.2091051 1.9621108
0.16818839 1.3745979 1.7125214
0.22572072 1.3785557 1.7264489
-0.18135473 1.2350453 1.9221638
0.1889229 1.4282836 1.6704533
-0.11869872 1.1933464 1.9631087
-0.25258631 1.2515517 1.9113457
0.38684103 1.429309 1.7201939
-0.11535356 1.1374249 2.0038161
0.12135521 1.1549623 2.0586269
-0.26902601 1.2116808 1.9265957
0.046818897 1.4045665 1.6717975
-0.20869516 1.1377136 2.052213
0.065575309 1.387448 1.6965545
0.1944667 1.0464025 1.8462063
0.20656137 1.3305154 1.8359429
0.12406 1.4705421 1.6050589
-0.21724859 1.406895 1.8315758
-0.19515473 1.4219959 1.7797805
0.1884177 1.301751 1.8417494
0.18520597 1.3015002 1.8507652
-0.31908169 1.3743765 1.7454811
-0.34960794 1.3711619 1.7927873
0.21677455 1.1578435 1.969658
0.03813437 1.4838921 1.6180227
-0.17363392 1.1434941 2.0605383
0.049988735 1.0303524 2.0506999
0.086296305 1.4306679 1.6683593
0.088281654 1.4842637 1.6163241
0.049092464 1.3104342 1.8224195
0.33706668 1.4082735 1.7573438
0.18189673 1.160458 1.8442194
0.19007128 1.1963432 1.9110562
-0.10221763 1.2825471 1.8368955
0.11867926 1.1511872 2.071115
-0.056198627 1.2341392 1.9826305
-0.10361215 1.1907265 1.9548224
0.33489493 1.1931068 2.033473
-0.097275764 1.1716137 2.0071044
0.033889033 1.0045253 2.0374887
-0.17703374 1.1450293 2.0286205
-0.27887726 1.1811752 2.0428777
-0.28355908 1.1658984 2.0855379
-0.048935503 1.1282717 2.1109989
-0.28587794 1.1468163 2.0860586
-0.20208386 1.4489305 1.7549607
-0.28121901 1.2076235 1.9557029
-0.45426863 1.1697843 1.9991965
0.4273499 1.3957175 1.7936718
0.21958096 1.4492569 1.6410681
0.46356744 1.451667 1.720015
0.47730294 1.1785949 1.9078923
0.6359961 1.2000597 1.9598545
0.63393873 1.200295 1.9573349
0.34536213 1.4542152 1.7086487
-0.083069563 1.362041 1.8204811
