# .PCD v0.7 - Point Cloud Data file format
VERSION 0.7
FIELDS x y z
SIZE 4 4 4
TYPE F F F
COUNT 1 1 1
WIDTH 453
HEIGHT 1
VIEWPOINT 0 0 0 1 0 0 0
POINTS 453
DATA ascii
3.5888979 0.0061984397 3.0514343
3.1319604 0.34407017 2.9176877
3.1328027 0.34856722 2.914016
2.9349391 0.34961274 2.8748171
2.9380555 0.34828097 2.8734076
2.9363086 0.38311794 2.8960307
3.4311099 0.20807093 3.2921736
3.4793177 0.19551519 3.3471751
3.4196815 0.36634773 3.1257308
3.4710968 0.32241008 3.0722783
3.6461051 0.074325934 3.0814517
3.4254098 0.35841259 3.1276817
3.7120082 0.21506636 3.2514279
3.7617493 0.1907773 3.0785992
3.7856109 0.049002148 2.896764
3.4584401 0.22520694 3.3293161
3.6557364 0.24819051 3.3023677
3.6851716 0.24977002 3.312736
3.6833169 0.24718912 3.3124373
3.6751864 0.26077971 3.3128123
3.6054535 0.27059332 3.2989297
3.6777132 0.036272686 3.0550685
3.638526 0.018768106 3.0668118
3.6400723 0.016632589 3.0659125
3.6040173 -0.0061739888 3.0512929
3.7714384 0.19475119 3.0993993
3.6110628 -0.018499481 3.0387254
3.6768072 -0.0022357192 2.9612424
3.5326095 0.22250886 3.102536
3.4319577 0.30938959 3.192189
3.4517763 0.32487169 3.05867
3.7771685 0.20127241 3.2898843
3.447773 0.2580151 3.2953002
3.4516671 0.21633056 3.1650591
3.4377556 0.28069088 3.1338787
3.589081 0.0071779904 3.054014
3.6624291 0.089795925 3.0670063
3.7530723 0.054080769 2.918191
3.836555 0.14330173 2.9821734
3.7124131 0.21225169 3.255975
3.747463 0.021052292 2.9707606
3.7200193 0.12520063 3.0914936
3.7405367 0.033265587 3.0192139
3.7253232 0.0092202816 2.9850502
3.7467458 0.10535074 2.8720765
2.9363103 0.38363209 2.8901126
3.6611643 0.24851684 3.3016624
3.6560388 0.020396559 3.0107703
3.5896194 0.005919151 3.0531569
3.6754284 0.097860701 3.0817626
3.7536051 0.051193669 2.9245205
3.4641852 0.21236797 3.3502867
3.5950348 -0.0153162 3.0288644
3.6630621 0.026217779 2.9110348
3.4469042 0.25392756 3.271301
3.6218457 0.029534332 3.078675
3.4507108 0.21912883 3.1671484
3.7913003 0.19442272 3.1960747
3.6915166 0.035672206 3.0572493
3.8404968 0.23012519 3.2073846
3.7730393 0.21774206 3.3231108
3.7770696 0.20180956 3.2874279
3.7832296 0.22996742 3.332567
3.8245218 0.095939405 2.9663925
3.832428 0.07427723 2.9547682
3.4521995 0.24280345 3.3152213
3.746901 0.21170783 3.2796781
3.4724808 0.23840484 3.1276555
3.6631136 0.021048294 3.0054204
3.7722902 0.042341307 3.0075481
3.4345193 0.3279615 3.1274719
3.7244172 0.11933945 3.0925472
3.1976461 0.35143289 2.9524372
3.1618185 0.40465167 2.9212368
3.1300123 0.34756994 2.9114451
3.5848505 0.21076119 3.3784444
3.7795372 0.13430195 3.0757263
3.7570374 0.18658732 3.1135843
3.7689927 0.19859062 3.302315
3.7683387 0.19759624 3.1082685
3.5851543 0.004245678 3.0115921
3.7610321 0.19689877 3.102232
3.7676256 0.19598562 3.090838
3.7668536 0.19032753 3.088748
3.7301643 0.22170393 3.2850504
3.6290896 0.12750739 3.0612264
3.7714589 0.21611653 3.0806222
3.838263 0.070664912 2.9277856
3.751889 0.029769395 3.0222538
3.4584062 0.23539016 3.321923
3.6198239 0.13999715 3.0563848
3.6611564 0.078255363 3.0671508
3.6497388 0.026974045 2.9968631
3.8183062 0.25851339 3.057929
3.8820305 0.16147341 3.1386635
3.8198812 0.25861165 3.0595353
3.753444 0.056912079 2.9149241
3.6922925 0.24759209 3.2962401
3.6680877 0.021134838 2.9955938
3.6415431 0.16770726 3.06969
3.6896634 0.22781998 3.329845
3.6845646 0.23698507 3.3297074
3.7114561 0.21450979 3.2567413
3.1882682 0.3372688 2.9249825
3.6365194 0.023372354 2.9630783
3.8255916 0.23659427 3.1930566
3.5785275 0.28567463 3.3203049
3.654006 0.24270907 3.3034747
3.7991211 0.06223857 2.9740083
3.8447676 0.20267725 3.2152658
3.6201301 0.036646679 2.9795239
3.8277946 0.22000955 3.1966944
3.6008601 0.00012584172 3.0489244
3.8605862 0.18146385 3.1943839
3.7935603 0.088296883 2.9717503
3.6823597 0.24144201 3.3242679
3.6772666 0.01723925 2.9740078
3.8897994 0.14572155 3.1239481
3.7490127 0.16458465 3.0880125
3.6363513 0.25264609 3.3052318
3.7944968 0.18849002 3.2279353
3.45906 0.23384419 3.3220968
3.6262679 0.093534112 3.0778337
3.7372603 0.1158729 3.0665965
3.4209616 0.22398354 3.3972235
3.8503425 0.23251309 3.2165563
3.8067491 0.19943933 3.2681391
3.7713408 0.23076132 3.0656664
3.7703202 0.23188394 3.0655241
3.5989213 0.090817615 3.0800996
3.8035882 0.20803639 3.2927811
3.4430747 0.27464703 3.2454586
3.6610868 0.020324361 3.0086482
3.6163709 0.031075027 2.9723318
3.7249427 0.10961641 3.0963378
3.7982557 0.19214876 3.1681149
3.5899398 0.0046531763 3.0509861
3.7638531 0.1824495 3.0845306
3.5890224 -0.006481309 3.0280068
3.7972443 0.21861427 3.2836757
3.6483154 0.20794919 3.3097553
3.5839918 0.016366456 2.9985044
3.7646618 0.043726753 2.8957357
3.8229992 0.22619875 3.2624466
3.6283009 0.19475515 3.3715217
3.8408206 0.2222894 3.2122304
3.6101191 0.20802687 3.3703139
3.6612611 0.20462303 3.3669658
3.7051282 0.23468669 3.3132274
3.7591045 0.065715648 2.8745654
3.6715357 0.037175745 3.0306613
3.6032624 0.2202843 3.3693776
3.6555588 0.051533584 3.0815792
3.5734551 0.030809551 2.989454
3.8892646 0.19506249 3.0957186
3.8457408 0.2173696 3.2145877
3.7983782 0.042809807 2.8926735
3.8149662 0.17945662 3.2934783
3.6697042 0.23639183 3.3046017
3.740165 0.037714936 2.9278781
3.6232941 0.028343162 3.0823886
3.5867667 0.22134596 3.3218482
3.6481185 0.25252995 3.310575
3.6796474 0.035120554 3.0389547
3.4571223 0.23825391 3.3148694
3.4549766 0.2400894 3.3131833
3.6757522 0.015091235 2.9723229
3.6984353 0.015311016 3.0089707
3.7715948 0.22746128 3.0799625
3.5003796 0.28221378 3.2565103
3.6714232 0.03471024 3.0314095
3.9011824 0.16257055 3.0454762
3.4351747 0.30340239 3.1956029
3.4316001 0.25949675 3.1174288
3.3948579 0.33064744 3.0946078
3.6406729 0.013919428 3.0691054
3.420387 0.33465487 3.1362915
3.3151636 0.52934426 2.9015279
3.7422287 0.036553502 2.9575791
3.756048 0.043495588 2.9139929
3.8022797 0.19486456 3.2410553
3.6725829 0.066414021 3.0493715
3.6188478 0.21639048 3.3680308
3.6536109 0.033601206 2.9067118
3.620656 0.052347906 2.88624
3.7697623 0.20107029 3.2935731
3.6886363 0.098467387 3.0937407
3.8126023 0.2173593 3.2991281
3.744489 0.20455863 3.288914
3.7467401 0.037843928 3.0078802
3.6255469 0.025916785 3.0843701
3.4910071 0.29477304 3.0498331
3.6540096 0.033225127 2.9078023
3.7718017 0.19498724 3.2580647
3.4180667 0.35474622 3.1265879
3.188694 0.32782909 2.9629169
3.6488881 0.062731482 3.0852587
3.5256128 0.18749604 3.3822668
3.5275829 0.18244262 3.3809967
3.7437339 0.1889118 3.2924604
3.4557869 0.22501607 3.3474743
3.7671809 0.21074869 3.2552533
3.7902696 0.054442659 3.0039773
3.8089621 0.19983023 3.2634828
3.6133971 0.22921537 3.30178
3.6501236 0.046042833 2.876888
3.6205068 0.050773457 2.8866487
3.65818 0.034253627 2.8923659
3.5046656 0.13206169 3.421376
3.6118152 0.14163271 3.0668027
3.6655149 0.026806399 2.9372313
3.78339 0.060063854 2.885536
3.4535882 0.23322338 3.3304355
3.628567 0.24007106 3.3511765
3.7858548 0.18299149 3.0526412
3.5376761 0.23023042 3.3002362
3.7430289 0.072475716 2.8832104
3.7544749 0.046618432 2.9129701
3.6057086 0.14718004 3.0647688
3.5538728 0.20462622 3.0379546
3.4386528 0.19685529 3.263037
3.779557 0.21268414 3.0784781
3.6364739 0.024911584 2.98207
3.4511852 0.31955278 3.0451951
3.1546931 0.33381647 2.9360774
3.1473753 0.34827617 2.9324472
3.3318684 0.49262071 2.908855
3.6338832 0.1661793 3.0673954
3.4737117 0.21214518 3.2782371
3.4922385 0.23891488 3.2740657
3.4070728 0.23672652 3.2846212
3.4733067 0.26071918 3.2687473
3.5061095 0.255795 3.0965292
3.4452205 0.25205225 3.256284
3.4112117 0.26218185 3.2541862
3.4310234 0.3066192 3.2327707
3.4037175 0.29902953 3.2297342
3.4152339 0.27632877 3.142153
3.4337125 0.26544547 3.0977719
3.3950055 0.33386931 3.0691986
3.4892628 0.29693407 3.0458121
3.6534467 0.22415327 3.3734601
3.629375 0.16248813 3.2092757
3.8044014 0.061253928 2.9792569
3.5270233 0.2187047 3.360846
3.6557405 0.060904235 3.0863435
3.6535299 0.062883876 3.0827475
3.7706332 0.17454332 3.0570662
3.6988561 0.10591061 2.8217933
3.6783841 0.052701745 3.0578249
3.8169565 0.088752858 2.99333
3.5938871 0.039992765 2.9715912
3.7795222 0.19702764 3.1240799
3.6383202 0.24603839 3.3052924
3.380892 0.36841327 3.016927
3.1739872 0.35896635 2.9499006
3.2011187 0.33151218 2.94209
3.4092851 0.42838871 2.9130044
3.4755099 0.10516572 3.3888583
3.5959847 0.052856989 2.9645863
3.57459 0.25102183 3.2931015
3.7719777 0.23234883 3.0751052
3.4343774 0.30421028 3.196871
3.4770951 0.26343757 3.119041
3.6534829 0.25167078 3.3268867
3.1959715 0.33542344 2.9646184
2.9388826 0.34835029 2.8720114
3.7856612 0.20537992 3.2933593
4.1884933 3.4515874 -0.77408475
2.5061326 2.3595045 0.49656484
3.0275741 2.9301028 -0.26936296
2.4121716 2.2715747 0.43478051
2.5793748 2.3012466 0.35390875
2.3803415 2.3024552 0.39828953
2.6093941 2.4899538 0.24347886
2.096957 2.3451538 0.24596454
2.1339793 2.5460007 0.21215405
2.2213309 2.3448179 0.32426599
2.0843174 2.4312816 0.31679854
2.0857923 2.3562403 0.23312075
2.2804403 2.1470029 0.5936681
1.9349025 2.3189366 0.24890693
1.2646108 2.2815783 0.5990147
1.6612267 2.5132282 0.13017732
1.4303071 2.3608532 0.38424033
0.84121186 2.1025167 0.69149524
1.5779216 2.3851359 0.12880236
1.2556646 2.3746259 0.46706632
1.067865 1.9573324 0.74094546
0.34513861 2.2913122 0.40519717
3.6826303 0.23340142 3.3225255
3.1864724 0.39709085 2.9010997
2.7062545 2.2887945 0.43845385
2.8481407 2.0857372 0.64287943
2.5710838 2.3731763 0.44850665
2.6783037 2.464745 0.2303341
2.7706368 2.5346818 0.029764887
1.8269548 2.4154656 0.15080409
2.5373225 2.0088422 0.29154298
1.5480599 2.4187098 0.089957699
1.7269849 2.3718705 0.31716585
1.4380213 2.3833902 0.3282302
2.0854192 2.3300951 0.24802123
0.99887031 1.8589584 0.55510455
1.4104464 2.2720861 0.2933895
1.50248 2.3978188 0.19805136
1.4653906 2.216779 0.36145541
0.6458897 1.9894587 0.57535636
1.2532218 2.2381232 0.61748719
0.9009971 2.2705557 0.59472609
1.3226628 2.3193634 0.45845529
1.3239797 2.243048 0.56654561
0.64391434 2.1623657 0.5660513
1.3590794 2.283062 0.50589561
0.71438104 2.2036018 0.59016877
0.48922169 2.1774504 0.39935166
2.9301994 0.28055748 2.9000897
3.2049115 0.37400627 2.9150739
3.5738864 0.089466095 2.9286864
3.5910311 0.0032262527 3.0587311
1.3204544 1.9696805 0.3985554
3.447504 0.20939641 3.1937561
2.2073469 2.3687375 0.29830748
1.6603286 2.4448171 0.063766845
1.2120535 2.1486099 0.68256325
1.4061149 2.3593774 0.30031648
2.9420254 0.28411552 2.9149675
1.9577718 2.284126 0.2966187
3.4039516 0.32665196 3.0522361
1.5035589 2.3949432 0.19281897
1.6138008 2.4739301 0.126661
1.1756868 2.1267588 0.64618218
2.1424396 2.4046056 0.37058482
2.0043418 2.348196 0.20495623
2.3978806 2.3034792 0.39716047
1.9417701 2.3590369 0.1800025
2.4888651 2.3373973 0.48550677
3.3737597 0.37525681 3.0362952
1.2990191 2.2037463 0.49417871
2.533716 2.2438025 0.48931915
3.4010851 0.35100612 2.9943697
2.0676718 2.4000621 0.34862378
3.6498952 0.027383162 2.9224906
1.2097441 2.0774128 0.66911942
1.15084 2.1341591 0.61197597
0.85516906 2.0691268 0.57400817
2.0903053 2.3515787 0.23189679
1.203302 2.1979213 0.61290622
3.8087509 0.11560215 2.9557264
1.400381 2.3808277 0.29172447
3.451293 0.26725614 3.0905035
3.8256965 0.066700943 2.9254248
1.2852005 2.2619977 0.60491228
0.64626104 3.6220677 -1.0100362
1.5725552 2.7559683 0.23764089
3.3947546 0.28701532 3.1901233
1.3043569 2.157613 0.46339566
1.3340946 2.2339334 0.56393838
1.0782052 2.0724134 0.76773584
3.8113434 0.18357497 2.9203598
1.2745932 2.1579111 0.50868189
4.6501465 3.7681553 -1.1703984
2.1985877 2.428561 0.35961252
1.0780411 1.9421394 0.75167859
1.6654365 2.4478185 0.065250583
1.5343713 2.4245572 0.18691336
2.718498 2.6398377 -0.10805336
1.4190556 2.0166421 0.73715127
1.4682612 2.4500926 0.26897627
0.30906051 2.36906 0.48533982
2.6317773 2.5869193 0.1091366
1.1614245 2.1837428 0.68314451
2.7130158 2.6283803 0.096472092
2.271342 2.4576437 0.35233507
0.41900355 2.4501338 0.58018392
2.4870598 2.147455 0.57624435
0.64677083 2.1640551 0.54851395
2.8444138 3.4132881 -0.45995036
1.2661113 1.9260734 0.52241886
2.4323885 2.3978231 0.46761575
2.8774846 2.6744316 -0.20845586
2.4767065 3.4593902 -0.90537411
2.890187 3.2742531 -0.32132262
3.4278069 0.29061186 3.211973
1.0830426 1.8952183 0.62379551
4.2335076 3.4028728 -0.78409767
1.234094 2.1114736 1.3255919
4.1908236 3.4409142 -0.77307236
0.9913637 2.4688525 0.73997152
1.4755591 2.521785 0.11596063
1.1381347 2.136107 0.73835039
2.5779729 2.2798638 0.37631598
3.8107936 0.20026055 3.303709
1.5320467 2.4343154 0.062486257
1.1454196 2.0602221 0.72345257
2.7587364 2.2884741 0.012069366
1.4783789 2.4300504 0.24719283
1.2161566 2.040215 0.78333175
2.9254072 2.761286 -0.20874013
1.4906718 2.2253458 0.36704198
2.9228761 0.31951416 2.9003003
1.696401 2.4919903 0.17790174
1.8492484 2.4366632 0.12930854
2.7601361 2.702523 -0.15023376
1.3831075 2.1434898 0.49189213
1.8852503 2.5211163 0.19467786
2.9260685 3.4905789 -0.74513036
1.8112913 2.5108478 0.17918245
2.9392393 0.30785444 2.9034638
1.4567014 2.447473 0.27448168
1.1744108 2.165437 0.69518793
2.1286364 1.9742024 0.62133878
1.2571857 2.2133768 0.56662643
1.3837737 2.3190703 0.43732619
2.8041918 2.6526287 -0.15201849
1.5412552 2.5132601 0.036075216
1.5157442 2.4099891 0.30989015
2.7214847 2.6519272 -0.11134069
1.7625664 2.709451 -0.18913412
1.4450105 2.2250075 0.35590878
2.1851239 2.4125545 0.2532374
3.6200402 0.21309195 3.3761771
2.9014153 3.6206946 -1.0538363
1.8588595 2.4322169 0.28550699
1.6357483 2.2574537 0.45696384
2.3038027 2.4530182 0.2406978
2.8209319 2.8644066 -0.33347356
2.2112319 2.4415016 0.33261612
2.5215502 2.2976086 0.4650943
1.2582372 2.1909308 0.43894696
1.0631261 1.8820077 0.62644273
2.5252006 2.280045 0.34936252
1.2783613 2.1409106 0.5196259
2.0639393 2.7036884 0.39038047
2.8002591 2.6426117 -0.13675052
2.9997592 3.0729601 -0.32461327
1.9793838 2.3490324 0.19759077
2.1461875 2.3027179 0.40807104
2.4153595 2.3210647 0.49709684
1.5413343 2.432214 0.083314195
2.6023295 2.4475436 0.29188797
1.2782454 2.0740981 0.79143602
2.7296581 2.4975107 -0.25024179
1.2484585 2.2140219 0.66144109
1.1594913 2.0864322 0.73781109
1.253137 2.0476894 0.68233007
1.2740724 2.677407 -0.11268927
1.4527519 2.3714294 0.22686866
2.7005866 2.0348303 0.74038291
1.0639349 2.1212194 0.77535105
1.1346395 2.1009126 0.74052733
1.4631931 2.7125127 0.33565387
1.2504267 2.0834632 0.73706621
