# .PCD v0.7 - Point Cloud Data file format
VERSION 0.7
FIELDS x y z
SIZE 4 4 4
TYPE F F F
COUNT 1 1 1
WIDTH 145
HEIGHT 1
VIEWPOINT 0 0 0 1 0 0 0
POINTS 145
DATA ascii
2.714546 1.0023595 3.047488
2.4832654 1.1025165 2.7879169
3.2697949 0.95726365 2.9134126
2.7481327 1.1747956 2.7497382
2.9616001 1.3276172 2.6392212
3.2703049 0.95711368 2.9190319
3.1180472 1.1797235 2.9659312
3.0930605 1.2232704 2.9401598
2.562664 1.1272466 2.7035778
2.5718865 1.1188602 2.715939
2.6011891 0.98159331 3.0260153
2.5481634 1.1633688 2.7181897
2.5361235 1.0814751 2.8337839
2.605978 0.94847625 3.0441253
3.3201802 1.2475588 3.1357501
3.2934985 0.94757712 2.8969615
3.1054561 1.0588218 3.1935384
2.5050797 1.082142 2.8357985
3.3338361 1.0596827 2.9460709
2.4842515 1.0474453 2.7685597
3.3318961 1.2229069 3.1507685
3.3840044 1.2190868 3.1882319
3.1525521 1.1850218 2.9048045
2.7158318 0.97276938 3.0789256
2.7604096 1.0385911 3.0499778
3.3980427 1.2195529 3.157424
2.7908964 1.1947172 2.761899
2.8131597 1.1947166 2.7912457
2.7545631 1.2047037 2.7736201
3.0954239 1.0818995 3.1946912
2.5572882 1.0725365 2.8410571
3.2706313 0.97531247 2.9465895
3.3331885 1.1961718 3.1118152
2.7489533 0.99248701 3.0707982
2.9558561 1.3496037 2.71455
3.2709203 0.95582211 2.9217544
2.9921577 1.2965255 2.7446547
3.2696912 0.94448864 2.9042702
3.3028581 0.9855274 2.8519557
3.3513961 1.003901 2.9213922
2.9532282 1.3391405 2.6305175
2.9515834 1.3430102 2.6309333
3.3961823 1.2680923 3.2079501
3.1904435 1.1600304 2.8667829
3.4129105 1.1807226 3.0265098
3.0384305 1.2196168 3.0395374
3.294039 0.94777632 2.8970706
3.1455588 1.1993984 2.8973823
3.0249987 1.2367427 3.0353279
3.2938197 0.9473986 2.896821
3.2766516 1.1335485 2.9252706
3.2812538 1.1317089 2.9311833
3.3868494 1.2183305 3.1864312
3.2760954 1.1297787 2.925631
3.2160161 1.1870171 3.183095
3.369442 1.2149116 3.1843493
3.3479319 1.0043713 2.9021633
3.0597661 1.1414347 3.0833209
3.1556466 1.1780961 2.9087951
3.2821076 1.2145574 3.1619444
3.2627976 1.165894 3.0791276
3.3944538 1.2287557 3.1946158
3.0467813 1.1781611 2.9913824
3.3634827 1.1155467 2.9507589
3.0839553 1.1868641 3.1189318
3.1880381 1.1750993 2.858582
3.187212 1.1797615 2.8540287
3.2893326 0.99154443 2.9432724
3.077708 1.1532315 3.1842401
3.3926327 1.185707 2.9671731
3.3560359 1.0029955 2.9207299
3.0514262 1.1862689 3.1073344
3.3276873 0.99340546 2.8637195
3.3556278 1.0121273 2.9195817
3.0333884 1.2329608 2.9827855
3.2940176 1.2161658 3.188709
3.1256492 1.0224348 3.2633479
3.290055 1.2326136 3.1733713
3.3478003 1.2088296 3.1471841
3.1634007 1.143105 2.9665153
3.0419338 1.2107714 3.0436909
3.2921391 1.2331492 3.1707542
3.1002057 1.1565231 2.9781873
3.2745478 0.94353724 2.8937492
3.3289447 1.0685265 2.9417467
3.3997192 1.2399175 3.202035
3.4172421 1.1949946 3.055902
3.0338471 1.1985412 2.9793544
3.2715414 0.95667934 2.9170225
3.4059658 1.1719682 2.9940846
3.3835523 1.1710894 2.9739034
3.334497 0.98608112 2.8790231
3.4203229 1.191871 3.067724
3.3039503 0.99579126 2.8375719
3.105217 1.0624181 3.1946254
3.3642116 1.2294221 3.1817935
3.0935001 1.2196714 2.9229281
3.0540085 1.2456058 2.9696314
3.0571256 1.19958 2.950743
3.0593441 1.1975799 2.9561093
3.0837579 1.1966224 2.9984233
2.9558723 1.3398052 2.8018458
3.0295217 1.2214665 2.8668902
2.801018 1.1835331 2.7600701
2.6018448 1.1273202 2.7527933
2.2374153 1.0517478 2.729749
3.3257689 1.045248 2.9414785
3.2843022 1.2342787 3.1865709
3.3186738 0.97775096 2.934027
2.9581275 1.3316004 2.6349249
2.4431989 1.0721529 2.7497621
2.4823434 1.0811394 2.7610004
3.3817673 1.212451 3.1899319
2.273062 1.0297631 2.7578437
2.4807835 1.0432413 2.7692018
2.4513328 1.078166 2.7578359
3.4016953 1.1801302 2.9756677
3.394196 1.2084315 2.9452686
3.3478231 1.2148641 3.1354709
3.3317654 1.1842301 3.1176157
3.3205466 1.2276096 3.1580622
3.3229444 1.2183305 3.1609342
3.324259 1.2213016 3.1581216
3.3131905 1.2669467 3.1351025
3.2547491 1.160012 3.0805163
3.2509856 1.1653738 3.0797894
3.0872514 1.0925791 3.157578
3.2939551 1.2248782 3.1704326
3.2713079 1.2180322 3.1653633
3.2109172 1.2247648 3.1533623
3.0739646 1.1215233 3.0910559
3.0458822 1.1777356 2.9674983
3.0376852 1.2022972 2.9472187
3.0628645 1.1709682 3.1242845
3.3934033 1.2048486 3.1476943
3.0723839 1.1230112 3.0900302
3.0497906 1.2559214 2.9749315
3.0260892 1.2245551 2.8627245
2.8297186 1.1810838 2.7963889
2.4978371 1.0998989 2.7978904
2.7917058 1.2339379 2.7384784
2.4073198 1.0930328 2.6956961
2.712302 1.0040079 3.0478551
3.0820138 1.1392627 3.2047977
2.5679178 1.0604423 2.7316444
