# .PCD v0.7 - Point Cloud Data file format
VERSION 0.7
FIELDS x y z
SIZE 4 4 4
TYPE F F F
COUNT 1 1 1
WIDTH 141
HEIGHT 1
VIEWPOINT 0 0 0 1 0 0 0
POINTS 141
DATA ascii
3.7964189 0.10958946 4.1128788
3.7949626 0.1094349 4.11833
3.4879601 0.49192378 3.8068385
3.675621 0.37573606 4.2946897
3.494168 0.46477401 3.7905791
3.5807254 0.3599453 4.3060889
3.8212144 0.094009556 4.1045861
3.8357215 0.35055473 4.3727579
3.8369927 0.3565332 4.3739023
3.8709881 0.34074014 4.4261351
3.8942246 0.33708525 4.4017806
3.8201306 0.090531699 4.1086502
3.953295 0.12573907 4.1478887
3.790374 0.1275572 4.145556
3.8448348 0.32950446 4.3359318
3.867276 0.20052814 4.1663108
3.8209846 0.092718929 4.1056857
4.048398 0.21081568 4.151021
3.983254 0.14676392 4.1357913
3.6061335 0.42351612 4.1721039
3.821718 0.094071291 4.1048799
3.8215115 0.093754373 4.104548
3.8409014 0.27892676 4.1375799
3.8426707 0.27613065 4.1445498
3.790925 0.13500802 4.1376114
3.9131277 0.31483746 4.3754148
3.9200759 0.31664526 4.3787675
3.5921648 0.34341276 4.2153816
3.7468448 0.35162786 4.0849867
3.9035771 0.34178931 4.428165
3.9113564 0.30780157 4.3792286
4.0112119 0.21267985 4.1905255
3.9729571 0.33295783 4.3253522
3.9538052 0.29530209 4.2660942
3.8626692 0.33040482 4.3730607
3.9727399 0.3304005 4.3278661
3.9682686 0.24042258 4.1984534
3.9589791 0.31788304 4.1841612
3.8107824 0.36596054 4.3865438
3.833102 0.36442575 4.3701191
3.9165709 0.10398117 4.0877419
3.8834913 0.13274682 4.1511488
3.8744891 0.12927432 4.0874877
3.8516798 0.11823831 4.0719686
3.9681454 0.24618658 4.1965437
3.7907701 0.13679186 4.1370168
3.9178002 0.30355981 4.3806124
3.7261693 0.31701145 4.1396704
3.7965178 0.37668967 4.3802629
3.9129546 0.30968469 4.3772936
3.8674498 0.20336035 4.1661944
3.9398913 0.30644429 4.3109283
3.7966592 0.10866702 4.1168175
3.6293499 0.4031859 4.1282701
4.0239272 0.15380675 4.121233
3.9309769 0.28990376 4.2210555
3.8738065 0.12081422 4.1036797
3.7926264 0.35109761 4.3994956
3.695437 0.40754795 4.080451
3.6478963 0.39527011 4.09902
3.6563718 0.42392531 4.0066781
3.7140913 0.34010988 4.3692064
3.8396938 0.10933742 4.1573024
3.9536774 0.29734716 4.2865543
3.9834816 0.14786445 4.1363225
3.9864721 0.34093472 4.3512158
3.9584038 0.11841785 4.0720325
3.8591199 0.13024631 4.0618243
3.9652927 0.30808797 4.2896614
3.8389444 0.1177935 4.1497312
3.918534 0.11801656 4.0381145
4.025456 0.15834694 4.1251545
3.9465272 0.11665574 4.107408
3.9490807 0.29421821 4.2292809
4.0488954 0.21866027 4.1510262
3.9592216 0.32285771 4.1999855
4.0479312 0.18986699 4.1198773
3.8180771 0.09192542 4.1063304
3.7967291 0.18778077 4.1451011
3.9591174 0.13650414 4.1403394
3.8535755 0.13396567 4.0600848
3.8271835 0.35701659 4.3782053
3.952338 0.13365895 4.1395636
4.0020671 0.13867204 4.0378551
3.8605914 0.13845885 4.0092254
3.7962999 0.36822155 4.3800302
3.9510622 0.13593249 4.13837
3.7757268 0.36707726 4.3673458
4.0323687 0.17469093 4.1075568
3.9585311 0.13630633 4.1400657
3.9433219 0.1061544 4.1141191
3.87306 0.11952165 4.1048079
3.8582509 0.1317074 4.0173674
3.8637207 0.14333555 4.0459905
3.8980527 0.29380962 4.420495
3.9384496 0.30778998 4.3100352
3.6675529 0.38546604 4.2871704
3.5883191 0.37210971 4.2568731
3.5908742 0.40467951 4.2284565
3.5965827 0.38626537 4.2329001
3.5941143 0.39474833 4.2275853
3.6342454 0.39292595 4.2157574
3.6329186 0.39673978 4.214375
3.6264772 0.45296645 4.2324157
3.6336732 0.39588311 4.214325
3.8889124 0.15417176 4.147233
3.6559465 0.42476624 4.081049
3.622947 0.46399969 4.1082978
3.6550968 0.61509293 3.8968482
3.9428527 0.30004901 4.2160535
3.8416007 0.33195281 4.3403807
3.8413284 0.33432943 4.3387041
3.9862018 0.33506373 4.3458152
3.9535275 0.30810797 4.2531953
3.7713819 0.37357327 4.3591523
3.8365548 0.28861505 4.128242
3.7004302 0.32533371 4.2495518
3.5910482 0.37198654 4.257863
3.9829912 0.37008449 4.3398972
3.833092 0.28370777 4.1282058
4.0153189 0.36131808 4.1917124
4.014986 0.3610369 4.1923556
4.0149136 0.35907745 4.1939483
4.0149207 0.35975802 4.1908984
4.0149751 0.36484459 4.1936536
3.8608267 0.19079998 4.1539083
4.014605 0.364447 4.1907482
4.012856 0.36473149 4.1933074
4.0175986 0.37430358 4.1857104
3.8923912 0.12005241 4.0896692
3.8714287 0.33940136 4.4255719
3.6570787 0.42185122 4.0836926
3.6685932 0.44568634 4.0253901
3.9716253 0.14989448 4.1423388
4.0753694 0.16220631 4.0876689
4.0616541 0.17161395 4.1090522
3.8051772 0.085167266 4.1048813
3.6214054 0.46705511 4.1057944
3.8387153 0.12034845 4.1464815
3.8390214 0.12372672 4.1427917
3.8176522 0.17181215 3.994488
