# .PCD v0.7 - Point Cloud Data file format
VERSION 0.7
FIELDS x y z
SIZE 4 4 4
TYPE F F F
COUNT 1 1 1
WIDTH 300
HEIGHT 1
VIEWPOINT 0 0 0 1 0 0 0
POINTS 300
DATA ascii
1.2312009 0.30804518 1.903838
0.86183083 0.0073430063 2.3651681
0.75759512 -0.1791386 2.0378337
1.0481108 -0.26837164 2.2777932
1.0854007 0.21810706 2.0838699
1.1363065 0.27873635 1.9953763
0.89307195 0.58915961 1.5619859
1.0864882 -0.016170157 2.4070487
0.95155489 -0.070619777 2.3445442
0.64681214 0.21132113 2.1775022
0.87642425 -0.25099605 2.2362313
1.0526145 0.081734873 2.3381033
1.1133628 0.28256243 1.9921221
0.91253549 0.0085894568 2.3724511
1.0028723 0.36259547 1.8652011
0.98380923 -0.17218675 2.3048368
1.1085981 -0.23585398 2.315706
1.1293749 0.84200263 2.0948434
0.78352785 0.10495982 2.1175768
0.7842049 0.10410113 2.110013
0.75706649 0.23425841 2.0510883
0.83555603 0.64451128 1.5256956
0.98962116 0.31342593 1.8835979
0.39988005 0.16845518 2.0310214
0.39967152 0.1665889 2.0320439
0.44912654 0.26741093 1.999145
0.0064195693 0.14898169 2.0156195
0.0069257538 0.15200436 2.0100133
0.89911687 0.17479937 2.198868
0.77787811 0.099960096 2.1252985
1.1376065 0.27965948 1.9965146
0.82303691 0.28087786 1.9892635
0.99155903 0.29876116 1.9348159
0.026138198 0.063040659 2.0405698
1.2234266 0.31980693 1.9206076
1.1602521 -0.029020436 2.4352651
0.76811659 0.23548195 2.0560355
0.86530584 0.011568432 2.3508587
-0.0037105673 -0.092571981 2.08567
1.026589 0.30645555 1.8892982
0.91074759 0.13668637 2.2479575
0.073562235 0.08389394 2.0248239
1.1751261 -0.052244894 2.4158394
1.1296906 -0.19296731 2.3378193
0.99010986 0.32573783 1.8610419
1.0231813 0.35629597 1.8675529
0.93799984 -0.16742469 2.2936115
0.95064527 -0.067930445 2.3478999
0.95537913 0.077501118 2.3594542
0.11442342 0.081570581 2.0199618
0.55396396 0.32199976 1.9223791
0.93222976 0.089209072 2.313395
1.1569922 -0.032001104 2.4317131
0.37020352 0.19091405 2.0404718
1.0754929 0.19434044 2.1898761
0.59638524 0.15107477 2.2087903
0.98693818 0.31045499 1.9437963
0.82554924 0.66004044 1.5425688
0.47716069 0.37004733 1.1303896
0.81635684 0.68495077 1.3541249
0.85557801 0.65621459 1.5482457
0.83283591 0.64687526 1.5260644
0.81007135 0.69380039 1.3777815
0.77902889 0.6730212 1.3084816
0.8029272 0.79107571 1.4418981
0.80351412 0.65689027 1.3686343
0.7439543 0.62617075 1.3029175
0.4511103 0.41019613 1.1441503
0.73402113 0.62012738 1.2486302
0.78513956 0.674528 1.3363301
0.40677798 0.42950875 1.17265
0.55097443 0.41793635 1.0916617
0.34234044 0.36818942 1.2829157
0.60575604 0.53545052 1.20341
0.81215167 0.69830275 1.3452988
0.82073116 0.68949485 1.4403284
0.79677016 0.65784836 1.3809659
0.87288314 0.63620567 1.5613645
0.59028512 0.47237962 1.1390103
0.74652576 0.64392138 1.2494848
0.61297637 0.85164934 1.4347253
0.61215746 0.85087007 1.4335932
0.78605688 0.67223436 1.3269938
0.80906379 0.6730985 1.365658
0.79248041 0.63844132 1.497552
0.60769892 0.51258045 1.3396809
0.11062985 0.20645186 2.2301152
0.63160294 0.54846805 1.2960296
0.40521118 0.53589213 1.2785938
0.76207769 0.60896605 1.5038041
0.3895233 0.50081003 1.2383149
0.75331807 0.61836934 1.3867599
0.4564915 0.36783579 1.1529315
0.81878847 0.64056158 1.5108142
0.98019844 0.31205145 1.9476391
0.75630355 0.62178963 1.2033007
0.87221581 0.22254001 2.1017134
1.1387932 0.85815293 2.1310401
0.87528205 0.61768484 1.5674355
0.77417976 0.095434837 2.0894744
0.50521898 0.32100683 1.919872
0.8732962 0.54063517 1.5992451
0.72256762 0.7614994 1.4323777
0.53478062 0.41612726 1.0952126
0.65125883 0.45071179 1.2559419
0.40410939 0.15957607 2.0383501
0.75558084 0.61974996 1.301006
0.80978721 0.68430603 1.4142934
1.2730503 0.78954136 1.9190615
0.10894734 0.55127478 1.5202124
0.87537384 0.53936893 1.5822672
0.8906371 0.56746179 1.5969203
0.86722302 0.68920487 1.5557511
0.87804168 0.54081696 1.5826186
0.87679338 0.53672767 1.5804899
0.76011825 0.60926747 1.5080816
0.89680707 0.66638297 1.6450105
0.70643938 0.56101376 1.6782119
1.0048628 0.34783024 1.8612511
0.78291649 0.10360128 2.1223493
0.60324663 0.1423194 2.2097526
0.65184987 0.21017997 2.2016237
0.88768893 0.64588583 1.5657697
1.0242765 0.31289318 1.8977145
0.98804539 0.31317785 1.9010297
0.87432092 0.63662755 1.5623674
1.0721979 0.22653508 2.0801859
0.89331865 0.60674256 1.5664297
0.75329661 -0.17348488 2.0286262
0.74670768 -0.18352899 2.0688872
0.74728703 -0.17387335 2.0427306
0.91344333 0.16674037 2.196846
0.87684858 -0.32356137 2.1746407
0.88009953 -0.2948018 2.2218986
0.89058268 -0.28764701 2.2048385
0.94504511 0.15102819 2.2031815
0.8776024 -0.24581341 2.2275336
0.86665398 -0.24784751 2.2755342
0.34829724 -0.1412838 2.0173192
0.38370264 -0.10960613 1.9561173
0.77567303 -0.19037914 2.017539
0.74481165 -0.19491082 2.0372112
0.68019742 0.5694446 1.5154786
0.72201043 -0.20305017 2.0631936
0.52267963 0.16949464 2.2183774
0.92484337 -0.012437599 2.3912544
0.89785117 0.57397562 1.5828974
0.89227486 0.17932408 2.1342144
0.92665625 0.092957214 2.3406634
0.95260584 0.080768123 2.333884
0.95843226 0.12127094 2.0982285
0.21450761 -0.24636531 2.0770221
0.22836873 -0.26049 2.0692039
0.23775055 -0.25692323 2.0482261
0.23878576 -0.22936192 2.0318925
0.89349473 0.1180518 2.2552476
0.88651264 0.16067757 2.0404615
0.23635687 -0.21413143 2.0765901
0.24041954 -0.21680234 2.0427122
0.35020283 -0.13889113 1.9622664
0.86335778 0.59088057 1.547104
0.16107608 -0.23762591 2.0635905
0.22525592 -0.17284173 2.1040106
0.16482869 -0.19646892 2.0847611
0.23905475 -0.14412695 2.1238732
0.58709437 0.62299907 1.1938871
1.2647009 0.42624438 1.7711787
0.79096371 0.53006172 1.6149846
0.6808632 0.30079919 1.9495441
0.82538182 0.62721139 1.5466441
0.46973714 0.48341697 1.1671137
0.79462904 0.64213747 1.5012963
-0.0044356482 -0.13377066 2.0640616
-0.00323307 -0.13477623 2.0657058
-0.00084250898 -0.094979621 2.083864
0.035222858 0.55362308 1.6444098
0.17014271 0.88627416 1.723356
0.77112335 -0.19466884 2.0372045
0.75683749 -0.19505034 2.0884328
1.0837889 0.22985622 2.0580952
1.052072 0.15395349 2.196126
0.74391747 0.62851924 1.2532212
1.0150094 0.35013324 1.8570435
1.0969111 -0.37005636 2.201055
1.1387897 -0.30358779 2.1891084
1.0970055 -0.35480112 2.1604033
0.97348046 -0.38852185 2.1554594
0.96925801 -0.40360096 2.201673
0.87762839 -0.37989688 2.1445582
0.95536304 -0.38068169 2.2109377
0.87573618 -0.38774085 2.167716
0.8783288 -0.37991208 2.1493971
1.0548304 -0.2990911 2.1750035
0.97207612 -0.33882415 2.1876876
0.93743008 0.15819116 2.1968107
1.1384693 -0.26720002 2.26723
0.9399966 0.15780231 2.1941063
0.98768389 -0.30367208 2.1877179
0.36510777 -0.12745501 1.9932469
0.76206416 0.63110161 1.4805602
0.38541737 0.43369359 1.2083462
0.12675609 0.20814531 2.2465117
0.183878 0.21699648 2.1211135
-0.83270591 0.96243954 2.4205668
0.26040894 -0.11110345 2.1082256
0.077080682 -0.20781164 2.0572522
0.23070554 -0.13136519 2.1605709
0.08945965 -0.20536743 2.0482378
-0.0026592324 0.15571491 2.0198848
0.010219023 0.16367924 1.9926032
-0.048349053 -0.22829452 2.1169713
-0.0088748597 -0.2090358 2.0359769
-0.012559791 -0.21015155 2.0459208
0.12826221 0.05013781 2.0517759
0.0062699178 -0.12991841 2.0557797
0.037552942 -0.16214973 2.0662627
-0.085751452 -0.16845091 2.209955
-0.038721167 -0.12171051 2.1201
0.0083232773 -0.15092266 2.0745773
0.10201957 -0.071339734 2.0052419
-0.83647251 0.95543492 2.3828192
-0.90991986 0.97049671 2.5378082
-0.91479737 0.97064829 2.5411592
-1.0687963 1.0182549 2.7028551
0.89086413 -0.29400486 2.2179651
0.88037533 -0.28697744 2.2208157
1.1080871 -0.21127589 2.2312233
0.87974787 -0.31401607 2.2712946
0.88907039 -0.29173607 2.2131431
1.053407 0.12744696 2.1922793
1.141348 0.11802661 2.3123641
1.1347927 0.12417997 2.285037
1.0863643 0.096658163 2.2661846
0.21005777 -0.34002993 2.0284321
0.84629959 0.16186985 2.1125362
0.22879268 -0.30658594 2.0415235
0.17593104 -0.3539128 2.1530824
0.16227832 -0.34617284 2.0620818
0.17618778 -0.33473665 2.0351937
0.21268293 -0.31556204 2.0662644
0.26065934 -0.27639732 1.967082
0.17190866 -0.32235897 2.0610666
0.1770556 -0.29122466 2.0732598
0.20787385 -0.29058871 1.9864044
0.12963879 -0.348959 2.0709577
0.088564649 -0.36585709 2.2515297
0.16223529 -0.3150076 2.0804935
0.24984184 -0.24489243 2.0132442
0.19245468 -0.25609043 2.0634906
0.0070496704 -0.31459209 2.0071378
0.11832975 -0.29793417 2.0738003
-0.057051968 0.064244546 2.0883234
-0.077842422 0.058703166 2.1196139
0.0048322268 -0.31771177 1.9883003
0.10110854 0.57294405 1.5140116
0.1032006 -0.26468065 2.2062082
0.21494022 -0.18042549 2.1315289
0.013791938 0.11787704 2.0828524
0.22252983 -0.1686323 2.0523639
0.26538301 -0.12015928 2.0541236
0.11037706 -0.15859915 2.0206239
0.0050705466 -0.15639566 2.0504618
-0.058122471 -0.23419903 2.3141379
0.099139355 -0.16114056 2.0332963
0.25421068 -0.075947993 1.9170423
-0.12608157 -0.17993432 2.2954426
-0.013604278 -0.083414875 2.0839674
0.64989126 0.18110172 2.2039118
0.42126393 0.1849605 2.2860396
0.12566571 0.20520584 2.2425106
0.11698285 0.2033924 2.2686989
1.1523671 -0.34179649 2.2871099
1.17303 -0.055256322 2.4012532
0.98919266 0.34967124 1.8903623
0.87484026 0.28355235 1.9923676
1.1738954 -0.043020021 2.420295
-4.6653733 -0.68216556 5.8224134
0.6237489 0.36150226 1.8827395
0.78292745 0.64332902 1.3281555
-5.4466267 -2.1233106 8.0288429
-3.0546341 0.11383837 4.4005475
-4.8781915 -1.7511449 6.8777475
-5.4878531 -1.6280731 6.93471
-4.1492753 -1.3019688 6.8229761
-6.4247522 -2.4742999 9.147769
-7.4903331 -2.4966867 9.4648094
-4.4669828 -1.8158222 7.0577621
-5.3637938 -1.5952007 6.8168864
-7.2342777 -2.2034779 8.6682739
-4.6760855 -1.8956044 7.2972198
-3.8148639 -0.8683852 5.3896375
0.75148314 0.64073157 1.2286751
-4.3868032 -1.9316952 6.6476936
-3.9824889 -0.99955207 6.872108
-6.1309628 -2.4947984 9.1087914
-6.585084 -2.676194 9.7199221
-4.2262821 -1.864343 6.4558034
0.4110823 0.69290119 1.4304286
-4.4946504 -2.0205488 6.9626818
-8.2789812 -2.189106 12.623879
