# .PCD v0.7 - Point Cloud Data file format
VERSION 0.7
FIELDS x y z
SIZE 4 4 4
TYPE F F F
COUNT 1 1 1
WIDTH 118
HEIGHT 1
VIEWPOINT 0 0 0 1 0 0 0
POINTS 118
DATA ascii
3.6933279 0.11864677 3.6476207
3.6928904 0.11818289 3.6532292
3.3245471 0.48006427 3.4020617
3.4971712 0.51166528 3.6668305
3.3230081 0.50231773 3.4225724
3.2693384 0.46961766 3.4535182
3.2695301 0.4460339 3.4308395
3.3269813 0.47621486 3.4040556
3.7166667 0.10445423 3.6341975
3.8164778 0.3378002 3.9540951
3.312988 0.49572054 3.3977606
3.2733281 0.48099488 3.451313
3.7729437 0.33267105 3.8707125
3.7164443 0.10075203 3.6382015
3.7747395 0.32973304 3.8695986
3.7166796 0.10310603 3.6352513
3.8800051 0.16203631 3.6384985
3.5075316 0.42177218 3.7565286
3.7172132 0.10452204 3.6343989
3.4989955 0.4416309 3.7516088
3.5291514 0.3760612 3.7826891
3.7169595 0.10421294 3.6340935
3.7364044 0.28827655 3.6728022
3.7394931 0.28523251 3.6791835
3.81934 0.3364861 3.9526844
3.6485567 0.34472865 3.9220109
3.8021655 0.3371667 3.947824
3.7806129 0.14725289 3.6513665
3.5090375 0.3303673 3.9120955
3.8568599 0.31787226 3.8974736
3.7215629 0.35736582 3.9128296
3.8405547 0.32082868 3.9257109
3.9167004 0.23792739 3.6951036
3.8614614 0.33558652 3.7075582
3.850558 0.29261717 3.7135098
3.8738117 0.25203213 3.7076755
3.5019815 0.38392705 3.8229692
3.8794441 0.16268286 3.5557239
3.7399578 0.13134582 3.5979562
3.8472149 0.32670557 3.9097633
3.7164438 0.2510184 3.6668639
3.7291152 0.35527465 3.9411027
3.8397601 0.29890972 3.7391856
3.7673843 0.13331874 3.6252642
3.8646312 0.13865912 3.5984962
3.8006945 0.35256624 3.9455588
3.7671044 0.19849055 3.6860428
3.7868559 0.14354371 3.5238276
3.8015046 0.32870641 3.9418418
3.7500243 0.21761404 3.6989915
3.6960096 0.37203518 3.9153638
3.8737357 0.30419955 3.7998362
3.885391 0.31523329 3.8013659
3.7415674 0.1268013 3.6766081
3.3102131 0.49665052 3.3881283
3.5220778 0.41017556 3.6644647
3.6372738 0.36429268 3.8918028
3.858917 0.30354708 3.7442386
3.9451129 0.23567501 3.6454484
3.9393837 0.20833898 3.6135085
3.7139626 0.10216986 3.6363652
3.8574169 0.15063611 3.646765
3.739188 0.14766881 3.5867701
3.7618682 0.35184693 3.9181159
3.7642288 0.35454354 3.915745
3.8506987 0.1475656 3.6470718
3.7367167 0.15478399 3.5357857
3.7338643 0.36442932 3.9236794
3.784338 0.14913312 3.5122223
3.8591466 0.34845528 3.9345932
3.5765636 0.31491816 3.9431634
3.7844827 0.33354998 3.9117739
3.8601646 0.29870576 3.7888436
3.7853005 0.1582863 3.4877951
3.7842622 0.34133837 3.9055028
3.8408163 0.28362918 3.7151039
3.5083261 0.33405858 3.9135249
3.6523893 0.34174916 3.9240291
3.5069642 0.36583605 3.8402939
3.5704033 0.37562016 3.8376753
3.8804574 0.17073426 3.549346
3.5033314 0.39976174 3.8136351
3.5423427 0.39414126 3.7918272
3.5399296 0.42919341 3.6581964
3.552439 0.43323049 3.6288278
3.5125573 0.33821982 3.9004776
3.5106461 0.36524275 3.8394914
3.4999619 0.38689971 3.8221183
3.5289788 0.37173268 3.7826293
3.5155756 0.40836978 3.6424556
3.5804317 0.38667455 3.6806412
3.5373967 0.47607476 3.4854794
3.4528873 0.64247948 3.4343734
3.7773371 0.15262243 3.646323
3.6504307 0.34738052 3.9227917
3.9981828 0.26068363 3.7183619
3.7722938 0.33184379 3.8746789
3.7716501 0.33428293 3.8732061
3.8578346 0.14962314 3.6462643
3.8672075 0.31647891 3.7676613
3.7301438 0.29820842 3.6649208
3.5098302 0.36577457 3.8407691
3.7802689 0.16689757 3.6752496
3.8673961 0.14013891 3.5668271
3.9100273 0.37548548 3.8507943
3.6920302 0.11716719 3.6465695
3.8879135 0.17022419 3.5481496
3.9142015 0.37800577 3.6983056
3.9129381 0.37810251 3.7011487
3.9975133 0.2501502 3.7124162
3.7012248 0.094984174 3.636905
3.5045841 0.42442524 3.7590964
3.8583145 0.3153252 3.7682929
3.8671079 0.30652314 3.8307965
3.5091887 0.46890083 3.6909394
3.7402036 0.13304783 3.6700902
3.8735535 0.30878243 3.8030474
3.5608535 3.740417 -0.26615745
